# .PCD v0.7 - Point Cloud Data file format
VERSION 0.7
FIELDS x y z
SIZE 4 4 4
TYPE F F F
COUNT 1 1 1
WIDTH 1656
HEIGHT 1
VIEWPOINT 0 0 0 1 0 0 0
POINTS 1656
DATA ascii
64 64 -0
64 64 -0
79.243813 71.072212 -0.46931663
80.39724 71.60733 0
80.577667 71.69104 0.51038235
71.385223 67.437149 -0.9022789
64 64 -0
64 64 -0
79.296509 71.119133 -0.47120333
73.588394 68.462524 0
80.549515 71.702293 0.50980181
71.385666 67.448219 -0.90284121
64 64 -0
64 64 -0
79.353806 71.168381 -0.47323498
73.578262 68.471901 0
73.54776 68.457657 0.29428095
71.441315 67.485161 -0.91015822
64 64 -0
64 64 -0
79.138077 71.089951 -0.46684942
78.587906 70.832283 0
73.561188 68.478004 0.2948615
71.391113 67.472542 -0.90453041
64 64 -0
64 64 -0
79.054237 71.072884 -0.46452719
78.499557 70.812279 0
73.541656 68.482925 0.29442596
71.409897 67.492302 -0.90734434
64 64 -0
64 64 -0
78.975166 71.057831 -0.46234995
78.481888 70.825348 0
73.545624 68.498878 0.29471594
71.35054 67.475189 -0.9005897
64 64 -0
64 64 -0
78.689438 70.94487 -0.45378715
78.426582 70.820602 0
73.549591 68.514854 0.29500651
71.410606 67.514549 -0.90846902
64 64 -0
64 64 -0
78.507324 70.880234 -0.44841766
78.380707 70.820183 0
73.520653 68.515259 0.29428095
71.355888 67.499489 -0.9022789
64 64 -0
64 64 -0
78.649155 70.969193 -0.45306158
78.36776 70.83532 0
79.596855 71.420052 0.48237166
71.370003 67.517136 -0.90453041
73.916931 68.732582 -0.91595358
64 64 -0
64 64 -0
73.591774 68.577415 0
79.859901 71.56871 0.49078947
71.384079 67.534813 -0.90678197
73.730614 68.658112 -0.8992641
77.904305 70.65609 -0.85910696
64 64 -0
73.562767 68.577766 0
79.681999 71.50708 0.48556447
71.388954 67.548126 -0.90790665
73.724976 68.669868 -0.8992641
77.793671 70.623627 -0.85276508
78.534798 70.979507 -0.45030436
73.496231 68.560028 0
78.93277 71.170609 0.46263382
71.416718 67.572495 -0.91184741
73.774818 68.708344 -0.90439802
77.715744 70.606613 -0.84844041
78.559113 71.012848 -0.4513199
78.240768 70.859505 0
78.624458 71.044319 0.45334545
71.396248 67.568138 -0.90959585
73.961555 68.80571 -0.92194432
77.567337 70.545227 -0.83950418
78.512756 71.00132 -0.45001379
78.07724 70.791222 0
78.559357 71.023804 0.45145878
71.437668 67.599205 -0.9152236
64 64 -0
77.452316 70.509789 -0.83287317
78.47155 71.003014 -0.44899824
79.399567 71.452095 0
78.499397 71.016487 0.44986209
71.437897 67.610413 -0.91578811
74.324013 69.01136 -0.95660758
77.47702 70.541855 -0.8348915
78.397614 70.988716 -0.44696599
79.371819 71.461601 0
78.41143 70.995422 0.44739488
71.424385 67.614944 -0.91466129
74.387192 69.057541 -0.96302754
77.445854 70.546814 -0.83345032
78.370468 70.997009 -0.44638544
79.297287 71.448273 0
78.262802 70.944588 0.44304097
71.451981 67.639526 -0.91860199
74.348778 69.054314 -0.96003133
77.451881 70.56987 -0.83431548
78.352676 71.009811 -0.44609544
79.302307 71.47361 0
78.231056 70.950417 0.4423154
71.420189 67.635109 -0.9152236
74.328827 69.060036 -0.95874703
77.332443 70.531494 -0.82739645
78.292854 71.001999 -0.44449878
73.548927 68.677971 0
78.22731 70.969887 0.44246042
64 64 -0
74.419464 69.120064 -0.96773392
77.292038 70.531631 -0.82537812
73.639099 68.736595 -0.29994765
79.354263 71.544991 0
73.531601 68.683777 0.29660264
71.425056 67.659775 -0.91691279
74.325783 69.089531 -0.95960379
77.256302 70.533966 -0.82364893
73.624039 68.743637 -0.29965711
73.53759 68.701035 0
73.539925 68.702179 0.29703817
71.397858 67.657486 -0.91409892
74.301216 69.092903 -0.95789188
77.178841 70.515587 -0.81932425
73.660217 68.775993 -0.30096322
73.536568 68.714859 0
73.557526 68.72522 0.29776374
64 64 -0
74.327255 69.121315 -0.96088809
77.143158 70.517723 -0.81759506
73.598587 68.759964 -0.29922211
73.61013 68.765686 0
73.528534 68.72522 0.29703817
64 64 -0
71.37989 67.670822 -0.91297209
74.32106 69.133789 -0.96088809
77.135269 70.5336 -0.81759506
78.706268 71.315025 -0.45872161
73.613693 68.781937 0
73.518173 68.734421 0.29689318
64 64 -0
71.40274 67.693352 -0.91635048
74.324036 69.150833 -0.96174318
77.108856 70.54023 -0.81644189
78.674171 71.32119 -0.45799604
73.565994 68.772636 0
73.526398 68.752884 0.29732874
64 64 -0
71.434631 67.72049 -0.92085356
74.336166 69.172493 -0.96345508
77.082436 70.546806 -0.81528872
78.697845 71.355202 -0.45901215
73.527634 68.767883 0
73.539238 68.773689 0.29790929
71.411957 67.720352 -0.91860199
74.389557 69.21492 -0.96901822
73.56102 68.799049 -0.59619761
64 64 -0
77.843246 70.948463 0
73.491646 68.764221 0.29660264
71.402924 67.72702 -0.91803968
74.332817 69.20208 -0.96431184
64 64 -0
78.610397 71.355637 -0.45683494
77.890625 70.993271 0
73.541588 68.803734 0.29834428
71.402946 67.738251 -0.91860199
74.303596 69.202988 -0.96217078
64 64 -0
78.151543 71.146072 -0.4427571
77.84964 70.993622 0
73.531143 68.81292 0.2981993
71.425621 67.760963 -0.92197824
74.333939 69.233986 -0.96559447
64 64 -0
77.762756 70.970634 -0.4308565
77.887604 71.033867 0
73.529945 68.826775 0.29834428
64 64 -0
74.318466 69.241821 -0.96473938
73.556168 68.854576 -0.59735072
73.635521 68.89489 -0.30183434
77.902313 71.062439 0
73.565804 68.859474 0.2996504
71.380287 67.760445 -0.91747516
74.293823 69.244965 -0.96302754
76.988548 70.617996 -0.81240636
73.643494 68.913605 -0.30226991
77.9123 71.088669 0
73.527527 68.854515 0.29863486
71.389313 67.776299 -0.91916436
74.324051 69.276093 -0.96645123
76.957497 70.62191 -0.81096405
73.642174 68.92762 -0.30241489
77.959343 71.133896 0
73.466125 68.837646 0.29689318
71.448051 67.817673 -0.92704368
74.322235 69.290901 -0.96687883
64 64 -0
78.330101 71.345222 -0.44972378
77.927559 71.138893 0
73.520386 68.879898 0.29877985
71.58136 67.891785 -0.94392914
74.159187 69.21508 -0.9519012
76.954689 70.650108 -0.8115412
78.297913 71.339638 -0.44885269
77.844528 71.106895 0
73.498947 68.876152 0.2981993
71.716721 67.973061 -0.96137911
64 64 -0
76.969635 70.677597 -0.81298238
78.164291 71.292686 -0.44493434
77.724869 71.066437 0
73.511528 68.897141 0.29877985
71.766098 68.010361 -0.96813369
64 64 -0
77.012115 70.719376 -0.81615388
75.214218 69.790955 -0.35248509
77.63308 71.040039 0
73.510216 68.911011 0.29892486
71.801849 68.040771 -0.97319913
64 64 -0
77.022362 70.744606 -0.81730705
75.267204 69.835564 -0.35437176
77.4813 70.9823 0
76.918968 70.691055 0.40632248
71.810478 68.05722 -0.97488618
73.783051 69.081886 -0.91894811
76.968292 70.736488 -0.81442356
75.241699 69.839592 -0.35379121
73.593102 68.983215 0
76.897049 70.699478 0.40588748
71.805573 68.066658 -0.97488618
73.986343 69.20282 -0.9386338
76.872986 70.706749 -0.80894685
75.23925 69.855583 -0.35393676
64 64 0
76.935028 70.739067 0.40733862
71.818672 68.085495 -0.97713768
74.230301 69.34565 -0.96217078
76.759422 70.667191 -0.80231583
75.181503 69.842682 -0.35234007
73.525673 68.977455 0
76.982147 70.783577 0.40908027
71.809227 68.092583 -0.97657537
74.287514 69.39138 -0.96816313
76.728455 70.670601 -0.80087465
73.485184 68.970901 -0.29907656
73.524277 68.991386 0
77.010765 70.818558 0.4102414
71.81778 68.109116 -0.97826457
74.280991 69.403801 -0.96816313
76.761589 70.707634 -0.803469
73.59417 69.042801 -0.3027049
77.056473 70.862633 0
77.057716 70.863281 0.41198307
71.91114 68.182617 -0.99120927
74.281502 69.435829 -0.96944577
76.86882 70.803741 -0.81125319
76.981567 70.86335 -0.41010252
76.892624 70.816322 0
77.142159 70.948257 0.41517586
74.27948 69.450661 -0.96987498
76.89257 70.836243 -0.81327039
73.557465 69.06781 -0.30212435
76.85218 70.814827 0
77.583687 71.202698 0.42939869
74.250206 69.451012 -0.96773392
76.916275 70.86882 -0.81528872
73.528397 69.067154 -0.30139878
76.899086 70.85968 0
77.928261 71.406982 0.44057372
74.27533 69.480309 -0.97073013
76.921661 70.891724 -0.81615388
73.5131 69.073776 -0.30110878
77.033142 70.951187 0
77.978905 71.455597 0.44246042
74.277763 69.497574 -0.97158688
76.908752 70.904884 -0.81586474
73.529869 69.097527 -0.30183434
77.10276 71.008659 0
77.960732 71.46759 0.44217041
74.280151 69.514832 -0.97244197
76.877609 70.908257 -0.81442356
64 64 -0
64 64 0
77.892166 71.452515 0.44028375
74.250877 69.515091 -0.97030252
76.846481 70.91156 -0.81298238
64 64 -0
77.04911 71.020576 0
77.585678 71.30925 0.43084982
74.262276 69.537224 -0.97201443
76.847237 70.931992 -0.81355953
64 64 -0
76.990242 71.009155 0
77.165237 71.103577 0.41778809
74.273643 69.559395 -0.97372627
76.879791 70.969666 -0.81615388
73.418274 69.096527 -0.29907656
76.963455 71.014938 0
77.261757 71.176361 0.42112589
74.271423 69.574249 -0.97415382
73.59343 69.206306 -0.60830528
64 64 -0
77.032738 71.0728 0
77.467758 71.308884 0.42794758
74.237633 69.571938 -0.97158688
73.546249 69.195641 -0.60571092
75.099327 70.040924 -0.35292065
77.115601 71.138298 0
77.531937 71.364891 0.43026924
74.2444 69.591675 -0.97286952
73.530891 69.202217 -0.6051349
75.069214 70.041878 -0.35219508
77.403923 71.316231 0
77.349693 71.286629 0.42475423
74.245522 69.600327 -0.97329706
76.891045 71.046402 -0.81874824
75.065567 70.048569 -0.35219508
77.51368 71.386734 0
76.975937 71.092804 0.41299862
74.243263 69.615173 -0.97372627
76.882523 71.061974 -0.81874824
75.071922 70.069427 -0.35263065
77.472794 71.385544 0
76.880791 71.06102 0.4102414
74.236473 69.627548 -0.97372627
76.883041 71.082512 -0.81932425
73.52993 69.23912 -0.30372101
77.441055 71.389282 0
76.986092 71.139168 0.41386974
74.000374 69.513496 -0.9519012
76.842773 71.080597 -0.81730705
74.9935 70.061035 -0.35059842
77.404778 71.390442 0
77.296005 71.330475 0.42402866
73.710655 69.36908 -0.92494047
76.802513 71.078583 -0.81528872
75.004356 70.084373 -0.35117897
77.386719 71.401596 0
77.428116 71.424484 0.42852756
64 64 -0
76.676338 71.028831 -0.80779368
74.978821 70.087585 -0.35059842
64 64 0
77.391876 71.425583 0.42765701
73.688667 69.387535 -0.92408371
76.500565 70.951134 -0.79712713
74.944214 70.085701 -0.34972787
77.314201 71.403572 0
77.264809 71.376099 0.42388368
73.776314 69.451744 -0.9330706
75.990692 70.686592 -0.76512861
74.941383 70.101448 -0.34987286
77.273438 71.401917 0
77.183266 71.351624 0.42156145
74.083382 69.638962 -0.96302754
75.820068 70.610176 -0.75475007
74.938538 70.117195 -0.35001785
77.219048 71.392532 0
77.201599 71.382774 0.42243254
74.201927 69.721451 -0.97500896
75.757942 70.594101 -0.75129169
74.917557 70.122787 -0.34958285
77.19648 71.400864 0
77.197197 71.40126 0.42257756
74.244232 69.761459 -0.97971702
75.718399 70.590546 -0.74927336
74.919197 70.141068 -0.34987286
77.142174 71.391289 0
77.201813 71.424835 0.42301255
74.255157 69.783928 -0.98142886
75.660858 70.576744 -0.74610186
74.893661 70.144043 -0.34929231
77.101494 71.389267 0
77.174744 71.43058 0.42243254
74.252625 69.798836 -0.98185641
75.634895 70.580643 -0.74494869
74.881714 70.154648 -0.34914729
73.51815 69.383423 0
77.143127 71.433693 0.42170644
74.263474 69.82135 -0.98356831
75.644936 70.604904 -0.74610186
74.860703 70.160095 -0.34871173
77.011177 71.379829 0
77.097977 71.429062 0.42054531
74.238579 69.823593 -0.98185641
75.695396 70.652222 -0.74984938
74.853249 70.173218 -0.34871173
76.961533 71.372383 0
77.052864 71.424332 0.41938478
74.262756 69.853775 -0.98485261
75.880554 70.77655 -0.76224512
74.936066 70.237823 -0.35161453
76.911911 71.364822 0
77.007774 71.419502 0.41822365
74.255676 69.866173 -0.98485261
76.083405 70.911613 -0.77579516
75.181122 70.395515 -0.35974178
76.862343 71.357162 0
76.976227 71.422302 0.41749755
74.239662 69.873444 -0.98399585
75.958366 70.859283 -0.76829898
75.272552 70.465904 -0.36293456
75.688644 70.704575 0
76.92218 71.412125 0.41604641
74.263718 69.903732 -0.98699206
75.707954 70.734467 -0.75273287
75.228699 70.458794 -0.36177346
75.635422 70.692741 0
75.45372 70.588226 0.36902347
74.247688 69.911003 -0.98613691
75.632591 70.709839 -0.7484082
75.153374 70.433411 -0.35959679
75.636337 70.71199 0
75.445755 70.602066 0.36902347
74.276077 69.943939 -0.98955899
75.628952 70.726471 -0.74869621
75.015137 70.371429 -0.35538787
75.641739 70.733871 0
75.424286 70.608086 0.36858845
74.233376 69.935753 -0.98613691
73.468605 69.492157 -0.6100356
74.854591 70.296082 -0.35045341
75.602074 70.729645 0
75.402802 70.614059 0.36815289
74.247543 69.952248 -0.98784882
73.514481 69.526451 -0.61320597
74.79686 70.271317 -0.34871173
75.602516 70.739281 0
75.389824 70.615738 0.36786291
74.249214 69.969788 -0.98870391
73.489914 69.527527 -0.6120528
74.76683 70.271278 -0.34798619
75.580872 70.74543 0
75.386307 70.632103 0.3680079
74.25972 69.992523 -0.99041575
73.456436 69.523338 -0.61032361
74.723343 70.263321 -0.34682506
75.55024 70.746292 0
75.373802 70.643242 0.36786291
74.225906 69.989357 -0.98784882
75.520805 70.747787 -0.74408466
74.513977 70.158081 -0.34029391
75.528603 70.75235 0
75.370247 70.659607 0.3680079
74.227501 70.006905 -0.98870391
75.427887 70.711922 -0.73860681
73.637238 69.660225 -0.31213883
73.464981 69.559052 0
75.344269 70.662811 0.36742735
74.056557 69.922859 -0.97286952
75.268227 70.636475 -0.72880542
73.581131 69.642853 -0.31054214
73.485153 69.586327 0
75.349648 70.684425 0.36786291
73.731117 69.747032 -0.94205755
75.015228 70.505409 -0.71295017
73.54747 69.638573 -0.30967158
73.406693 69.555435 0
75.34156 70.698135 0.36786291
64 64 -0
74.953949 70.487083 -0.70949066
75.190575 70.627213 -0.36322513
75.504799 70.813301 0
75.342392 70.717125 0.36815289
73.633339 69.720734 -0.93392736
74.914986 70.481834 -0.70747346
75.258514 70.685837 -0.36569235
75.478653 70.816566 0
75.352142 70.74144 0.36873347
73.719055 69.787529 -0.94291431
74.898247 70.489716 -0.70689631
75.304016 70.731346 -0.36743402
75.479347 70.835754 0
75.352913 70.760468 0.36902347
74.064682 70.009834 -0.97715002
74.894836 70.505531 -0.70718431
75.371719 70.790291 -0.36990127
75.462151 70.844292 0
75.402756 70.808823 0.37091067
74.211571 70.114288 -0.99212766
74.886963 70.518692 -0.70718431
73.432961 69.648094 -0.30705881
75.458336 70.860802 0
76.00087 71.185654 0.39064854
74.217384 70.13456 -0.99341196
74.879082 70.531845 -0.70718431
73.577606 69.750435 -0.31199327
75.463425 70.882683 0
76.223846 71.339249 0.39819524
74.205551 70.144241 -0.99298275
74.818001 70.512962 -0.7037248
73.664146 69.818291 -0.31504107
75.459557 70.899216 0
76.197159 71.343292 0.39761469
74.233284 70.177795 -0.9964065
74.756996 70.493958 -0.70026642
74.640305 70.423515 -0.34711564
75.464569 70.92112 0
76.152687 71.336533 0.39645356
74.203857 70.176865 -0.99426705
74.651779 70.448013 -0.69392341
74.650322 70.447136 -0.34769619
75.531906 70.980797 0
76.12159 71.337761 0.39572799
74.200768 70.191856 -0.99469465
74.5467 70.401833 -0.68758154
74.646965 70.462692 -0.34784117
75.652473 71.073036 0
76.086067 71.336227 0.39485744
74.197678 70.206848 -0.9951238
74.512451 70.398438 -0.68585235
74.643578 70.478249 -0.34798619
75.82621 71.198059 0
76.063873 71.34272 0.39442188
74.207687 70.229858 -0.99683404
74.473801 70.392273 -0.68383402
74.635742 70.491104 -0.34798619
73.498428 69.796989 0
76.046112 71.351868 0.39413133
74.19577 70.23951 -0.9964065
74.479309 70.413025 -0.68469918
74.619034 70.498535 -0.34769619
73.478096 69.800308 0
75.988472 71.336586 0.39253521
74.201363 70.25988 -0.9976908
74.453918 70.414856 -0.68354601
74.620026 70.516792 -0.34798619
75.813354 71.249054 0
75.92202 71.315735 0.39064854
74.1763 70.261444 -0.99597895
74.432938 70.41935 -0.68268085
74.598862 70.521446 -0.34755063
75.844475 71.287865 0
75.758255 71.23481 0.38556853
64 64 -0
74.168144 70.2649 -0.99555141
74.296944 70.344254 -0.67403263
74.749786 70.62326 -0.35263065
64 64 0
75.647705 71.176498 0.38208574
74.134354 70.260986 -0.99298275
73.734787 70.01413 -0.63770944
75.656914 71.201622 -0.382673
75.778114 71.276497 0
75.692085 71.223343 0.38382742
74.109322 70.262413 -0.9912709
73.608788 69.952347 -0.62992638
75.683533 71.237587 -0.38383353
75.747192 71.277016 0
75.78936 71.303139 0.38731021
74.079948 70.261078 -0.98913145
73.610367 69.969406 -0.63050246
64 64 -0
75.729538 71.285706 0
75.780525 71.317383 0.38731021
74.054939 70.262398 -0.98741961
73.734871 70.063049 -0.63915068
75.630737 71.243828 -0.382673
75.698639 71.286118 0
75.749626 71.317871 0.38658464
74.038666 70.269104 -0.98656446
74.144356 70.335106 -0.66653758
75.613152 71.252365 -0.38238242
75.672165 71.289223 0
75.723145 71.321053 0.38600409
73.978867 70.248535 -0.98142886
74.237518 70.4105 -0.67316747
75.57354 71.247086 -0.38136631
75.597191 71.261894 0
75.679047 71.313148 0.38484296
73.724785 70.1222 -0.95789188
75.285728 71.104889 -0.74321949
75.534012 71.261192 -0.38064075
75.566391 71.281578 0
75.599777 71.302597 0.38281128
73.647911 70.090096 -0.95104444
75.316505 71.143372 -0.74581385
73.468674 69.976952 -0.31271937
75.531181 71.278885 0
75.573372 71.305511 0.38223073
73.670921 70.120972 -0.95404059
75.294746 71.148735 -0.74494869
73.461441 69.988388 -0.31271937
75.473999 71.262184 0
75.529404 71.297256 0.3810696
73.745865 70.184914 -0.96217078
75.220596 71.120811 -0.74062514
75.419868 71.247269 -0.37773851
75.447632 71.264893 0
75.503029 71.300041 0.38048905
73.794693 70.232513 -0.96773392
75.185791 71.117691 -0.73889482
75.371635 71.235947 -0.37643185
75.403717 71.256363 0
75.467896 71.297203 0.3796185
73.804466 70.255394 -0.96944577
75.216431 71.156242 -0.74148917
75.354126 71.244095 -0.37614185
75.381775 71.261734 0
75.437172 71.297081 0.37889293
73.762306 70.245102 -0.96602207
73.530182 70.096611 -0.63050246
75.340988 71.255013 -0.37599686
75.337929 71.253052 0
75.402069 71.294083 0.37802184
73.750435 70.25412 -0.96559447
73.636024 70.18074 -0.63799858
73.390091 70.022995 -0.31155828
75.302864 71.249878 0
75.375748 71.296631 0.37744126
73.725594 70.254791 -0.96388263
73.698151 70.237137 -0.64261013
75.253494 71.237419 -0.3736746
75.28096 71.255081 0
75.340706 71.29351 0.3765707
73.687843 70.24707 -0.96088809
64 64 -0
75.196686 71.220032 -0.37207794
75.237206 71.246155 0
75.310051 71.293129 0.37584516
73.637161 70.230888 -0.95660758
73.661331 70.246513 -0.64116895
73.7304 70.291168 -0.32360387
75.210953 71.248421 0
75.27504 71.289856 0.37497404
73.59948 70.222992 -0.95361304
73.636414 70.246933 -0.64001578
73.792557 70.348152 -0.3259261
75.17598 71.244972 0
75.244423 71.289345 0.37424847
73.557518 70.212196 -0.95018929
73.620193 70.252937 -0.63943976
73.776176 70.354324 -0.32563609
75.154114 71.249954 0
75.209473 71.285934 0.37337792
73.541397 70.218132 -0.94933254
73.608284 70.261726 -0.63915068
73.746712 70.351936 -0.32490999
75.188965 71.291855 0
75.183243 71.288124 0.37279737
73.53334 70.221092 -0.94890499
73.587189 70.256233 -0.63799858
73.668884 70.309547 -0.32244274
73.519501 70.212059 0
75.14402 71.272163 0.37163624
73.534401 70.23822 -0.94976014
73.540649 70.24231 -0.63540316
73.656914 70.318382 -0.32229775
73.599098 70.280548 0
75.113487 71.271393 0.37091067
73.505394 70.235657 -0.94762069
73.498512 70.231148 -0.63309789
73.631889 70.318642 -0.3217172
73.643723 70.326408 0
75.082954 71.270561 0.37018457
73.463539 70.224571 -0.94419694
73.478012 70.234085 -0.63223273
73.598206 70.313148 -0.32084665
73.649124 70.346642 0
73.719574 70.392975 0.32490385
73.443161 70.227531 -0.94291431
73.453194 70.234146 -0.63107955
73.577545 70.316154 -0.32041109
73.62841 70.349693 0
73.716179 70.407578 0.32504883
73.431335 70.236092 -0.94248509
73.437019 70.239853 -0.63050246
73.526566 70.299065 -0.31895995
73.603363 70.349838 0
73.682411 70.402107 0.32417774
64 64 -0
73.438103 70.256973 -0.63107955
73.505951 70.301949 -0.31852439
73.582664 70.352806 0
73.653015 70.399445 0.32345217
73.373489 70.230453 -0.93820626
73.408997 70.254059 -0.62963837
73.437744 70.273163 -0.31649274
73.548981 70.347099 0
73.623642 70.396729 0.32272661
73.357422 70.236084 -0.93735111
73.388519 70.256813 -0.62877321
73.438797 70.290321 -0.31678271
73.502327 70.332657 0
73.598602 70.39682 0.32214606
73.349876 70.247391 -0.93735111
73.363747 70.256653 -0.62762004
73.435509 70.304604 -0.31692773
73.503311 70.349915 0
73.577904 70.39975 0.3217105
73.350845 70.264389 -0.93820626
73.343285 70.259323 -0.62675494
73.401985 70.298653 -0.31605718
73.42646 70.315048 0
73.539948 70.391083 0.32069495
73.360313 70.287132 -0.9399181
73.327133 70.264847 -0.62617886
73.38575 70.304222 -0.31576717
73.41449 70.323524 0
73.510658 70.388115 0.31996939
73.356964 70.301308 -0.94034564
73.315269 70.273224 -0.62589085
73.352257 70.298134 -0.31489605
73.385262 70.320358 0
73.48999 70.390892 0.31953382
73.362114 70.321228 -0.94162995
73.324829 70.296051 -0.62704402
73.340332 70.306526 -0.31475106
73.36467 70.32296 0
73.460732 70.387817 0.31880826
73.358719 70.335411 -0.94205755
73.31292 70.304413 -0.62675494
73.328407 70.314896 -0.31460604
73.352722 70.331352 0
73.427177 70.38176 0.31793717
73.3638 70.35537 -0.94334185
73.322418 70.327278 -0.62790805
73.307869 70.317406 -0.31417051
73.319229 70.325119 0
73.397964 70.378555 0.3172116
73.356117 70.366676 -0.94334185
73.310493 70.335632 -0.62762004
73.300224 70.328644 -0.31417051
73.311584 70.336372 0
73.377357 70.381134 0.31677604
73.352654 70.380867 -0.9437694
73.315651 70.355621 -0.6284852
73.292572 70.339874 -0.31417051
73.28672 70.335884 0
73.356773 70.383682 0.31634104
73.349174 70.395058 -0.94419694
73.312233 70.369797 -0.62877321
73.302063 70.362839 -0.31475106
73.283348 70.350037 0
73.323311 70.377373 0.31546992
73.358376 70.417969 -0.94590884
73.304527 70.381042 -0.62877321
73.290085 70.37114 -0.31460604
73.249924 70.34359 0
73.298454 70.376877 0.31488937
73.354858 70.43219 -0.946338
73.309601 70.401077 -0.62963837
73.295219 70.391182 -0.31504107
73.255104 70.363602 0
64 64 0
73.359749 70.452217 -0.94762069
73.310371 70.418182 -0.63021439
73.283211 70.39946 -0.31489605
73.251709 70.377747 0
73.223122 70.35804 0.31285769
73.360085 70.4608 -0.9480499
73.319267 70.432625 -0.63107955
73.292175 70.413925 -0.31533161
73.260689 70.392197 0
73.219276 70.363609 0.31285769
73.356491 70.475021 -0.94847745
73.315735 70.446823 -0.63136756
73.288696 70.428108 -0.31547663
73.25296 70.403381 0
73.224403 70.383621 0.31329325
73.348656 70.48632 -0.94847745
73.303696 70.455132 -0.63107955
73.285187 70.442284 -0.31562161
73.266594 70.42939 0
73.220955 70.39772 0.31343824
73.340813 70.497612 -0.94847745
73.312874 70.47818 -0.63223273
73.290192 70.462402 -0.31605718
73.250282 70.434639 0
73.217476 70.411819 0.31358325
73.337158 70.511833 -0.94890499
73.300804 70.486473 -0.63194472
73.282379 70.473625 -0.31605718
73.246765 70.448792 0
73.226776 70.434845 0.3141638
73.333488 70.526047 -0.94933254
73.297195 70.500671 -0.63223273
73.283058 70.490784 -0.31634718
73.243225 70.462936 0
73.21048 70.440041 0.3138738
73.329796 70.540268 -0.94976014
73.306274 70.523773 -0.6333859
73.27948 70.50499 -0.31649274
73.248199 70.483063 0
73.219711 70.463097 0.31445435
73.296692 70.533829 -0.94719315
73.302612 70.537987 -0.63367391
73.280106 70.522171 -0.31678271
73.26165 70.509201 0
73.211899 70.474228 0.31445435
73.288795 70.545052 -0.94719315
73.290482 70.546249 -0.6333859
73.276466 70.536369 -0.31692773
73.236763 70.508392 0
73.221062 70.49733 0.31503493
73.24733 70.532578 -0.9437694
73.295227 70.566414 -0.63424999
73.285538 70.55957 -0.31750828
73.241646 70.528557 0
73.204704 70.502464 0.31474435
73.22686 70.534836 -0.94248509
73.299957 70.586609 -0.63511509
73.277603 70.570778 -0.31750828
73.25074 70.551758 0
73.213806 70.525597 0.31532493
73.210587 70.540047 -0.94162995
73.296204 70.600838 -0.63540316
73.273911 70.585007 -0.31765383
73.255554 70.571968 0
73.197449 70.530716 0.31503493
73.165039 70.524376 -0.93777865
73.296661 70.618073 -0.63598025
73.287109 70.611275 -0.3183794
73.24337 70.580132 0
73.206467 70.553864 0.31561491
73.136261 70.520531 -0.93563926
73.284447 70.626297 -0.63569224
73.274887 70.619469 -0.31823441
73.235413 70.591301 0
73.202789 70.568016 0.31576046
73.132545 70.534554 -0.93606681
73.30587 70.658569 -0.63770944
73.279549 70.63974 -0.31866941
73.240128 70.611526 0
73.211746 70.591225 0.31634104
73.124641 70.545586 -0.93606681
73.289421 70.663788 -0.63713342
73.284195 70.660034 -0.31910497
73.244827 70.631798 0
73.216431 70.611427 0.31677604
73.095894 70.541618 -0.93392736
73.285561 70.678024 -0.63742143
73.276138 70.671249 -0.31910497
73.232582 70.639923 0
73.204224 70.61953 0.31663105
73.067162 70.53759 -0.93178797
73.294266 70.70134 -0.6385746
73.263863 70.679413 -0.31895995
73.228775 70.654114 0
73.192009 70.627609 0.31648603
73.038437 70.533493 -0.92964691
73.290352 70.715591 -0.63886261
73.27684 70.705826 -0.31968552
73.237595 70.67746 0
73.209259 70.656975 0.31735659
72.988976 70.51429 -0.92536801
73.290619 70.732887 -0.63943976
73.272934 70.720078 -0.31983051
73.225311 70.685562 0
73.184372 70.655899 0.31677604
72.989395 70.531181 -0.92622316
73.282471 70.74411 -0.63943976
73.269005 70.734329 -0.31997553
73.23407 70.708946 0
73.193138 70.679207 0.31735659
72.973007 70.527557 -0.92494047
73.290932 70.758835 -0.64030385
73.290161 70.758278 -0.32084665
73.234222 70.717583 0
73.201714 70.693939 0.31779215
72.940216 70.520233 -0.92237186
73.286949 70.773117 -0.64059293
73.269386 70.760307 -0.32041109
73.226097 70.728737 0
73.193619 70.705048 0.31779215
72.915749 70.518913 -0.92065996
73.291275 70.793488 -0.64145702
73.273804 70.780708 -0.32084665
73.226357 70.746017 0
73.198105 70.725357 0.31822771
72.903732 70.526649 -0.92023242
73.291412 70.810829 -0.64203411
73.265602 70.791908 -0.32084665
73.222412 70.760246 0
73.185768 70.733383 0.31808215
72.891708 70.534363 -0.91980487
73.291504 70.828171 -0.64261013
73.27832 70.818481 -0.32157218
73.235199 70.786789 0
73.19857 70.759872 0.31880826
72.854866 70.523781 -0.91680866
73.287422 70.842468 -0.64289927
73.274254 70.832764 -0.3217172
73.231178 70.801033 0
73.177841 70.761734 0.3183727
72.806061 70.520721 -0.91338497
73.291641 70.88028 -0.64434046
73.274422 70.867531 -0.32229775
73.223076 70.829506 0
73.190712 70.80555 0.31938884
72.78994 70.525238 -0.91252983
73.283325 70.891502 -0.64434046
73.266113 70.878731 -0.32229775
73.219009 70.843758 0
73.174133 70.810448 0.31909826
72.761459 70.520531 -0.91039044
73.279137 70.9058 -0.64462847
73.261963 70.893021 -0.32244274
73.21907 70.861099 0
73.178406 70.830833 0.31953382
72.741226 70.521904 -0.90910608
73.283226 70.926292 -0.64549363
73.257805 70.907326 -0.32258829
73.227463 70.884689 0
73.182648 70.85125 0.31996939
72.733337 70.532463 -0.90910608
73.278992 70.940598 -0.64578164
73.261925 70.927834 -0.32302332
73.219139 70.895828 0
73.182678 70.868561 0.32025939
72.70491 70.527611 -0.90696669
73.266464 70.948708 -0.64549363
73.257721 70.942146 -0.32316887
73.223297 70.916336 0
73.157738 70.86718 0.31967881
72.676498 70.522697 -0.90482724
73.262192 70.963005 -0.64578164
73.257622 70.959572 -0.32345885
73.206604 70.921219 0
73.161903 70.887611 0.32011437
72.664497 70.530083 -0.90439802
73.241371 70.964844 -0.64491647
73.253349 70.973877 -0.32360387
73.214859 70.944862 0
73.166023 70.908058 0.32054994
72.623848 70.515793 -0.90097594
73.245338 70.985367 -0.64578164
73.249077 70.98819 -0.32374942
73.214775 70.96228 0
73.153511 70.915993 0.32040438
72.620056 70.529312 -0.90140349
73.232773 70.993416 -0.64549363
73.244766 71.002495 -0.32389441
73.20636 70.973404 0
73.157585 70.936462 0.32083994
72.591721 70.5242 -0.8992641
73.228432 71.00769 -0.64578164
73.248703 71.023087 -0.32432944
73.21035 70.993958 0
73.153328 70.950661 0.32098493
72.563393 70.51902 -0.89712304
73.215843 71.015701 -0.64549363
73.227814 71.024818 -0.32389441
73.201889 71.005081 0
73.161469 70.974304 0.32156551
72.547356 70.523132 -0.89626789
73.219681 71.03624 -0.64635772
73.215195 71.032814 -0.32374942
73.197571 71.019363 0
73.148903 70.982224 0.32142049
72.510918 70.51162 -0.89327174
73.211174 71.047379 -0.64635772
73.198425 71.037621 -0.32345885
73.189079 71.030472 0
73.156967 71.005905 0.32200107
72.502914 70.513641 -0.89284414
73.23156 71.071823 -0.64808798
73.214798 71.058975 -0.32418442
73.180687 71.032845 0
73.140358 71.001953 0.32156551
72.495033 70.523911 -0.89284414
73.223007 71.08297 -0.64808798
73.214508 71.076439 -0.32447499
73.19696 71.062965 0
73.152496 71.028816 0.32229105
72.479019 70.527908 -0.89198905
73.226746 71.103577 -0.64895314
73.2183 71.097076 -0.32490999
73.180161 71.067711 0
73.160461 71.052551 0.32287163
72.446732 70.519325 -0.88942045
73.226341 71.12104 -0.64952916
73.205605 71.105034 -0.32476497
73.175751 71.081993 0
73.156059 71.066795 0.32301718
72.446976 70.535812 -0.89027721
73.217728 71.132179 -0.64952916
73.213455 71.128876 -0.32534555
73.163055 71.089882 0
73.172173 71.096931 0.32388774
72.418777 70.530273 -0.88813609
73.221367 71.152824 -0.65039432
73.204834 71.139999 -0.32534555
73.175056 71.116905 0
73.175911 71.117569 0.3243233
72.418991 70.546753 -0.88899285
73.212723 71.163963 -0.65039432
73.212608 71.163879 -0.3259261
73.170555 71.13118 0
73.154991 71.119072 0.32388774
72.382729 70.534821 -0.8859967
73.220375 71.187813 -0.65154749
73.212151 71.181404 -0.32621667
73.161934 71.142258 0
73.150482 71.133324 0.32403272
72.370789 70.541786 -0.88556916
73.207596 71.195755 -0.65125841
73.203468 71.192528 -0.32621667
73.165604 71.162933 0
73.158234 71.157173 0.32461327
72.34671 70.53923 -0.88385725
73.207047 71.213264 -0.6518355
73.194771 71.203644 -0.32621667
73.152832 71.170792 0
73.141403 71.161835 0.3243233
72.314583 70.530289 -0.88129026
73.210533 71.233971 -0.65270066
73.210571 71.234001 -0.32708722
73.172821 71.204346 0
73.149094 71.185715 0.32490385
72.310715 70.543503 -0.88171786
73.222107 71.261093 -0.65414184
73.209984 71.251549 -0.3273772
73.155922 71.208984 0
73.14856 71.203186 0.32519385
72.29071 70.543991 -0.8804335
73.213326 71.272232 -0.65414184
73.205307 71.2659 -0.32752275
73.175812 71.242615 0
73.139847 71.214233 0.32519385
72.286819 70.55719 -0.8808611
73.20858 71.28656 -0.65442985
73.200592 71.280243 -0.32766777
73.150726 71.240784 0
73.155571 71.244614 0.32606441
72.262802 70.554436 -0.8791492
73.211929 71.307335 -0.65529501
73.208076 71.304268 -0.32824832
73.182755 71.284187 0
73.146812 71.255676 0.32606441
72.246849 70.558029 -0.87829411
73.199051 71.315239 -0.655007
73.195175 71.312157 -0.32810333
73.157654 71.282318 0
73.154305 71.279655 0.32664496
72.222855 70.555191 -0.87658221
73.218506 71.348915 -0.6570242
73.210709 71.342697 -0.32897389
73.148842 71.293373 0
73.153641 71.297195 0.32693553
72.198891 70.552299 -0.87487036
73.201546 71.353592 -0.65644819
73.205887 71.357063 -0.32911888
73.172554 71.330421 0
73.152924 71.314735 0.32722551
72.182961 70.555786 -0.87401527
73.208801 71.377647 -0.65760136
73.201057 71.371437 -0.32926443
73.175865 71.35125 0
73.14003 71.322548 0.32708052
72.175034 70.565666 -0.87401527
73.199883 71.388763 -0.65760136
73.18808 71.379288 -0.32911888
73.154816 71.35257 0
73.135223 71.336838 0.32722551
72.143089 70.556221 -0.87144661
73.215118 71.419334 -0.65933055
73.191307 71.400162 -0.32955444
73.170242 71.383202 0
73.146606 71.364174 0.32795164
72.127182 70.559608 -0.87059152
73.202126 71.427216 -0.65904254
73.206612 71.43084 -0.33042499
73.161308 71.394279 0
73.137695 71.375221 0.32795164
72.131195 70.570969 -0.87144661
73.201653 71.436028 -0.65933055
73.210213 71.44294 -0.33071557
73.164932 71.406349 0
73.149406 71.393806 0.32853219
72.103302 70.564629 -0.86930722
73.200714 71.453659 -0.6599077
73.197182 71.450798 -0.33057055
73.168114 71.427246 0
73.140472 71.404854 0.32853219
72.087402 70.567947 -0.86845207
73.203735 71.474541 -0.66077173
73.208336 71.478279 -0.33129612
73.159134 71.438324 0
73.135544 71.419167 0.32867721
72.07946 70.577713 -0.86845207
73.194695 71.485657 -0.66077173
73.203323 71.492683 -0.3314411
73.166283 71.462524 0
73.134628 71.436752 0.32896718
72.063545 70.580978 -0.86759531
73.19767 71.506577 -0.66163689
73.19828 71.50708 -0.33158612
73.157257 71.473595 0
73.141739 71.46093 0.32954776
72.05162 70.587463 -0.86716777
73.216621 71.540619 -0.66365522
73.189209 71.518188 -0.33158612
73.140175 71.478073 0
73.136734 71.475258 0.32969275
72.043655 70.597191 -0.86716777
73.207504 71.55175 -0.66365522
73.184143 71.532593 -0.33173168
73.159286 71.512207 0
73.139755 71.496185 0.33012831
72.011871 70.587334 -0.86459917
73.222336 71.582573 -0.66538441
73.199112 71.563477 -0.33260223
73.16227 71.533188 0
73.138725 71.513832 0.33041885
72.003906 70.597008 -0.86459917
73.225151 71.603584 -0.66624957
73.202003 71.584511 -0.33303779
73.157173 71.547562 0
73.13765 71.531471 0.33070886
71.976143 70.590332 -0.86245972
73.231903 71.627907 -0.66740274
73.204842 71.605545 -0.33347279
73.160088 71.568565 0
73.128548 71.542503 0.33070886
71.980042 70.609787 -0.86374402
73.226662 71.642357 -0.66769075
73.195641 71.616661 -0.33347279
73.146935 71.576317 0
73.131439 71.563477 0.33114442
71.975998 70.622704 -0.86417156
73.23732 71.670013 -0.66913193
73.198433 71.637726 -0.33390835
73.149773 71.597328 0
73.126282 71.57782 0.33128941
71.928535 70.599495 -0.85989273
73.236 71.687798 -0.66970909
73.20118 71.658813 -0.33434391
73.168594 71.631691 0
73.133102 71.602142 0.33186999
71.936325 70.622231 -0.86160463
73.226707 71.698952 -0.66970909
73.223846 71.696564 -0.33550501
73.163361 71.646095 0
73.13588 71.623169 0.33230555
71.912567 70.618637 -0.85989273
73.225327 71.716728 -0.67028511
73.206558 71.701027 -0.33521447
73.154114 71.657158 0
73.142609 71.647537 0.3328861
71.900627 70.624901 -0.85946518
73.22393 71.73452 -0.67086226
73.209198 71.722168 -0.33565003
73.160812 71.681595 0
73.133362 71.658577 0.3328861
71.892616 70.634438 -0.85946518
73.2304 71.758965 -0.67201436
73.195885 71.72995 -0.33550501
73.17543 71.712761 0
73.155914 71.69635 0.33404666
71.872818 70.634041 -0.85818088
73.221024 71.770111 -0.67201436
73.21434 71.764488 -0.33652058
73.162117 71.720474 0
73.146606 71.707405 0.33404666
71.853027 70.633606 -0.85689658
73.22348 71.791267 -0.67287946
73.200989 71.772263 -0.33637559
73.172676 71.748344 0
73.153168 71.731865 0.33462721
71.856758 70.653046 -0.85818088
73.229851 71.815773 -0.67403263
73.211418 71.800163 -0.33710113
73.175209 71.769501 0
73.151756 71.749641 0.33491778
71.833061 70.649246 -0.85646898
73.228294 71.833626 -0.67460978
73.217834 71.824738 -0.33768171
73.165817 71.780586 0
73.154274 71.77079 0.33535334
71.817192 70.652046 -0.85561222
73.210938 71.838058 -0.67403263
73.200462 71.829147 -0.3373917
73.176224 71.808517 0
73.152786 71.788574 0.33564332
71.793633 70.640121 -0.85347283
73.210136 71.84697 -0.67432064
73.211555 71.848183 -0.33797225
73.167542 71.810684 0
73.163902 71.807579 0.3362239
71.805122 70.666206 -0.85561222
73.224258 71.878258 -0.67605096
73.202065 71.859306 -0.33797225
73.177887 71.838654 0
73.158409 71.822021 0.33636889
71.761963 70.645584 -0.85176092
73.218658 71.892761 -0.67633897
73.204391 71.880547 -0.33840725
73.180275 71.859901 0
73.168686 71.849976 0.33709446
71.757835 70.65831 -0.85219014
73.213036 71.907257 -0.67662698
73.214592 71.9086 -0.33913338
73.170769 71.870987 0
73.163147 71.864449 0.33724001
71.753677 70.671021 -0.85261768
73.211319 71.92514 -0.67720413
73.205032 71.919724 -0.33913338
73.177032 71.895638 0
73.149689 71.872116 0.33709446
71.721992 70.676308 -0.85090584
73.211708 71.964287 -0.67864531
73.197647 71.952133 -0.33956838
73.169746 71.928009 0
73.158165 71.917999 0.33811057
71.717796 70.688995 -0.85133338
73.217712 71.988968 -0.67979848
73.203743 71.97686 -0.34014893
73.168015 71.945892 0
73.14859 71.929054 0.33811057
71.690338 70.68148 -0.84919399
73.204147 71.996712 -0.67951047
73.194099 71.987976 -0.34014893
73.162338 71.960381 0
73.139 71.940102 0.33811057
71.666771 70.677284 -0.84748209
73.225693 72.035004 -0.68181682
73.204025 72.016136 -0.34087449
73.168411 71.985115 0
73.145073 71.964798 0.33869112
71.681892 70.706795 -0.85004908
73.204277 72.035934 -0.68095165
73.209999 72.040924 -0.34145504
73.158752 71.996185 0
73.14328 71.982681 0.33898169
71.681519 70.722839 -0.85090584
73.210136 72.060677 -0.68210483
73.196365 72.04863 -0.34131005
73.164749 72.020966 0
73.149261 72.007401 0.33956167
71.657951 70.718575 -0.84919399
73.204269 72.075211 -0.68239284
73.190536 72.063156 -0.34145504
73.155052 72.032028 0
73.1474 72.025314 0.33985224
71.680672 70.754944 -0.85261768
73.221703 72.110245 -0.68441117
73.1847 72.077698 -0.3416006
73.149261 72.046532 0
73.137695 72.036362 0.33985224
71.657097 70.750641 -0.85090584
73.211899 72.121376 -0.68441117
73.19442 72.105972 -0.34232616
73.15905 72.074791 0
73.112381 72.033646 0.33927166
71.668167 70.776886 -0.85304528
73.213692 72.142769 -0.6852752
73.184624 72.117081 -0.34232616
73.157082 72.092735 0
73.067627 72.01368 0.33796555
71.659973 70.786148 -0.85304528
73.192245 72.143616 -0.68441117
73.186478 72.138512 -0.34276173
73.158989 72.114151 0
73.089058 72.0522 0.33912668
71.674797 70.815842 -0.85561222
73.135986 72.113495 -0.68095165
73.192169 72.163391 -0.34334171
73.149178 72.125214 0
73.106506 72.087326 0.34014225
71.670403 70.828537 -0.85604143
72.921402 71.94223 -0.66567242
73.178421 72.171043 -0.34319672
73.151016 72.146652 0
73.127785 72.125961 0.34130335
71.6698 70.844627 -0.85689658
72.506561 71.59137 -0.63540316
73.184052 72.195969 -0.34377727
73.152809 72.168091 0
73.141228 72.157761 0.34217447
71.669182 70.860748 -0.85775334
72.38559 71.50164 -0.62704402
73.18576 72.217461 -0.34421283
73.139053 72.175674 0
73.131363 72.168793 0.34217447
71.664703 70.873428 -0.85818088
72.368813 71.504852 -0.62646687
73.183556 72.235481 -0.34450284
73.148544 72.204086 0
73.136963 72.193703 0.34275502
71.671669 70.896416 -0.85989273
72.340508 71.497673 -0.62502569
73.181335 72.253532 -0.34479338
73.154106 72.22905 0
73.12706 72.204735 0.34275502
71.67131 70.90448 -0.86032027
72.312897 71.481934 -0.62329543
73.176346 72.259079 -0.34479338
73.141403 72.227623 0
73.13755 72.224152 0.34333557
71.659157 70.910309 -0.85989273
72.280815 71.471191 -0.62156618
73.185654 72.28756 -0.34551895
73.166229 72.270042 0
73.131462 72.23867 0.34348059
71.666031 70.933334 -0.86160463
72.264114 71.474258 -0.62099016
73.179482 72.302139 -0.34566393
73.148506 72.274117 0
73.133064 72.260155 0.34391615
71.665245 70.949486 -0.86245972
72.235909 71.466858 -0.6195479
73.169441 72.313225 -0.34566393
73.161644 72.306152 0
73.134621 72.281647 0.34435114
71.668243 70.969101 -0.86374402
72.223053 71.473328 -0.61925983
73.186317 72.348763 -0.34668007
73.132347 72.299713 0
73.132301 72.299675 0.34464169
71.675003 70.992195 -0.86545593
72.202545 71.472801 -0.61839473
73.187752 72.370361 -0.34711564
73.156937 72.342285 0
73.126106 72.314201 0.3447867
71.658958 70.99453 -0.86459917
72.18206 71.472252 -0.61753064
73.158432 72.363922 -0.3463895
73.146851 72.353348 0
73.139069 72.346245 0.34565726
71.665649 71.017647 -0.86631101
72.176834 71.485626 -0.61781865
73.171326 72.396049 -0.34726062
73.140579 72.367905 0
73.125153 72.353775 0.34551227
71.664734 71.033852 -0.86716777
72.160172 71.48851 -0.61724263
73.168823 72.414139 -0.34755063
73.157318 72.40358 0
73.130363 72.378853 0.34609282
71.656227 71.043114 -0.86716777
72.139687 71.487854 -0.61637747
73.177788 72.442818 -0.34827673
73.162476 72.428734 0
73.124054 72.393387 0.34623781
71.662811 71.066277 -0.86887962
72.119225 71.48716 -0.61551231
73.175209 72.460938 -0.34856674
73.159927 72.446854 0
73.121552 72.411461 0.34652838
71.673111 71.092957 -0.87101907
72.110168 71.496964 -0.61551231
73.17643 72.482605 -0.3490023
73.149719 72.457909 0
73.122833 72.433067 0.34696394
71.656998 71.095238 -0.87016231
72.093521 71.499733 -0.61493629
73.17379 72.500748 -0.34929231
73.147133 72.476044 0
73.127876 72.458199 0.34754393
71.652191 71.107986 -0.87059152
72.080658 71.505974 -0.61464721
73.16732 72.515358 -0.3494373
73.136887 72.487091 0
73.121468 72.472763 0.34768948
71.666138 71.138214 -0.87315851
72.060234 71.505173 -0.61378312
73.164635 72.533516 -0.34972787
73.138039 72.508759 0
73.111221 72.48378 0.34768948
71.650009 71.140472 -0.87230337
72.047363 71.51136 -0.61349404
73.169518 72.558769 -0.35030842
73.131569 72.523354 0
73.127548 72.5196 0.34870505
71.648865 71.156715 -0.87315851
72.034508 71.517548 -0.61320597
73.166748 72.576935 -0.35059842
73.125061 72.537933 0
73.105873 72.519981 0.34827006
71.62149 71.148399 -0.87101907
72.036743 71.537872 -0.61407113
73.152596 72.584457 -0.35045341
73.11853 72.552505 0
73.114517 72.548744 0.3489956
71.627808 71.171669 -0.87273091
72.020088 71.540482 -0.61349404
73.111923 72.567032 -0.34929231
73.146103 72.599167 0
73.096603 72.552628 0.34870505
71.585518 71.149193 -0.86887962
71.999687 71.539536 -0.61262995
72.867096 72.357048 -0.34029391
73.13192 72.606644 0
73.033325 72.513718 0.34667337
71.573143 71.154831 -0.86845207
71.994324 71.55275 -0.61291796
72.660568 72.18219 -0.33274722
73.113953 72.610535 0
72.962585 72.467522 0.34435114
71.568817 71.159401 -0.86845207
71.986008 71.554024 -0.61262995
72.889694 72.408829 -0.34174562
73.082283 72.590996 0
73.021652 72.533646 0.34681836
71.541527 71.150871 -0.86631101
71.976875 71.563667 -0.61262995
73.135948 72.662704 -0.35161453
73.079453 72.609131 0
73.075439 72.605324 0.3492856
71.51799 71.145828 -0.86459917
71.963982 71.56974 -0.61234194
73.163139 72.709534 -0.35306564
72.948318 72.505348 0
73.110237 72.659248 0.35102728
71.50193 71.147827 -0.86374402
71.958572 71.582924 -0.61262995
73.171417 72.738518 -0.35379121
72.670494 72.261238 0
73.114815 72.684586 0.35160783
71.493286 71.156891 -0.86374402
71.941917 71.585381 -0.6120528
73.17588 72.763954 -0.35437176
72.517479 72.135109 0
73.1231 72.713539 0.3523334
71.477211 71.158829 -0.86288726
71.929008 71.5914 -0.61176479
73.172798 72.782227 -0.35466233
72.458771 72.098602 0
73.127579 72.738937 0.35291395
71.450035 71.150085 -0.86074787
71.923561 71.604553 -0.6120528
73.169678 72.800491 -0.35495231
72.520332 72.177299 0
73.090782 72.724777 0.3518984
71.445099 71.162659 -0.86117703
71.914368 71.61412 -0.6120528
73.170273 72.82238 -0.35538787
72.457924 72.137054 0
73.083977 72.739357 0.35204339
71.410568 71.146698 -0.85818088
71.905159 71.62368 -0.6120528
73.17083 72.844284 -0.35582343
72.410629 72.111145 0
73.032257 72.71064 0.35044673
71.405617 71.15921 -0.85860842
71.903389 71.640419 -0.61262995
73.163872 72.858963 -0.35596845
72.374626 72.095978 0
73.047882 72.746834 0.35146284
71.393272 71.164581 -0.85818088
71.89415 71.649963 -0.61262995
73.160629 72.877274 -0.35625899
72.342415 72.084366 0
72.958939 72.681816 0.34841505
71.358833 71.148468 -0.85518467
71.873764 71.648682 -0.61176479
73.164795 72.902802 -0.356839
72.373695 72.134323 0
73.086357 72.826607 0.35378507
71.350189 71.157349 -0.85518467
71.849693 71.643753 -0.61061162
73.161484 72.921127 -0.35712954
72.352684 72.133553 0
73.124084 72.884712 0.35567173
71.330505 71.155464 -0.85390037
71.722008 71.537621 -0.60138738
73.165573 72.946709 -0.35771009
72.335396 72.13636 0
73.12822 72.910248 0.35625231
71.31086 71.153557 -0.85261768
71.535423 71.373291 -0.58754933
73.162178 72.965042 -0.3580001
72.366486 72.18647 0
73.117447 72.921272 0.35625231
71.30587 71.165977 -0.85304528
71.437874 71.295448 -0.58063036
73.158768 72.983391 -0.35829067
72.795044 72.626633 0
73.110367 72.935921 0.3563973
71.271576 71.149597 -0.85004908
71.406929 71.282677 -0.57890111
73.155312 73.001732 -0.35858068
73.092644 72.940117 0
73.095863 72.943283 0.35625231
71.25563 71.151176 -0.84919399
71.390762 71.28437 -0.57832509
73.155533 73.023735 -0.35901621
73.070724 72.94014 0
73.118355 72.987091 0.35755843
71.23967 71.152718 -0.84833723
71.352516 71.264206 -0.57601875
73.148315 73.038437 -0.35916123
73.01548 72.907196 0
73.092705 72.983498 0.35697785
71.223732 71.154243 -0.84748209
71.347404 71.276726 -0.57630676
73.19278 73.104347 -0.36133847
73.111954 73.0243 0
73.089218 73.001785 0.35726786
71.200508 71.148499 -0.84577024
71.338608 71.285599 -0.57630676
71.319389 71.266518 -0.28804651
73.1306 73.064636 0
73.030396 72.965164 0.35538119
71.181625 71.138367 -0.84405833
71.330544 71.286385 -0.57601875
71.326057 71.281937 -0.28848207
73.128807 73.073822 0
73.013931 72.959641 0.3549462
71.162079 71.136162 -0.84277403
71.307076 71.280632 -0.57486558
71.309898 71.283447 -0.28819206
73.128899 73.095871 0
73.036224 73.003532 0.35625231
71.157097 71.148453 -0.84320325
71.290939 71.282135 -0.57428849
71.319473 71.310638 -0.28891763
73.114212 73.103203 0
73.091522 73.080544 0.35886452
71.148453 71.157097 -0.84320325
71.271179 71.279976 -0.5734244
71.306969 71.315804 -0.28877261
73.12159 73.132622 0
73.09156 73.102554 0.35930008
71.123886 71.167061 -0.84234649
71.224396 71.268173 -0.57111806
71.278275 71.32238 -0.28833705
73.103172 73.15834 0
73.113487 73.168716 0.36104122
71.086304 71.146492 -0.83892274
71.211952 71.273216 -0.57082897
71.251129 71.312721 -0.28761151
73.062782 73.139763 0
73.091438 73.168663 0.36060619
71.084892 71.162361 -0.8397795
71.177704 71.256187 -0.56881171
71.245941 71.325165 -0.2877565
73.091988 73.191406 0
73.06208 73.161171 0.35988066
71.065407 71.15995 -0.83849519
71.176193 71.272217 -0.56938779
71.237083 71.333916 -0.2877565
73.117439 73.239441 0
73.047348 73.168404 0.3597351
71.049545 71.161156 -0.83763844
71.160149 71.273514 -0.56881171
71.213631 71.327843 -0.28717595
73.12088 73.265282 0
73.06543 73.208954 0.3608962
71.037292 71.166008 -0.83721089
71.144096 71.274773 -0.56823462
71.201134 71.332848 -0.28703094
73.127907 73.294861 0
73.094353 73.260696 0.36249289
71.00708 71.152512 -0.8346439
71.11721 71.264923 -0.56679338
71.163177 71.311844 -0.28586984
73.123947 73.313316 0
73.097702 73.286522 0.36307344
71.002014 71.164642 -0.83507144
71.108421 71.273521 -0.56679338
71.147064 71.313057 -0.28557926
73.127235 73.339218 0
73.082848 73.2938 0.36292845
70.968262 71.147354 -0.8320753
71.092415 71.274704 -0.56621736
71.145485 71.329132 -0.28586984
73.123222 73.357704 0
72.99543 73.226624 0.35988066
70.963211 71.159462 -0.83250445
71.076401 71.275841 -0.56564027
71.140244 71.341484 -0.28601483
73.122795 73.379921 0
72.871948 73.121994 0.35538119
70.940254 71.15313 -0.83079261
71.060402 71.27697 -0.56506419
71.127754 71.346382 -0.28586984
73.104202 73.383453 0
72.89711 73.170013 0.35683286
70.935173 71.165199 -0.83122015
71.033623 71.266914 -0.56362301
71.126091 71.36245 -0.28615984
73.100105 73.401939 0
72.929382 73.225555 0.35857397
70.91581 71.162491 -0.82993585
71.017639 71.26796 -0.56304586
71.120796 71.374786 -0.28630483
73.124886 73.450363 0
73.062622 73.38588 0.36437955
70.896469 71.15976 -0.82865316
71.001686 71.26899 -0.56246984
71.133514 71.405853 -0.28717595
71.564445 71.853233 0
73.080116 73.426765 0.36554065
70.887817 71.168083 -0.82865316
70.989304 71.273705 -0.56218076
71.113762 71.403221 -0.28674039
71.547745 71.854874 0
73.104721 73.475197 0.36699179
70.882698 71.180107 -0.82908076
70.966187 71.267204 -0.56102759
71.101212 71.408066 -0.2865954
71.559853 71.88652 0
73.114853 73.508713 0.36786291
70.859825 71.173576 -0.82736886
70.935959 71.253189 -0.55929834
71.1138 71.439171 -0.28746596
73.15464 73.573349 0
73.106941 73.523468 0.3680079
70.861786 71.193008 -0.82865316
70.916473 71.250336 -0.55843323
71.111992 71.455284 -0.2877565
73.107132 73.546738 0
73.099014 73.538223 0.36815289
70.864517 71.204575 -0.8295083
70.894257 71.235786 -0.55699199
71.136162 71.489685 -0.28891763
73.069054 73.518326 0
73.10759 73.558769 0.36873347
70.859337 71.216583 -0.82993585
70.864128 71.221626 -0.5552628
71.130684 71.50206 -0.28906262
73.079071 73.551918 0
73.092453 73.566002 0.36858845
70.854141 71.228592 -0.83036339
70.85183 71.226151 -0.55497372
71.132347 71.521988 -0.28949818
73.096169 73.593102 0
73.095192 73.592064 0.36916903
70.85247 71.244331 -0.83122015
70.843094 71.234421 -0.55497372
71.116104 71.523041 -0.28920761
73.109604 73.630539 0
73.094299 73.614365 0.36960402
70.857803 71.267548 -0.83293205
70.845001 71.253975 -0.55583888
71.10701 71.531639 -0.28920761
73.07653 73.618835 0
73.107643 73.65181 0.37062013
70.852531 71.279556 -0.8333596
70.839775 71.266006 -0.55612689
71.105034 71.547791 -0.28949818
73.043488 73.607048 0
73.092415 73.659027 0.37047514
70.850769 71.295326 -0.83421636
70.823914 71.266731 -0.55555081
71.135033 71.598038 -0.2910943
73.024757 73.61039 0
73.094971 73.685158 0.37105569
70.845451 71.307343 -0.8346439
70.829277 71.29007 -0.55670398
71.122292 71.602859 -0.29094929
72.739151 73.328812 0
73.093918 73.70752 0.37149125
70.864662 71.345619 -0.83806765
70.813393 71.290749 -0.55612689
71.130844 71.63044 -0.29167485
72.301422 72.883034 0
