# .PCD v0.7 - Point Cloud Data file format
VERSION 0.7
FIELDS x y z
SIZE 4 4 4
TYPE F F F
COUNT 1 1 1
WIDTH 1647
HEIGHT 1
VIEWPOINT 0 0 0 1 0 0 0
POINTS 1647
DATA ascii
55.882122 62.96949 0.22853625
64 64 -0
56.833832 63.081505 -0.99664915
56.076447 62.984428 -0.88483107
57.841705 63.210686 -0.517537
57.893715 63.21735 -0.34309068
55.960461 62.969563 -0.22636572
55.900082 62.961823 0
55.883373 62.959682 0.22853625
64 64 -0
56.072647 62.974205 -0.88539344
57.837578 63.202587 -0.51796454
57.879288 63.207981 -0.34395474
55.956562 62.959183 -0.22651072
55.885849 62.950031 0
55.894955 62.95121 0.22824569
64 64 -0
56.053734 62.961994 -0.88764495
57.833462 63.194477 -0.51839215
57.885376 63.201256 -0.3436667
55.968124 62.950809 -0.22622071
55.887123 62.940228 0
55.880764 62.9394 0.22868125
64 64 -0
56.8223 63.053566 -0.99872363
56.085232 62.956379 -0.88426656
57.829353 63.186356 -0.51881969
57.855583 63.189812 -0.34539592
55.969398 62.941105 -0.22622071
55.883255 62.929749 0
55.892365 62.93095 0.22839069
64 64 -0
56.056267 62.942795 -0.88764495
57.845592 63.180931 -0.517537
57.841179 63.18034 -0.34626105
55.965534 62.930717 -0.22636572
55.884556 62.919941 0
55.88335 62.919781 0.22868125
64 64 -0
56.859406 63.040897 -0.99388045
56.062599 62.933872 -0.88708049
57.836422 63.172127 -0.51839215
57.837051 63.172211 -0.34654909
55.961689 62.920319 -0.22651072
55.885864 62.910137 0
55.874367 62.908592 0.22897126
64 64 -0
56.073956 62.925648 -0.88595575
57.84251 63.165371 -0.51796454
57.838058 63.164768 -0.34654909
55.957855 62.909912 -0.22665572
55.876884 62.898933 0
55.885983 62.900169 0.22868125
64 64 -0
56.084667 62.92223 -0.88483107
57.8125 63.157494 -0.52053154
57.8283 63.159645 -0.34712622
55.958511 62.905052 -0.22665572
55.877548 62.894028 0
55.891792 62.895966 0.22853625
64 64 -0
56.060806 62.909206 -0.88764495
57.818604 63.150719 -0.52010399
57.813942 63.150078 -0.34799138
55.959843 62.895336 -0.22665572
55.894348 62.886337 0
55.877701 62.884052 0.22897126
64 64 -0
56.067181 62.900314 -0.88708049
57.839977 63.146069 -0.51839215
57.794479 63.139763 -0.34914455
55.966324 62.886333 -0.22651072
55.895699 62.876545 0
55.879059 62.874237 0.22897126
64 64 -0
56.073544 62.891434 -0.88651812
57.820675 63.13578 -0.52010399
57.821152 63.135849 -0.34770226
55.952232 62.87447 -0.22694628
55.902233 62.867477 0
55.890709 62.865864 0.22868125
64 64 -0
56.836136 62.989262 -0.99803209
56.069862 62.881149 -0.88708049
57.826801 63.129032 -0.51967645
57.791458 63.124046 -0.34943256
55.95874 62.865471 -0.22680128
55.893288 62.856236 0
55.886944 62.855339 0.22882625
64 64 -0
56.066174 62.87085 -0.88764495
57.827858 63.121574 -0.51967645
57.772034 63.113628 -0.35058573
55.949837 62.854294 -0.22709127
55.879211 62.844242 0
55.898613 62.847 0.22853625
64 64 -0
56.072586 62.861988 -0.88708049
57.818771 63.112659 -0.52053154
57.793591 63.109043 -0.34943256
55.956364 62.845303 -0.22694628
55.88578 62.835171 0
55.884594 62.834999 0.22897126
64 64 -0
56.839848 62.963299 -0.99803209
56.073967 62.852409 -0.88708049
57.840172 63.108135 -0.51881969
57.769081 63.097839 -0.35087374
55.952629 62.834843 -0.22709127
55.871735 62.823128 0
55.891144 62.825939 0.22882625
64 64 -0
56.075363 62.842834 -0.88708049
57.820934 63.097725 -0.52053154
57.739471 63.085831 -0.35260296
55.928333 62.821365 -0.22781684
55.898911 62.81707 0
55.89257 62.816143 0.22882625
64 64 -0
56.076767 62.83326 -0.88708049
57.827103 63.091007 -0.52010399
57.720112 63.075253 -0.35375613
55.955467 62.815395 -0.22709127
55.900345 62.807281 0
55.88887 62.805592 0.22897126
64 64 -0
56.158588 62.835625 -0.87807649
57.802818 63.079777 -0.52224344
57.731457 63.069183 -0.35318008
55.96204 62.806442 -0.22694628
55.906937 62.79826 0
55.874893 62.793499 0.22940682
64 64 -0
56.210266 62.833679 -0.87244654
57.824245 63.075333 -0.52053154
57.742828 63.063141 -0.35260296
55.953217 62.795193 -0.22723627
55.877518 62.783859 0
55.876358 62.783684 0.22940682
64 64 -0
56.166466 62.81744 -0.87751198
57.810131 63.065571 -0.52181584
57.687695 63.047089 -0.35577443
55.944393 62.783916 -0.22752683
55.889278 62.775597 0
55.882965 62.774643 0.22926182
64 64 -0
56.157841 62.806446 -0.8786388
57.836639 63.061954 -0.51967645
57.714417 63.04335 -0.35433325
55.956154 62.775749 -0.22723627
55.870178 62.762665 0
55.879318 62.764053 0.22940682
64 64 -0
56.10907 62.789265 -0.88426656
57.802269 63.049057 -0.52267098
57.684906 63.031052 -0.35606244
55.957638 62.766029 -0.22723627
55.876842 62.753632 0
55.885948 62.755032 0.22926182
64 64 -0
56.110538 62.779732 -0.88426656
57.778038 63.037643 -0.52481204
57.650291 63.017887 -0.35808077
55.974525 62.758694 -0.22680128
55.873196 62.743023 0
55.882332 62.744434 0.22940682
64 64 -0
56.106983 62.769413 -0.88483107
57.81472 63.035664 -0.52181584
57.666821 63.012608 -0.35721561
55.955513 62.7458 -0.22738127
55.926159 62.741222 0
55.883854 62.734627 0.22940682
64 64 -0
56.338669 62.800793 -0.85893947
57.800083 63.029545 -0.5231002
57.662315 63.00798 -0.35750365
55.951126 62.740131 -0.22752683
55.911488 62.733929 0
55.884621 62.729725 0.22940682
64 64 -0
56.858528 62.873325 -0.99734062
56.917374 62.882607 -0.79420936
57.796192 63.021255 -0.52352774
57.632851 62.995483 -0.35923395
55.952652 62.730408 -0.22752683
55.943863 62.729023 0
55.865623 62.716679 0.22998737
64 64 -0
57.014072 62.88921 -0.78351617
57.797379 63.01376 -0.52352774
57.608528 62.98373 -0.36067513
55.954193 62.720684 -0.22752683
55.940269 62.718472 0
55.872311 62.707664 0.22984236
64 64 -0
57.055561 62.887203 -0.7790131
57.788448 63.004642 -0.52438283
57.630192 62.979282 -0.35952196
55.950615 62.710144 -0.22767183
55.91613 62.704617 0
55.889275 62.700314 0.22940682
64 64 -0
56.872555 62.849041 -0.99595761
57.081989 62.882862 -0.77619916
57.784573 62.996319 -0.52481204
57.570148 62.961693 -0.36298147
55.962452 62.702076 -0.22738127
55.922836 62.695679 0
55.870331 62.687202 0.22998737
64 64 -0
57.098396 62.876953 -0.77451003
57.760456 62.984684 -0.52695149
57.535664 62.948105 -0.3649998
55.964027 62.692368 -0.22738127
55.944965 62.689266 0
55.882191 62.67905 0.22969681
64 64 -0
57.114807 62.871082 -0.77282083
57.655296 62.959702 -0.53593838
57.572678 62.946156 -0.36298147
55.950222 62.680134 -0.22781684
55.920879 62.675323 0
55.873528 62.667557 0.22998737
64 64 -0
57.141243 62.866905 -0.7700069
57.393173 62.908524 -0.558191
57.548439 62.934177 -0.36442265
55.931313 62.667019 -0.22839738
55.922485 62.665562 0
55.864899 62.656048 0.23027737
64 64 -0
56.853458 62.81049 -0.99941778
57.137589 62.85778 -0.77057141
57.156479 62.860928 -0.57830423
64 64 -0
55.948315 62.659832 -0.22796182
55.898438 62.651531 0
55.871651 62.647072 0.23013237
64 64 -0
56.859863 62.802689 -0.99872363
57.164047 62.853695 -0.76775539
57.06673 62.837376 -0.58600682
57.530628 62.915165 -0.36557582
55.94994 62.650105 -0.22796182
55.951393 62.650349 0
55.88353 62.638969 0.22984236
64 64 -0
56.856354 62.793221 -0.99941778
57.175449 62.847126 -0.76663071
57.052948 62.826431 -0.58729112
57.526848 62.90649 -0.36586386
55.956696 62.641243 -0.22781684
55.911972 62.63369 0
55.880062 62.628296 0.22998737
64 64 -0
57.196888 62.842293 -0.76437914
57.044239 62.816315 -0.58814788
57.517963 62.896931 -0.36644098
55.963463 62.632397 -0.22767183
55.918777 62.62479 0
55.876606 62.617615 0.23013237
64 64 -0
56.884014 62.780201 -0.99595761
57.193287 62.833214 -0.76494151
57.030506 62.805313 -0.58943057
57.519302 62.889099 -0.36644098
55.954887 62.620934 -0.22796182
55.951218 62.620304 0
55.8834 62.608677 0.22998737
64 64 -0
56.865734 62.768192 -0.99872363
57.259796 62.836231 -0.75762451
57.021828 62.795143 -0.59028733
57.541039 62.884789 -0.36528781
55.951424 62.610325 -0.22810739
55.922123 62.605267 0
55.89534 62.600643 0.22969681
64 64 -0
57.291237 62.833309 -0.75424832
56.987896 62.780556 -0.59328187
57.506729 62.870785 -0.36730504
55.953106 62.600601 -0.22810739
55.934059 62.59729 0
55.897038 62.590851 0.22969681
64 64 -0
57.307674 62.827835 -0.75255913
56.918564 62.759682 -0.59927422
57.528461 62.866505 -0.36615297
55.96505 62.592674 -0.22781684
55.93576 62.587543 0
55.888496 62.579266 0.22998737
64 64 -0
56.894947 62.746696 -0.99526346
57.314095 62.820633 -0.75199676
56.965569 62.759151 -0.59542292
57.626633 62.875763 -0.36067513
55.966759 62.582966 -0.22781684
55.952858 62.580513 0
55.915806 62.573978 0.22926182
64 64 -0
56.906338 62.739864 -0.99388045
57.310528 62.811665 -0.75255913
57.103561 62.774899 -0.58386743
57.790977 62.897015 -0.35144979
55.958233 62.571442 -0.22810739
55.939198 62.568062 0
55.994289 62.577847 0.22708458
64 64 -0
56.882408 62.731178 -0.99734062
57.291233 62.804058 -0.75481063
57.230659 62.793259 -0.57316864
57.832367 62.900524 -0.34914455
55.959099 62.566582 -0.22810739
55.945183 62.564102 0
57.407154 62.824722 0.18702832
64 64 -0
56.943207 62.733215 -0.98903465
57.292686 62.795952 -0.75481063
57.282646 62.794151 -0.5688898
57.843895 62.894901 -0.3485674
55.991535 62.562378 -0.22723627
55.936691 62.552532 0
57.408581 62.816757 0.18702832
56.979294 62.730934 -0.98419154
57.304153 62.789658 -0.75368381
57.268948 62.783295 -0.5701741
57.850319 62.888382 -0.34827939
56.075104 62.567493 -0.22491404
55.953815 62.54557 0
57.43047 62.812492 0.18644775
56.995644 62.725151 -0.98211437
57.265625 62.774288 -0.75818688
57.245171 62.770565 -0.57231355
57.82114 62.875397 -0.35000861
56.276226 62.594212 -0.21925402
55.945328 62.533985 0
57.426804 62.803623 0.18659276
57.095898 62.734776 -0.96827114
57.282093 62.768898 -0.75649983
57.196171 62.753151 -0.57659239
57.853024 62.873524 -0.34827939
56.559063 62.636398 -0.21127176
55.93174 62.521435 0
57.407806 62.791935 0.18717332
64 64 -0
57.018482 62.711868 -0.97934574
57.283585 62.76078 -0.75649983
57.187576 62.743069 -0.57744914
57.839123 62.863281 -0.34914455
56.606709 62.635895 -0.20996565
55.948891 62.514523 0
57.358173 62.774544 0.18862443
57.084171 62.715347 -0.9703483
57.275105 62.750813 -0.75762451
57.173969 62.732025 -0.57873178
57.82526 62.853008 -0.35000861
56.618572 62.628857 -0.20967565
55.950695 62.504795 0
57.303452 62.756077 0.1902211
64 64 -0
57.125183 62.714367 -0.96481103
57.266617 62.740818 -0.75875139
57.165405 62.721889 -0.57958853
57.836807 62.847446 -0.34943256
56.610027 62.618031 -0.20996565
55.932041 62.491245 0
57.269196 62.741299 0.19123723
57.126743 62.706062 -0.96481103
57.328072 62.743965 -0.75199676
57.192177 62.71838 -0.57744914
57.817871 62.836174 -0.35058573
56.683193 62.622562 -0.20793398
55.93898 62.48246 0
57.153271 62.711056 0.19457501
64 64 -0
57.152954 62.702431 -0.96135086
57.389511 62.747257 -0.74524218
57.18869 62.709202 -0.57787669
57.788795 62.822926 -0.35231492
56.894203 62.653393 -0.20198339
55.930603 62.470783 0
56.848492 62.64473 0.20328282
57.164394 62.696037 -0.95996523
57.470898 62.754509 -0.73623598
57.215466 62.70578 -0.57573724
57.759727 62.809605 -0.35404524
56.997932 62.664284 -0.1990806
55.942673 62.462982 0
56.584682 62.585453 0.21083008
57.146267 62.683994 -0.96273386
57.592182 62.769619 -0.72272676
57.262409 62.706295 -0.57188594
57.705303 62.791336 -0.35721561
56.948505 62.646023 -0.20053229
55.934319 62.451286 0
56.494541 62.558857 0.21344231
57.118294 62.670002 -0.96688813
57.578701 62.758984 -0.72441596
57.253902 62.696209 -0.57274109
57.513775 62.746433 -0.36817017
56.88382 62.624683 -0.20241895
55.951534 62.444508 0
56.373825 62.526119 0.21692565
57.139606 62.66552 -0.96411949
57.620113 62.758987 -0.71991289
57.331066 62.702763 -0.5663228
57.368042 62.709953 -0.37653038
56.798771 62.59922 -0.20488618
55.938087 62.431801 0
56.253201 62.493095 0.22040844
57.151081 62.659161 -0.96273386
57.63158 62.753231 -0.71878821
57.418285 62.711472 -0.55904776
57.263004 62.681072 -0.38258424
56.805565 62.591518 -0.20474119
55.950195 62.424057 0
56.127533 62.458775 0.2240368
57.172398 62.654766 -0.95996523
57.618149 62.742592 -0.7204752
57.434967 62.706497 -0.55776346
57.163094 62.652931 -0.3883501
56.797081 62.580818 -0.20503119
55.931679 62.410309 0
56.022327 62.428169 0.22708458
57.119884 62.63578 -0.96757966
57.629631 62.736855 -0.71935052
57.476822 62.706554 -0.55433971
57.058174 62.623543 -0.39440396
56.808987 62.574135 -0.20474119
55.933601 62.400558 0
56.039532 62.421562 0.22664902
57.156815 62.630207 -0.96273386
57.616978 62.722317 -0.72103971
57.489254 62.696751 -0.55348295
57.04039 62.606903 -0.39555714
56.765728 62.551926 -0.2060473
55.956932 62.39003 0
55.930286 62.384697 0.22984236
57.158474 62.621941 -0.96273386
64 64 -0
57.495861 62.689899 -0.55305541
57.128284 62.61586 -0.39065644
56.777679 62.545238 -0.20575674
55.953785 62.379284 0
64 64 0
57.219154 62.625633 -0.9544279
57.610134 62.70488 -0.72216439
57.477322 62.677963 -0.55476731
57.489906 62.680511 -0.3701885
56.815083 62.543736 -0.20474119
55.945557 62.367496 0
55.883289 62.354877 0.23129348
57.186401 62.610424 -0.9592737
57.616676 62.698174 -0.72160208
57.488976 62.672131 -0.55391216
57.80069 62.735703 -0.35260296
56.81176 62.534019 -0.20488618
55.947533 62.357765 0
55.895458 62.347145 0.23100348
57.306046 62.626396 -0.94266182
57.613281 62.689442 -0.72216439
57.485561 62.663235 -0.55433971
57.90863 62.750046 -0.34654909
56.788086 62.520111 -0.20561175
55.949524 62.348038 0
55.877098 62.333176 0.23158404
57.361752 62.629467 -0.93505007
57.589993 62.67659 -0.72497833
57.492203 62.656399 -0.55391216
58.021591 62.765697 -0.34020722
56.805153 62.514553 -0.20517619
55.951527 62.33831 0
55.894394 62.326515 0.23114848
57.559917 62.662266 -0.90736359
57.616467 62.674011 -0.72216439
57.493832 62.648537 -0.55391216
58.007889 62.755318 -0.34107235
56.791683 62.502686 -0.20561175
55.933155 62.324352 0
55.92696 62.323067 0.23027737
57.60083 62.662697 -0.90182626
57.613106 62.66526 -0.72272676
57.490448 62.639629 -0.55433971
58.06002 62.758659 -0.33818999
56.803665 62.496101 -0.20532174
55.970837 62.322056 0
55.964584 62.320751 0.22926182
57.641731 62.663223 -0.89628899
57.604767 62.655453 -0.72385359
57.456924 62.624367 -0.55733591
58.051411 62.749355 -0.33876601
56.795322 62.485271 -0.20561175
56.176613 62.355194 0
55.976803 62.313183 0.22897126
57.623718 62.65139 -0.89905763
57.601429 62.646675 -0.72441596
57.443535 62.613277 -0.55861861
58.052925 62.742168 -0.33876601
56.797161 62.476566 -0.20561175
56.728542 62.462055 0
55.93309 62.293812 0.23027737
57.595894 62.637417 -0.90321195
57.612999 62.641056 -0.72329128
57.465302 62.609631 -0.5569067
58.019028 62.727448 -0.34078434
56.783752 62.464619 -0.2060473
56.791496 62.466267 0
55.904652 62.277576 0.23114848
57.631897 62.637032 -0.89836615
57.614647 62.633339 -0.72329128
57.456936 62.599586 -0.55776346
57.884007 62.69099 -0.3485674
56.800861 62.459167 -0.20561175
56.722111 62.44231 0
55.896584 62.265621 0.23143849
57.618828 62.626171 -0.90044332
57.621284 62.626698 -0.72272676
57.438557 62.587357 -0.55947536
57.652977 62.633522 -0.3618283
56.726517 62.434059 -0.20778897
56.372921 62.357933 0
55.898685 62.255833 0.23143849
57.654823 62.625896 -0.89559752
57.613007 62.61684 -0.72385359
57.435257 62.578346 -0.55990291
57.457474 62.583157 -0.37307087
56.667484 62.412079 -0.2095301
56.028992 62.273808 0
55.895706 62.244942 0.23158404
57.661388 62.619297 -0.89490598
57.614681 62.609123 -0.72385359
57.426956 62.56823 -0.56075799
57.383366 62.558735 -0.37739554
56.623692 62.393261 -0.21083677
55.959892 62.248669 0
55.877541 62.230732 0.23216404
57.589535 62.595531 -0.90528911
57.621326 62.602493 -0.72329128
57.438713 62.562485 -0.55990291
57.208267 62.511997 -0.38748494
56.55965 62.369892 -0.21272343
55.931519 62.232273 0
55.910133 62.227589 0.23129348
57.630436 62.596424 -0.89975178
57.603168 62.590416 -0.72554278
57.400341 62.545719 -0.56332666
57.023163 62.462605 -0.39815149
56.571785 62.36314 -0.21243288
55.918404 62.219166 0
55.912281 62.217815 0.23129348
57.538216 62.572006 -0.91290087
57.613956 62.588745 -0.72441596
57.35611 62.531761 -0.56717795
57.074612 62.469555 -0.39526802
56.547409 62.353046 -0.21315844
55.924561 62.215405 0
57.841557 62.639042 0.17614327
58.110783 62.691074 -0.99462098
57.632992 62.584881 -0.89975178
57.595821 62.576618 -0.72666746
57.252644 62.500343 -0.57616484
57.137043 62.474651 -0.39180961
56.574764 62.349682 -0.21243288
55.901321 62.200001 0
57.77726 62.616947 0.17802995
57.61512 62.572811 -0.90252042
57.602501 62.569988 -0.72610515
57.249454 62.491074 -0.57659239
57.13385 62.465233 -0.39209762
56.581829 62.341843 -0.21228789
55.91367 62.19249 0
57.794136 62.612823 0.17759494
57.621758 62.5662 -0.90182626
57.609188 62.563374 -0.72554278
57.246277 62.481792 -0.57701993
57.155895 62.461475 -0.39094445
56.553429 62.326042 -0.21315844
55.905693 62.180435 0
57.750191 62.59507 0.17890106
57.60392 62.55407 -0.90459496
57.601025 62.553413 -0.72666746
57.338249 62.494011 -0.56931734
57.142616 62.449783 -0.39180961
56.398312 62.281525 -0.21765791
55.928207 62.175247 0
57.777252 62.593254 0.17817494
57.62524 62.550789 -0.90182626
57.627548 62.551315 -0.72385359
57.420174 62.504173 -0.5624699
57.139458 62.440353 -0.39209762
56.187565 62.223953 -0.22375348
55.925346 62.164345 0
57.763748 62.582279 0.1786105
57.617207 62.540852 -0.90321195
57.629303 62.543617 -0.72385359
57.467026 62.506519 -0.55861861
57.141346 62.432064 -0.39209762
56.022556 62.176304 -0.22854239
55.917412 62.152267 0
57.790791 62.580532 0.17788495
57.530964 62.512909 -0.9156695
57.631069 62.535919 -0.72385359
57.478836 62.500923 -0.55776346
57.133171 62.421463 -0.39267364
55.943729 62.148037 -0.23086461
55.914581 62.141335 0
57.787453 62.571869 0.17802995
57.62075 62.525429 -0.90321195
57.642754 62.530518 -0.72272676
57.480652 62.493046 -0.55776346
57.124996 62.410835 -0.39325079
55.951031 62.139473 -0.23071963
55.9067 62.129227 0
57.799297 62.5667 0.17773995
57.563889 62.504093 -0.91151786
57.61977 62.517078 -0.72554278
57.437473 62.474709 -0.56161475
57.106766 62.397846 -0.39440396
55.953285 62.129749 -0.23071963
55.919098 62.121803 0
57.79092 62.556858 0.17802995
57.609669 62.506592 -0.90528911
57.601772 62.504745 -0.72779435
57.40432 62.458603 -0.56461096
57.04826 62.375389 -0.39786348
55.940365 62.116478 -0.23115517
55.921375 62.112041 0
57.823021 62.55645 0.17715938
57.591961 62.494286 -0.90805507
57.603584 62.497017 -0.72779435
57.386196 62.445934 -0.5663228
56.949532 62.34333 -0.4036282
55.937592 62.105553 -0.23130018
55.933804 62.104664 0
57.789371 62.540672 0.17817494
57.52541 62.47039 -0.91774666
57.63509 62.4963 -0.72441596
57.448036 62.45211 -0.56118721
56.926373 62.328869 -0.40506941
55.944939 62.097008 -0.23115517
55.910759 62.088932 0
57.801247 62.535557 0.17788495
57.356419 62.421989 -0.94197035
57.622074 62.485088 -0.72610515
57.684669 62.499954 -0.54107398
57.079372 62.356182 -0.39642116
55.952316 62.088478 -0.23100962
55.908012 62.077957 0
57.823246 62.532871 0.17730439
57.216805 62.380165 -0.96204233
57.618969 62.476204 -0.72666746
58.11594 62.594879 -0.5042696
57.141724 62.362236 -0.39296278
55.944511 62.07634 -0.23130018
55.925537 62.071808 0
57.809853 62.521786 0.17773995
57.091927 62.341518 -0.98003721
57.615879 62.467308 -0.72722983
58.177547 62.602154 -0.499134
57.178925 62.362404 -0.39094445
55.936745 62.064182 -0.23159018
55.922813 62.060841 0
57.811646 62.514305 0.17773995
57.059788 62.324932 -0.98488301
57.622673 62.460785 -0.72666746
58.194199 62.598728 -0.49785134
57.211086 62.361446 -0.38921416
55.944138 62.05566 -0.23144518
55.904926 62.046196 0
57.803349 62.504395 0.17802995
56.997406 62.305397 -0.99388045
57.64336 62.461716 -0.72441596
58.195045 62.595222 -0.49785134
57.151745 62.342747 -0.39267364
55.945312 62.050793 -0.23144518
55.906105 62.041306 0
57.849709 62.51165 0.17672384
57.00433 62.298122 -0.99318898
57.674839 62.461239 -0.72103971
58.201752 62.589424 -0.49742213
57.007992 62.299011 -0.40103385
55.947674 62.041061 -0.23144518
55.913532 62.032757 0
57.861603 62.506676 0.17643383
57.016148 62.292057 -0.99180335
57.661911 62.449982 -0.72272676
58.213425 62.584858 -0.49656701
56.809059 62.241409 -0.41256556
55.95509 62.032566 -0.23130018
55.910866 62.021751 0
57.823025 62.489384 0.17759494
57.008465 62.281219 -0.99318898
57.663788 62.442322 -0.72272676
58.155312 62.56316 -0.50170261
56.765984 62.221611 -0.41515991
55.952431 62.02161 -0.23144518
55.913261 62.011978 0
57.875332 62.494328 0.17614327
57.03978 62.279999 -0.98903465
57.660725 62.433445 -0.72329128
58.16703 62.558563 -0.50084585
56.768135 62.212872 -0.41515991
55.954826 62.011887 -0.23144518
55.930813 62.005951 0
57.826694 62.474461 0.17759494
57.007774 62.263123 -0.99388045
57.657696 62.424564 -0.72385359
58.158802 62.549038 -0.50170261
56.810463 62.214111 -0.41285357
55.952198 62.000916 -0.23159018
55.902927 61.988678 0
57.702477 62.435688 0.18122274
57.009876 62.254673 -0.99388045
57.6744 62.420597 -0.72216439
58.110756 62.529549 -0.5059815
56.958168 62.241764 -0.40449336
55.959656 61.992451 -0.23144518
55.915455 61.981415 0
57.648903 62.41423 0.18281941
57.016853 62.247448 -0.99318898
57.681236 62.414188 -0.72160208
58.077675 62.513683 -0.50897765
57.341599 62.328953 -0.38258424
55.95705 61.981472 -0.23159018
55.9179 61.971645 0
57.610497 62.396435 0.18398052
57.053036 62.247604 -0.98834318
57.702869 62.411526 -0.71935052
58.054588 62.500252 -0.5111171
57.584366 62.381634 -0.36874732
55.964531 61.973026 -0.23144518
55.910271 61.959339 0
57.551971 62.373463 0.1857222
57.021107 62.230579 -0.99318898
57.69001 62.400173 -0.72103971
58.04147 62.489281 -0.5124014
57.606384 62.378967 -0.36759415
55.956902 61.960762 -0.23173574
55.917786 61.950844 0
58.334721 62.563633 0.16322656
57.018394 62.220909 -0.99388045
57.706726 62.396313 -0.71935052
58.03833 62.480816 -0.51282895
57.60334 62.369968 -0.36788216
55.934196 61.94463 -0.23246129
55.925304 61.942364 0
58.653713 62.63763 0.15408319
57.02055 62.212475 -0.99388045
57.688976 62.383667 -0.72160208
58.000381 62.463421 -0.5162527
57.625359 62.367374 -0.36672899
55.951794 61.938755 -0.23202574
55.912685 61.928738 0
58.675499 62.63633 0.15350263
57.081024 62.219051 -0.98557454
57.725388 62.384911 -0.71766132
57.997272 62.454895 -0.51668024
57.602291 62.353226 -0.36817017
55.949261 61.927738 -0.23217073
55.905102 61.91637 0
58.682182 62.631191 0.15335763
57.039467 62.199387 -0.99180335
57.737175 62.379875 -0.71653664
58.028957 62.455357 -0.51411325
57.604286 62.345497 -0.36817017
55.936672 61.914104 -0.23260629
55.912659 61.907894 0
58.69389 62.627365 0.15306763
57.031925 62.18845 -0.99318898
57.807983 62.390205 -0.70865732
58.010956 62.442974 -0.51582515
57.596268 62.335167 -0.36874732
55.939201 61.904362 -0.23260629
55.910164 61.896812 0
58.675453 62.61573 0.15364763
57.02927 62.178764 -0.99388045
56.005592 61.911308 -0.9152236
58.032707 62.440929 -0.51411325
57.603302 62.328739 -0.36845821
55.941738 61.894623 -0.23260629
55.882504 61.87915 0
58.677132 62.609299 0.15364763
56.011768 61.907764 -0.91466129
58.023727 62.434727 -0.5149684
57.579277 62.318317 -0.36990049
55.943008 61.889755 -0.23260629
55.908958 61.880836 0
58.677971 62.606083 0.15364763
56.02412 61.9007 -0.91353661
58.005764 62.422279 -0.51668024
57.566322 62.306614 -0.37076455
55.950588 61.881344 -0.23246129
55.916553 61.872387 0
58.679661 62.599655 0.15364763
56.016846 61.888466 -0.91466129
57.953072 62.400597 -0.52138829
57.553364 62.294872 -0.37162969
55.943115 61.868965 -0.23275129
55.904049 61.858631 0
58.651199 62.585251 0.15451875
57.100067 62.166054 -0.98488301
56.024311 61.880127 -0.91409892
58.014549 62.409115 -0.5162527
57.455441 62.260509 -0.37739554
55.940678 61.857899 -0.2328963
55.881474 61.842163 0
58.662968 62.581459 0.1542282
57.078056 62.151245 -0.98834318
56.036705 61.873116 -0.91297209
58.01152 62.400562 -0.51668024
57.292625 62.208553 -0.38690892
55.958321 61.85218 -0.23246129
55.879063 61.831013 0
58.64962 62.570988 0.15466374
56.049088 61.866127 -0.91184741
58.023369 62.395985 -0.51582515
57.094971 62.14682 -0.3984395
55.975983 61.846508 -0.23202574
55.916885 61.830647 0
58.661381 62.567215 0.15437375
57.043789 62.124073 -0.99388045
56.032047 61.851231 -0.91409892
57.995575 62.380749 -0.51839215
56.298126 61.922985 -0.44456407
55.943462 61.827339 -0.23304185
55.90443 61.816814 0
58.643044 62.555355 0.1549543
57.017014 62.107796 -0.99803209
56.034649 61.841602 -0.91409892
58.017361 62.378864 -0.51668024
55.966129 61.823036 -0.46387884
55.951126 61.81897 -0.2328963
55.886978 61.80159 0
58.644794 62.548882 0.1549543
57.033813 62.10331 -0.99595761
56.022549 61.827972 -0.91578811
58.004456 62.367588 -0.51796454
55.97377 61.814693 -0.4635897
55.953766 61.809246 -0.2328963
55.889641 61.791786 0
58.661598 62.546509 0.15451875
57.011917 62.088276 -0.99941778
56.039886 61.822361 -0.91409892
57.97673 62.352219 -0.52053154
64 64 -0
55.971443 61.803635 -0.23246129
55.887299 61.780617 0
58.673393 62.542805 0.1542282
57.05777 62.091801 -0.99318898
55.998428 61.800621 -0.91916436
58.01833 62.355827 -0.51710778
55.969093 61.792557 -0.46416685
55.959084 61.789806 -0.2328963
55.915077 61.77771 0
58.660122 62.532238 0.15466374
57.089108 62.091431 -0.98903465
56.020687 61.796368 -0.91691279
58.010414 62.345867 -0.51796454
55.95182 61.777348 -0.46532002
55.951733 61.777325 -0.23318686
55.897701 61.762402 0
58.646866 62.521633 0.1550993
56.023354 61.786728 -0.91691279
57.962952 62.324905 -0.52224344
55.95451 61.767624 -0.46532002
55.954422 61.767601 -0.23318686
55.885357 61.748436 0
58.678711 62.523506 0.1542282
57.062248 62.056919 -0.99388045
56.014042 61.763344 -0.91860199
57.976898 62.313087 -0.52138829
55.95993 61.748188 -0.46532002
55.959843 61.748165 -0.23318686
55.905865 61.733047 0
58.65226 62.502239 0.1550993
57.069424 62.049896 -0.99318898
56.026543 61.756451 -0.91747516
57.934464 62.293297 -0.52523959
55.997517 61.748283 -0.46330169
55.942558 61.732819 -0.23376741
55.893574 61.719036 0
58.654072 62.495777 0.1550993
57.081451 62.044254 -0.99180335
56.034145 61.748199 -0.91691279
57.971119 62.295746 -0.52224344
56.084862 61.762539 -0.45840099
55.940308 61.721676 -0.23391241
55.88633 61.706413 0
58.660889 62.490734 0.1549543
57.087456 62.041443 -0.99111181
56.050179 61.747547 -0.9152236
57.952393 62.286507 -0.52395529
56.24049 61.801468 -0.44946477
55.931675 61.71397 -0.23420297
55.89772 61.70435 0
58.671814 62.490345 0.15466374
57.075348 62.028969 -0.99318898
56.038239 61.733765 -0.91691279
57.97422 62.284824 -0.52224344
56.61132 61.896889 -0.42813167
55.94445 61.707069 -0.23391241
55.880478 61.688862 0
58.638649 62.473946 0.15567987
57.077736 62.020603 -0.99318898
56.026321 61.719955 -0.91860199
57.976295 62.277542 -0.52224344
56.782959 61.936314 -0.41833028
55.932232 61.69305 -0.23434797
55.913311 61.687641 0
58.645485 62.468895 0.15553486
57.060841 62.006699 -0.99595761
56.024204 61.70892 -0.91916436
57.909306 62.250423 -0.52823412
56.845119 61.944733 -0.4148708
55.950016 61.687611 -0.23391241
55.886086 61.669247 0
58.63736 62.45956 0.15582487
57.960384 62.257195 -0.69627279
57.881817 62.234524 -0.53080279
56.872456 61.94326 -0.41342959
55.952812 61.677883 -0.23391241
55.908913 61.665215 0
58.62923 62.450199 0.15611543
57.094601 61.998322 -0.99180335
57.835602 62.213116 -0.71090674
57.839581 62.214268 -0.53465408
56.874947 61.934647 -0.41342959
55.940647 61.663822 -0.23434797
55.911736 61.655441 0
58.606155 62.436478 0.15684098
57.048859 61.975952 -0.99872363
55.978886 61.664394 -0.92535663
57.812176 62.198215 -0.53722101
56.907238 61.934715 -0.4117004
55.95845 61.658443 -0.23391241
55.929573 61.650036 0
58.523228 62.405262 0.15930821
57.051311 61.967556 -0.99872363
56.001221 61.660412 -0.92310506
57.769993 62.177765 -0.54107398
56.874977 61.915977 -0.41371873
55.946316 61.644352 -0.23434797
55.872471 61.622753 0
58.370548 62.353424 0.16380711
56.028446 61.657913 -0.92028904
57.757439 62.165901 -0.54235667
56.907291 61.916122 -0.41198841
55.949169 61.634621 -0.23434797
55.910313 61.623207 0
58.14817 62.280701 0.17033826
57.138046 61.974911 -0.98695755
56.026394 61.646843 -0.92085356
57.764576 62.159813 -0.54192907
56.909813 61.907555 -0.41198841
55.937073 61.62048 -0.23478353
55.913189 61.613434 0
58.010708 62.232449 0.1744016
57.092384 61.952358 -0.99388045
56.038998 61.640099 -0.91972673
57.752033 62.1479 -0.54321343
56.88258 61.890163 -0.41371873
55.939957 61.610741 -0.23478353
55.896118 61.597744 0
57.938103 62.203056 0.17657883
57.109295 61.948311 -0.99180335
56.036991 61.629032 -0.92028904
57.739529 62.13596 -0.54449606
56.904964 61.88747 -0.41256556
55.942848 61.601002 -0.23478353
55.889057 61.584988 0
57.925331 62.191284 0.1770144
57.073322 61.928482 -0.99734062
56.049587 61.622322 -0.91916436
57.766373 62.13575 -0.54235667
56.917446 61.881866 -0.41198841
55.955719 61.59425 -0.23449297
55.901947 61.578167 0
57.907608 62.177986 0.17759494
57.099854 61.92733 -0.99388045
56.213074 61.660961 -0.9005897
57.73912 62.119354 -0.54492527
56.905144 61.868843 -0.41285357
55.938725 61.578552 -0.23507352
55.889919 61.563892 0
57.909813 62.170628 0.17759494
57.102364 61.918995 -0.99388045
56.498077 61.736683 -0.86794347
57.707005 62.101414 -0.54791981
56.93248 61.867744 -0.41141239
55.936684 61.567314 -0.23521852
55.882912 61.55109 0
57.941891 62.172279 0.17672384
57.104881 61.910664 -0.99388045
56.656429 61.774773 -0.84993333
57.699467 62.090832 -0.54877657
56.940025 61.86071 -0.41112328
55.969463 61.566612 -0.23434797
55.865952 61.535248 0
58.138058 62.223732 0.17106381
57.110943 61.907955 -0.99318898
56.682083 61.777718 -0.84711945
57.690804 62.084045 -0.54963166
56.956154 61.86095 -0.41025922
55.960999 61.558743 -0.23463796
55.887363 61.536381 0
55.896568 61.539177 0.2365185
57.094276 61.893776 -0.99595761
56.738243 61.785187 -0.84092718
57.653839 62.064442 -0.55305541
56.968651 61.855461 -0.40968207
55.954002 61.545998 -0.23492852
55.895321 61.528099 0
55.884651 61.524845 0.23695351
57.101639 61.886909 -0.99526346
56.765217 61.783855 -0.83811325
57.705261 62.071808 -0.54877657
57.005856 61.857567 -0.40766487
55.89238 61.516491 -0.2368152
55.893341 61.516785 0
58.918575 62.44347 0.14842317
57.113777 61.881523 -0.99388045
56.763046 61.773624 -0.83867562
57.638905 62.043072 -0.55476731
56.978794 61.839996 -0.40939406
57.310966 61.942184 -0.19545226
55.906288 61.510048 0
58.96516 62.45108 0.14711705
57.121132 61.874683 -0.99318898
56.775444 61.767876 -0.83755094
57.631454 62.032352 -0.55562407
56.927036 61.814713 -0.41256556
57.268757 61.920292 -0.19675894
55.879471 61.491055 0
58.981937 62.449604 0.14668149
57.104538 61.860424 -0.99595761
56.792713 61.763668 -0.83586174
57.65345 62.030746 -0.55391216
56.732079 61.744854 -0.42409614
57.256397 61.907543 -0.19719394
55.877544 61.479706 0
58.983814 62.443539 0.14668149
57.09277 61.847622 -0.99803209
56.795418 61.754963 -0.83586174
57.660751 62.024609 -0.55348295
56.329861 61.609886 -0.44773445
57.298626 61.911766 -0.19603282
55.870647 61.466789 0
58.98074 62.435936 0.14682649
57.143253 61.854259 -0.99111181
56.836937 61.7584 -0.83135867
57.628838 62.006218 -0.55647916
56.06617 61.517197 -0.46330169
57.26643 61.892807 -0.19704893
55.868752 61.455418 0
58.977661 62.428314 0.14697205
57.107555 61.833939 -0.99664915
56.815414 61.74213 -0.83417255
57.655739 62.006214 -0.55433971
56.024765 61.493656 -0.46589604
57.264027 61.883114 -0.19719394
55.861893 61.442471 0
58.964703 62.41758 0.14740705
57.1054 61.824104 -0.99734062
56.827831 61.736507 -0.83304787
57.61898 61.986191 -0.55776346
55.973534 61.466896 -0.46906754
57.202168 61.854645 -0.1990806
55.909676 61.446743 0
58.941826 62.403671 0.14813317
56.835411 61.729374 -0.8324855
57.636108 61.983135 -0.55647916
64 64 -0
55.946503 61.447659 -0.23594408
55.882988 61.427528 0
58.909096 62.386574 0.14914873
57.139355 61.816578 -0.99318898
56.838158 61.720718 -0.8324855
57.623867 61.970776 -0.55776346
55.979675 61.447506 -0.46906754
55.890167 61.419018 -0.23768575
55.925781 61.430351 0
58.881325 62.370964 0.15001984
57.151566 61.811348 -0.99180335
56.879642 61.724445 -0.82798243
57.61655 61.959949 -0.55861861
55.967979 61.43309 -0.46993271
55.893288 61.409222 -0.23768575
55.923935 61.419014 0
58.838749 62.350544 0.15132596
57.139877 61.798473 -0.99388045
56.882401 61.715843 -0.82798243
57.61412 61.950665 -0.55904776
55.966167 61.421806 -0.47022071
55.88652 61.396248 -0.23797631
55.917137 61.406075 0
58.811066 62.334785 0.15219651
56.885162 61.707245 -0.82798243
57.592171 61.935078 -0.56118721
64 64 -0
55.899574 61.389637 -0.23768575
55.935146 61.4011 0
58.753723 62.309387 0.15393819
57.149986 61.783443 -0.99318898
56.887939 61.698647 -0.82798243
57.570251 61.919434 -0.56332666
55.962585 61.39922 -0.47079673
55.892838 61.376648 -0.23797631
55.923431 61.386547 0
58.770611 62.30785 0.15350263
57.151329 61.779305 -0.99318898
56.889332 61.694351 -0.82798243
57.522682 61.899715 -0.5676055
55.973991 61.397552 -0.47022071
55.889484 61.370148 -0.23812132
55.939873 61.386486 0
58.707371 62.283855 0.15538931
57.111084 61.757053 -0.99941778
56.901794 61.688911 -0.8268556
57.481293 61.877586 -0.57145679
55.967316 61.384655 -0.47079673
55.897606 61.361958 -0.23797631
55.908386 61.365471 0
58.65015 62.258156 0.15713097
57.132874 61.754967 -0.99664915
56.904594 61.680336 -0.8268556
57.439926 61.85535 -0.57530969
55.960636 61.371735 -0.47137389
55.890926 61.348946 -0.23826632
55.956116 61.370255 0
58.563354 62.222626 0.1597432
57.216629 61.773273 -0.98488301
56.917049 61.674931 -0.82573086
57.340107 61.813805 -0.58429497
55.963818 61.362022 -0.47137389
55.874386 61.332664 -0.23884687
55.924675 61.349171 0
58.565506 62.216061 0.1597432
57.181202 61.752514 -0.99042034
56.919865 61.666374 -0.82573086
57.284241 61.786476 -0.58943057
55.96701 61.352314 -0.47137389
55.892426 61.327728 -0.23841132
55.893276 61.328011 0
58.523232 62.194847 0.16104989
57.164871 61.737968 -0.99318898
56.898571 61.649841 -0.8285448
57.213802 61.754166 -0.59585047
55.960403 61.339363 -0.47194991
55.880856 61.313034 -0.23884687
55.926167 61.328033 0
58.525417 62.188232 0.16104989
57.196186 61.739208 -0.98903465
56.935177 61.652481 -0.82460403
57.143452 61.721687 -0.60226876
55.968529 61.33128 -0.4716619
55.874237 61.299946 -0.23913743
55.899757 61.308426 0
58.502956 62.173424 0.16177544
57.1656 61.719872 -0.99388045
56.938019 61.643944 -0.82460403
56.985497 61.659786 -0.6163913
55.966858 61.319939 -0.47194991
55.887375 61.293423 -0.23884687
55.907948 61.300285 0
58.470673 62.155277 0.162791
57.201672 61.722775 -0.98903465
56.931225 61.632183 -0.82573086
56.817955 61.594238 -0.63136888
55.975002 61.311878 -0.4716619
55.959629 61.306728 -0.2368152
55.886543 61.282246 0
58.522175 62.1651 0.16133988
57.204426 61.714561 -0.98903465
56.972626 61.6366 -0.82122779
56.679749 61.538105 -0.64377952
55.953743 61.293938 -0.47310308
55.933342 61.287079 -0.23768575
55.92437 61.284061 0
58.55888 62.170082 0.16032377
57.173912 61.695114 -0.99388045
56.961037 61.623234 -0.82291698
56.614616 61.506264 -0.64977193
55.966812 61.287525 -0.47252706
55.936626 61.277332 -0.23768575
55.927658 61.274303 0
58.531544 62.15353 0.16119489
57.176701 61.686867 -0.99388045
56.978355 61.619625 -0.82122779
56.603065 61.492401 -0.65105456
55.965202 61.276161 -0.47281507
55.984215 61.282608 -0.23637964
55.906315 61.256199 0
58.543633 62.150261 0.16090433
57.17001 61.675392 -0.99526346
56.957188 61.602959 -0.82404166
56.576927 61.473537 -0.65362322
55.963608 61.26479 -0.47310308
55.992416 61.274597 -0.23623464
55.889927 61.239712 0
58.555698 62.147018 0.16061433
56.974522 61.59938 -0.82235253
56.477966 61.429707 -0.66261011
55.957119 61.251732 -0.47368023
56.010475 61.269966 -0.23579909
55.912971 61.236649 0
58.58746 62.150524 0.1597432
56.967804 61.587593 -0.82347935
56.432522 61.403965 -0.66688895
55.945778 61.236988 -0.47454426
55.999027 61.255253 -0.23623464
55.926151 61.230255 0
58.584766 62.142296 0.15988877
56.989944 61.585716 -0.82122779
56.406528 61.384789 -0.66945755
55.949123 61.227257 -0.47454426
56.026913 61.254047 -0.23550908
55.91967 61.217113 0
58.523144 62.113754 0.16177544
57.1908 61.645687 -0.99388045
56.973656 61.570606 -0.82347935
56.400002 61.372261 -0.6703127
55.947578 61.215836 -0.4748334
56.103916 61.26989 -0.23333184
55.908279 61.202248 0
58.437027 62.076576 0.16438767
56.981392 61.563782 -0.82291698
56.378933 61.354664 -0.67245209
55.946064 61.204414 -0.47512141
56.17104 61.282505 -0.23144518
55.926422 61.197594 0
58.350994 62.039185 0.16699991
57.214035 61.639942 -0.99111181
56.982864 61.559544 -0.82291698
56.356293 61.341629 -0.67459154
55.947754 61.199547 -0.47512141
56.285564 61.317032 -0.22810739
55.972355 61.208103 0
55.893127 61.18055 0.2397113
56.985817 61.551067 -0.82291698
56.344963 61.327316 -0.67587584
55.960922 61.193233 -0.47454426
56.347691 61.32827 -0.22636572
55.960987 61.193256 0
64 64 0
57.186607 61.611931 -0.99595761
56.993591 61.544277 -0.82235253
56.348198 61.318069 -0.67587584
55.964317 61.183521 -0.47454426
56.267555 61.289806 -0.22883295
55.934921 61.173218 0
64 64 0
57.170586 61.597046 -0.99872363
57.001354 61.537498 -0.82179016
56.346607 61.307125 -0.67630339
55.948212 61.166946 -0.47569743
56.158096 61.240795 -0.23217073
55.928513 61.160019 0
64 64 0
57.225521 61.60717 -0.99111181
57.004333 61.529045 -0.82179016
56.354702 61.299587 -0.67587584
55.966255 61.162384 -0.4748334
56.097736 61.208824 -0.23405741
55.936855 61.151997 0
55.906853 61.141399 0.2397113
57.20005 61.588928 -0.99526346
56.983383 61.512104 -0.82460403
56.362804 61.292065 -0.6754483
55.955078 61.147495 -0.47569743
56.066826 61.187119 -0.23507352
55.9305 61.138783 0
55.910309 61.131622 0.2397113
57.202972 61.580715 -0.99526346
56.986393 61.503628 -0.82460403
56.385429 61.289726 -0.67373645
55.939037 61.13084 -0.4768506
56.050644 61.170563 -0.23565409
55.938862 61.130775 0
55.899109 61.116627 0.24014629
57.003757 61.500278 -0.82291698
56.499916 61.320259 -0.66389275
57.511005 61.681519 -0.38402542
56.117687 61.183693 -0.23376741
55.927643 61.115791 0
55.917267 61.112083 0.2397113
57.208836 61.564297 -0.99526346
57.006783 61.491829 -0.82291698
56.696449 61.380524 -0.64677572
57.450516 61.650978 -0.38777295
56.11132 61.170662 -0.23405741
55.911537 61.09901 0
55.925648 61.104073 0.2395663
57.235386 61.56459 -0.99180335
57.014614 61.485107 -0.82235253
56.762413 61.39431 -0.64121258
57.463085 61.646564 -0.38719693
56.065838 61.143528 -0.23550908
55.939529 61.098053 0
55.924271 61.09256 0.2397113
57.227135 61.543114 -0.99388045
57.015919 61.466496 -0.82291698
56.788036 61.383827 -0.63950068
57.463932 61.629013 -0.38748494
56.009258 61.101322 -0.23739576
55.926994 61.071484 0
55.93132 61.073051 0.2397113
57.21125 61.528065 -0.99664915
57.018986 61.458057 -0.82291698
56.839436 61.392677 -0.63522184
57.447357 61.614037 -0.38863811
56.027424 61.097008 -0.2369602
55.935425 61.063507 0
55.93486 61.063305 0.2397113
56.998203 61.440903 -0.82573086
56.847427 61.385796 -0.63479263
57.430813 61.599018 -0.38979128
56.055336 61.096294 -0.23623464
55.929211 61.050198 0
55.987236 61.071404 0.23825963
57.236084 61.518578 -0.99388045
57.006084 61.4342 -0.8251664
56.821663 61.366543 -0.63736129
57.443439 61.59465 -0.38921416
57.195583 61.503719 -0.20241895
55.923 61.036858 0
58.00079 61.799118 0.1784655
57.243793 61.512138 -0.99318898
57.013954 61.427505 -0.82460403
56.848934 61.366741 -0.63522184
57.436634 61.583149 -0.38979128
57.193733 61.493706 -0.20256396
55.921707 61.025303 0
57.925426 61.763138 0.18078774
57.218575 61.493546 -0.99734062
57.007526 61.415539 -0.82573086
56.837688 61.352768 -0.63650453
57.429863 61.57164 -0.39036733
57.245502 61.503498 -0.20111284
55.905777 61.008327 0
57.972 61.772015 0.17948163
57.224792 61.491188 -0.99664915
56.994804 61.406025 -0.82741791
56.815201 61.33952 -0.63864559
57.421619 61.564072 -0.39094445
57.237274 61.495811 -0.20140284
55.912464 61.005241 0
57.914883 61.746723 0.18122274
57.246639 61.489998 -0.99388045
56.988407 61.39402 -0.8285448
56.707748 61.289707 -0.64848757
57.40033 61.547119 -0.39238563
57.172115 61.462296 -0.20343451
55.925854 60.999104 0
56.232216 61.112968 0.23143849
57.24968 61.481838 -0.99388045
57.001095 61.389107 -0.82741791
56.648499 61.257572 -0.65405077
57.301521 61.501179 -0.3984395
57.111874 61.430431 -0.20532174
55.924595 60.987526 0
58.032322 61.773796 0.17788495
57.252724 61.473682 -0.99388045
57.009007 61.382431 -0.8268556
56.632584 61.241489 -0.65576261
57.062328 61.402393 -0.41285357
57.012802 61.38385 -0.20836897
55.947739 60.985069 0
58.108025 61.793926 0.17570771
57.255783 61.46553 -0.99388045
56.993149 61.366833 -0.82910711
56.650345 61.23801 -0.65447831
56.862106 61.317589 -0.4249613
56.018738 61.000652 -0.23812132
55.927032 60.96619 0
58.135014 61.795944 0.17498216
56.991585 61.356579 -0.82966948
56.634472 61.221882 -0.65619016
56.502373 61.172058 -0.4465813
55.939713 60.959835 -0.24058855
55.950184 60.963783 0
58.132805 61.787022 0.17512771
57.266617 61.451015 -0.99318898
56.990017 61.346306 -0.83023399
56.604221 61.20026 -0.65918636
56.089745 61.005501 -0.47137389
55.953102 60.953773 -0.24029854
55.92466 60.943008 0
58.16951 61.792816 0.1741116
57.002739 61.341454 -0.82910711
56.631599 61.200443 -0.65704691
56.025681 60.970226 -0.47540942
56.126827 61.008656 -0.23521852
55.904037 60.924011 0
58.225624 61.806076 0.17251493
56.991707 61.327564 -0.8307963
56.745331 61.233616 -0.64720327
55.985847 60.944008 -0.47800377
56.960743 61.315758 -0.21040121
55.898022 60.910519 0
58.393368 61.862053 0.16758047
57.285282 61.430214 -0.99180335
56.9902 61.317284 -0.83135867
56.911697 61.287243 -0.63265324
55.941223 60.915833 -0.48088726
56.963993 61.307255 -0.21040121
55.926064 60.91003 0
58.507576 61.897999 0.16424267
57.279015 61.418503 -0.99318898
56.998184 61.310638 -0.8307963
56.986858 61.306286 -0.62623495
55.930485 60.900539 -0.48175129
56.768368 61.222366 -0.21635123
55.983253 60.920807 0
58.747829 61.982666 0.15713097
57.254059 61.399559 -0.99734062
56.963509 61.287556 -0.83529937
57.038033 61.316284 -0.62195444
55.939056 60.892651 -0.48146328
56.301392 61.032322 -0.23042907
56.210377 60.997238 0
58.886028 62.028656 0.15306763
57.261879 61.393219 -0.99664915
56.98101 61.284557 -0.83361018
57.07 61.318985 -0.61938745
55.957298 60.888512 -0.48059812
55.989944 60.901142 -0.23986299
57.019794 61.299561 0
58.941734 62.043106 0.15147096
57.283745 61.392342 -0.99388045
56.951134 61.263203 -0.83755094
64 64 -0
57.446224 61.455425 -0.39180961
55.91618 60.86137 -0.24218522
55.994469 60.891769 0
58.987698 62.053921 0.15016484
57.254185 61.371483 -0.99872363
56.954445 61.254688 -0.83755094
59.305634 62.170834 -0.41996539
57.425205 61.438122 -0.39325079
55.919979 60.851604 -0.24218522
55.935188 60.857533 0
58.980377 62.044094 0.15045485
57.274452 61.374699 -0.99595761
56.932442 61.241196 -0.84036481
59.18718 62.121326 -0.43066418
57.421944 61.43227 -0.3935388
55.907372 60.841061 -0.24262021
55.912849 60.843201 0
59.000923 62.048622 0.14987428
57.291649 61.372066 -0.99388045
56.926323 61.228951 -0.84148949
59.280285 62.151096 -0.42253238
57.458771 61.437534 -0.39152047
55.93055 60.838867 -0.24203967
55.902126 60.827732 0
58.998432 62.040684 0.15001984
57.29483 61.36396 -0.99388045
56.915485 61.214828 -0.84317869
59.258636 62.136002 -0.4246718
57.466682 61.431522 -0.39123246
55.915031 60.821514 -0.24262021
55.915642 60.821754 0
59.029835 62.046051 0.14914873
56.895226 61.196945 -0.84599257
59.279995 62.137814 -0.42295992
57.445732 61.414139 -0.39267364
55.914028 60.809834 -0.24276578
55.929184 60.815811 0
59.037029 62.041954 0.14900373
57.273239 61.336685 -0.99803209
56.898617 61.188362 -0.84599257
59.334743 62.152893 -0.41825354
57.453667 61.408123 -0.39238563
55.917889 60.800064 -0.24276578
55.962063 60.817554 0
59.024895 62.030216 0.14943929
57.295113 61.335972 -0.99526346
56.883129 61.172279 -0.84824413
59.332214 62.145367 -0.41868109
57.427971 61.38876 -0.39411485
64 64 -0
56.111019 60.865501 0
59.041775 62.029964 0.14900373
57.279694 61.320438 -0.99803209
56.962078 61.193794 -0.83923799
59.329693 62.137825 -0.41910863
59.285789 62.120323 -0.28284007
59.058422 62.029663 -0.14857486
56.506413 61.012112 0
59.077953 62.037453 0.1479876
64 64 -0
59.289051 62.115021 -0.42295992
59.249641 62.099255 -0.28514639
59.128345 62.05072 -0.14654319
56.626007 61.049465 0
59.123749 62.048878 0.14668149
57.318771 61.317287 -0.99318898
64 64 -0
64 64 -0
64 64 -0
59.082489 62.025475 -0.14799431
56.475033 60.978504 0
59.159874 62.056545 0.14566538
64 64 -0
64 64 -0
64 64 -0
59.292137 62.103046 -0.14175372
56.155239 60.839085 0
59.186321 62.06041 0.14493982
57.297371 61.289867 -0.99734062
64 64 -0
64 64 -0
64 64 -0
59.13063 62.031128 -0.14668819
56.014309 60.771076 0
59.188667 62.054592 0.14493982
57.30994 61.285542 -0.99595761
64 64 -0
64 64 -0
64 64 -0
59.190804 62.048691 -0.14494652
56.061619 60.779041 0
59.215096 62.058548 0.14421426
57.299297 61.27179 -0.99803209
59.133423 62.018559 -0.58201313
59.276756 62.076916 -0.42509937
64 64 -0
59.217224 62.052677 -0.14422095
64 64 0
59.203003 62.046886 0.14464982
59.455696 62.143368 -0.54373914
59.283829 62.073151 -0.4246718
64 64 -0
59.339848 62.096039 -0.1405926
64 64 0
59.224609 62.048954 0.14406927
57.301273 61.2537 -0.99872363
64 64 -0
59.305164 62.075245 -0.42295992
64 64 -0
59.231571 62.045071 -0.14393039
64 64 0
59.246204 62.051071 0.14348871
57.337063 61.258968 -0.99388045
59.305111 62.068592 -0.5623138
59.312237 62.071522 -0.42253238
64 64 -0
59.243538 62.043262 -0.1436404
64 64 0
59.243759 62.043354 0.14363371
57.312561 61.239433 -0.99803209
59.321545 62.068741 -0.5606246
59.319309 62.067818 -0.42210484
59.127155 61.988495 -0.29379463
59.226692 62.029587 -0.14422095
64 64 0
59.226913 62.029675 0.14421426
57.309597 61.233479 -0.99872363
59.393143 62.095036 -0.55218297
59.334717 62.070877 -0.4208205
59.400829 62.098217 -0.27736333
59.439175 62.114071 -0.13783537
64 64 0
59.237701 62.030762 0.14392427
57.359283 61.244621 -0.99180335
59.357899 62.073891 -0.55668604
59.299114 62.0495 -0.42424425
59.255028 62.031208 -0.28629956
59.34066 62.066738 -0.14088316
64 64 0
59.235287 62.023018 0.14406927
57.325558 61.221172 -0.99734062
59.515041 62.13274 -0.53811139
59.363087 62.069473 -0.41868109
59.357693 62.06723 -0.28024569
59.371796 62.073101 -0.14001206
59.565094 62.15358 0
59.276062 62.033241 0.14290814
57.342815 61.218914 -0.99526346
59.498543 62.119484 -0.54036289
59.327522 62.048038 -0.42210484
59.388664 62.073582 -0.2785165
59.42688 62.089546 -0.13841538
59.384834 62.071983 0
59.297623 62.035549 0.14232759
57.369312 61.22057 -0.99180335
59.463326 62.098331 -0.54486597
59.310944 62.034458 -0.42381668
59.410076 62.076012 -0.27736333
59.486687 62.108124 -0.13667426
64 64 0
59.290405 62.025845 0.14261815
57.344917 61.200882 -0.99595761
59.59211 62.146049 -0.52966756
59.355911 62.046703 -0.41996539
59.455315 62.088512 -0.27476898
59.431511 62.078499 -0.13841538
59.571819 62.137516 0
59.2449 62.000011 0.14406927
57.362175 61.1987 -0.99388045
59.552219 62.122944 -0.534733
59.400845 62.059059 -0.41611409
59.495754 62.099113 -0.27246264
59.462551 62.085102 -0.13754481
59.478165 62.09169 0
59.194664 61.972046 0.14566538
57.356335 61.186771 -0.99526346
59.638714 62.153233 -0.52460212
59.493023 62.091541 -0.40798232
59.559975 62.119892 -0.26871511
59.560581 62.120148 -0.13464203
59.490067 62.09029 0
59.216244 61.974342 0.14508538
57.359737 61.178745 -0.99526346
59.575478 62.120148 -0.53248143
59.533134 62.102158 -0.40455857
59.552738 62.110489 -0.26929116
59.52459 62.09853 -0.13580315
59.487572 62.082802 0
59.180447 61.952312 0.14624594
57.3493 61.164818 -0.99734062
59.573063 62.112804 -0.53304595
59.488194 62.076626 -0.40883908
59.564533 62.109169 -0.26871511
59.550789 62.10331 -0.13507758
59.576088 62.114094 0
59.211601 61.958714 0.14537537
57.380402 61.168621 -0.99318898
59.701504 62.161419 -0.51784754
59.594379 62.115597 -0.39942297
59.590614 62.113987 -0.26727283
59.500519 62.075451 -0.13667426
59.578369 62.108749 0
59.271408 61.977455 0.14363371
57.383827 61.160625 -0.99318898
59.633675 62.126163 -0.52629131
59.544758 62.088001 -0.40413103
59.597649 62.110699 -0.26698482
59.617466 62.119205 -0.13319091
59.537598 62.08493 0
59.331161 61.996338 0.14189203
57.38266 61.15065 -0.99388045
59.640606 62.122894 -0.525729
59.514057 62.068405 -0.4071272
59.604679 62.107426 -0.26669678
