# .PCD v0.7 - Point Cloud Data file format
VERSION 0.7
FIELDS x y z
SIZE 4 4 4
TYPE F F F
COUNT 1 1 1
WIDTH 1583
HEIGHT 1
VIEWPOINT 0 0 0 1 0 0 0
POINTS 1583
DATA ascii
67.255188 67.755859 -0.81941205
67.762451 68.341133 -0.79247135
68.429855 69.111191 -0.74918288
69.478531 70.321159 -0.69727337
70.759186 71.798782 -0.57515359
72.708611 74.048042 -0.37135237
76.063736 77.919205 0
85.651978 88.982162 0.9232828
67.202164 67.703705 -0.80718988
67.70797 68.288742 -0.78208828
68.436958 69.131905 -0.75143224
69.474243 70.331657 -0.69770098
70.749756 71.806946 -0.57515359
72.69986 74.062485 -0.37149739
76.07074 77.961334 0
85.614967 89.000443 0.92299223
67.175087 67.681366 -0.80148435
67.758492 68.357803 -0.79385436
68.44072 69.148811 -0.75312144
69.473305 70.346046 -0.69855773
70.736938 71.81118 -0.57486558
72.643578 74.021835 -0.3696107
76.070854 77.995613 0
85.581352 89.022606 0.92284727
67.20932 67.730164 -0.81126392
67.759773 68.369957 -0.79524004
68.451057 69.173431 -0.75593531
69.462273 70.348755 -0.69812852
70.754486 71.850685 -0.57717192
72.631462 74.032272 -0.3696107
76.074303 78.033859 0
85.517212 89.009277 0.92139614
67.227348 67.760307 -0.81696945
67.734894 68.351662 -0.7910884
68.415024 69.144104 -0.75086993
69.451256 70.351456 -0.69770098
70.738251 71.850983 -0.57659477
72.646408 74.074242 -0.37077183
76.064117 78.056343 0
85.470062 89.015549 0.92067057
67.200294 67.737915 -0.81126392
67.788361 68.424767 -0.80354595
68.415421 69.157158 -0.75199676
69.45694 70.373642 -0.69941282
70.732124 71.863045 -0.57688284
72.668037 74.124168 -0.3722235
76.067429 78.094627 0
85.419533 89.017776 0.91979945
67.179733 67.722984 -0.80718988
67.708061 68.341583 -0.78762555
68.412483 69.166351 -0.75255913
69.459236 70.391945 -0.70069712
70.736053 71.886909 -0.57803601
72.645668 74.122772 -0.37178794
76.036873 78.093361 0
85.365662 89.015976 0.91878337
67.188049 67.741875 -0.81044978
67.699562 68.342247 -0.78693408
68.406235 69.171677 -0.75255913
69.454834 70.402443 -0.70112467
70.733238 71.902924 -0.5786131
72.63343 74.133217 -0.37178794
76.050209 78.143555 0
85.321938 89.025948 0.91820276
67.217819 67.781441 -0.81859785
67.68718 68.333015 -0.78485692
68.403107 69.174339 -0.75255913
69.444321 70.397926 -0.70026958
70.71505 71.891235 -0.57745993
72.637413 74.150307 -0.3722235
76.055153 78.166687 0
85.289978 89.019043 0.91747725
67.213249 67.785324 -0.81859785
67.681946 68.337463 -0.78485692
68.423164 69.210648 -0.7570622
69.453194 70.424065 -0.70240903
70.708855 71.903282 -0.57774794
72.625137 74.160736 -0.3722235
76.051498 78.197113 0
85.232826 89.013046 0.91631609
67.135208 67.702454 -0.79985601
67.673462 68.338089 -0.78416544
68.410294 69.208229 -0.75593531
69.432159 70.414978 -0.70069712
70.709335 71.923225 -0.5786131
72.626282 74.186996 -0.37280351
76.057884 78.239471 0
85.1623 88.991112 0.91457498
67.184959 67.770432 -0.81370962
67.752396 68.442169 -0.80216032
68.394165 69.20192 -0.75424832
69.411148 70.405846 -0.69898528
70.699753 71.931328 -0.5786131
72.624023 74.209328 -0.37323904
76.054108 78.269943 0
85.111954 88.992836 0.91370386
67.180405 67.774277 -0.81370962
67.730858 68.427521 -0.79870015
68.394417 69.214989 -0.755373
69.41333 70.424164 -0.70026958
70.693497 71.943367 -0.57890111
72.59494 74.199875 -0.3725135
76.046906 78.296425 0
85.058311 88.990517 0.91268831
67.201286 67.808388 -0.82022935
67.69323 68.393623 -0.79177988
68.38485 69.216408 -0.75481063
69.408867 70.434624 -0.70069712
70.683891 71.951454 -0.57890111
72.612709 74.246048 -0.37381962
76.043022 78.326904 0
85.028099 89.015945 0.91268831
67.158569 67.7668 -0.81044978
67.681465 68.390388 -0.79039425
68.37854 69.221703 -0.75481063
69.420876 70.464752 -0.70326412
70.667641 71.951599 -0.57832509
72.590302 74.244499 -0.37338406
76.045776 78.365387 0
85.0112 89.057251 0.91326833
67.157181 67.774399 -0.81126392
67.698692 68.421776 -0.79524004
68.372231 69.22699 -0.75481063
69.403183 70.459496 -0.70198143
70.648064 71.947746 -0.57745993
72.581261 74.258873 -0.37352961
76.03508 78.387909 0
84.990913 89.094582 0.91370386
67.206451 67.842735 -0.82511759
67.747993 68.49173 -0.80700612
68.35939 69.224457 -0.75368381
69.388794 70.45813 -0.70112467
70.635147 71.951805 -0.57717192
72.578835 74.281189 -0.37396461
76.021034 78.406448 0
84.983887 89.147858 0.91472
67.119591 67.747833 -0.80393004
67.723312 68.473129 -0.80285448
68.366081 69.245346 -0.75593531
69.390839 70.476479 -0.70240903
70.635452 71.971733 -0.57803601
72.56974 74.295555 -0.37411016
76.02359 78.444954 0
84.963463 89.185181 0.91515553
67.096107 67.728767 -0.79903865
67.708282 68.466042 -0.80077732
68.350014 69.238899 -0.75424832
69.386292 70.486931 -0.70283657
70.615913 71.967819 -0.57717192
72.580521 74.333878 -0.37512574
76.049347 78.511528 0
84.949615 89.230484 0.9158811
67.183044 67.842903 -0.82267189
67.670868 68.43187 -0.79385436
68.353394 69.255882 -0.75593531
69.394821 70.513199 -0.70497596
70.59967 71.967827 -0.57659477
72.558098 74.332245 -0.37469074
76.04509 78.542114 0
84.938995 89.279785 0.91675168
67.12487 67.781967 -0.80881828
67.65274 68.420845 -0.7910884
68.350288 69.265068 -0.75649983
69.373863 70.503883 -0.70326412
70.583458 71.967827 -0.57601875
72.542282 74.338562 -0.37454516
76.040771 78.572708 0
84.93161 89.333115 0.91776776
67.180038 67.858223 -0.82430339
67.618668 68.390396 -0.78485692
68.376236 69.309525 -0.76212764
69.372536 70.518303 -0.70412087
70.583687 71.98774 -0.57688284
72.519882 74.336853 -0.37411016
76.029762 78.595268 0
84.914207 89.374428 0.91834837
67.159683 67.842972 -0.82022935
67.626106 68.410263 -0.78762555
68.350456 69.291267 -0.75875139
69.374435 70.536674 -0.70540357
70.567467 71.987709 -0.57630676
72.520584 74.363197 -0.37469074
76.018738 78.617844 0
84.890121 89.4077 0.91863835
67.189507 67.888824 -0.82919163
67.646233 68.445679 -0.79316288
68.340828 69.29258 -0.75818688
69.35025 70.523323 -0.70326412
70.547966 71.983635 -0.57544166
72.494873 74.357414 -0.37411016
76.034073 78.672592 0
84.866005 89.440971 0.91892892
67.078384 67.762604 -0.80148435
67.669449 68.485031 -0.79939169
68.337662 69.301765 -0.75875139
69.37162 70.565536 -0.70711541
70.541588 71.995544 -0.57572967
72.515259 74.407883 -0.3755613
76.032806 78.70726 0
84.835251 89.466164 0.91892892
67.195724 67.915665 -0.83326566
67.721138 68.559441 -0.81185192
68.324814 69.299118 -0.75762451
69.334473 70.536232 -0.70326412
70.538467 72.011459 -0.57630676
72.49939 74.414146 -0.37541628
76.021614 78.729858 0
84.814316 89.503387 0.91936392
67.128586 67.842865 -0.81696945
67.649101 68.482224 -0.79731715
68.324837 69.312225 -0.75875139
69.346024 70.566566 -0.70583272
70.52552 72.01535 -0.57601875
72.490082 74.428429 -0.3755613
75.997231 78.736298 0
84.770355 89.512398 0.91878337
67.133278 67.858147 -0.81941205
67.653168 68.498306 -0.79939169
68.324814 69.325333 -0.75987607
69.334839 70.569023 -0.70540357
70.525604 72.035263 -0.57688284
72.470917 74.430603 -0.37527072
76.02536 78.807358 0
84.732971 89.529419 0.91849333
67.137955 67.873459 -0.82185769
67.660362 68.518311 -0.80216032
68.302383 69.310814 -0.7570622
69.317215 70.563507 -0.70412087
70.496361 72.019035 -0.57515359
72.455032 74.436798 -0.37512574
76.010735 78.825912 0
84.689026 89.5383 0.91791278
67.064926 67.792664 -0.80393004
67.68013 68.553947 -0.80769759
68.311935 69.33577 -0.75987607
69.325409 70.58989 -0.70626032
70.50943 72.055046 -0.57717192
72.47509 74.487434 -0.37657741
76.012436 78.8647 0
84.612427 89.506699 0.9158811
67.122383 67.873337 -0.82022935
67.646286 68.523239 -0.80146879
68.305481 69.340973 -0.75987607
69.314224 70.592331 -0.70583272
70.496437 72.058868 -0.57688284
72.449364 74.481483 -0.37599686
75.991203 78.875153 0
84.389168 89.292885 0.90731829
67.114594 67.873245 -0.81941205
67.643959 68.531548 -0.80216032
68.318123 69.369926 -0.76325232
69.306259 70.598747 -0.70583272
70.47049 72.046555 -0.57544166
72.449722 74.507889 -0.37657741
76.01236 78.938309 0
84.137146 89.042122 0.89744937
67.048065 67.799904 -0.80311584
67.581978 68.4655 -0.78970271
68.302101 69.363258 -0.76156527
69.314339 70.625175 -0.70797217
70.467239 72.062447 -0.57601875
72.45652 74.542404 -0.37744796
76.000809 78.960922 0
84.035332 88.977242 0.89425606
67.114494 67.892342 -0.82185769
67.66748 68.583435 -0.80977476
68.295624 69.368454 -0.76156527
69.287079 70.607529 -0.70540357
70.470421 72.086411 -0.57717192
72.443779 74.552612 -0.37744796
75.989227 78.983551 0
83.985664 88.977097 0.89338547
67.195457 67.998474 -0.84385943
67.608337 68.515106 -0.79731715
68.292374 69.371048 -0.76156527
69.289505 70.618752 -0.70626032
70.468758 72.09436 -0.57745993
72.437401 74.557716 -0.37744796
76.00293 79.019257 0
83.977066 88.997292 0.89367604
67.115028 67.917206 -0.82511759
67.603653 68.531662 -0.79870015
68.285706 69.389351 -0.76268995
69.276688 70.635529 -0.70668787
70.442734 72.10186 -0.57688284
72.42157 74.590279 -0.37788352
76.011948 79.105247 0
83.987747 89.134972 0.89686882
67.147156 67.967445 -0.83489716
67.651184 68.602837 -0.81046623
68.294975 69.414429 -0.76550382
69.265472 70.637878 -0.70626032
70.442589 72.121803 -0.57774794
72.402298 74.5923 -0.37759295
76.019562 79.152374 0
83.986435 89.195747 0.89817494
67.05648 67.862701 -0.81207812
67.589584 68.536423 -0.79800868
68.291595 69.423615 -0.76606834
69.286118 70.680473 -0.71011162
70.43277 72.129578 -0.57774794
72.405617 74.622818 -0.37831852
75.998016 79.162804 0
83.994667 89.268784 0.89991659
67.07325 67.893555 -0.81778365
67.633835 68.603775 -0.80908328
68.281876 69.424797 -0.76550382
69.258965 70.662682 -0.70754462
70.43576 72.153587 -0.57890111
72.402435 74.645203 -0.37875408
76.011932 79.21814 0
83.989883 89.325562 0.90107775
67.074654 67.905029 -0.81941205
67.618958 68.596329 -0.80700612
68.284752 69.441948 -0.76719302
69.266785 70.689194 -0.70968401
70.432312 72.169495 -0.57947826
72.399216 74.667603 -0.37918964
76.012848 79.257172 0
83.962479 89.353775 0.90122271
67.076042 67.916519 -0.82104349
67.635094 68.628326 -0.81185192
68.265625 69.431129 -0.76494151
69.258698 70.695557 -0.70968401
70.425629 72.181328 -0.57976627
72.386322 74.677742 -0.37918964
75.991188 79.267586 0
83.957504 89.410568 0.90238386
67.02253 67.857979 -0.80800408
67.607834 68.605064 -0.80700612
68.262184 69.440277 -0.76550382
69.253769 70.70594 -0.71011162
70.406166 72.176865 -0.57890111
72.379814 74.696045 -0.37947965
76.014458 79.335327 0
83.94281 89.455116 0.90310937
67.054398 67.908363 -0.81778365
67.546661 68.538269 -0.79454851
68.258751 69.44944 -0.76606834
69.245667 70.712288 -0.71011162
70.409019 72.200905 -0.58005428
72.376488 74.718452 -0.37991518
75.995926 79.349831 0
83.937637 89.511955 0.90427053
67.034477 67.892563 -0.81370962
67.590523 68.60585 -0.80562043
68.252159 69.454582 -0.76606834
69.2407 70.722664 -0.71053916
70.399109 72.208641 -0.58005428
72.373123 74.74086 -0.38035074
75.983772 79.372536 0
83.951523 89.593399 0.90630221
67.075279 67.95475 -0.82593173
67.566483 68.586426 -0.80146879
68.261162 69.479774 -0.76888222
69.238884 70.737106 -0.71139592
70.395531 72.224525 -0.58063036
72.372894 74.76738 -0.38093132
75.993942 79.423981 0
83.997147 89.71595 0.90978551
67.085648 67.977989 -0.83000576
67.564011 68.594696 -0.80216032
68.238968 69.464844 -0.76606834
69.221298 70.731255 -0.71011162
70.388763 72.236343 -0.58091944
72.356689 74.773376 -0.38078576
75.994431 79.463127 0
84.039314 89.834526 0.91312331
67.120155 68.032532 -0.84059954
67.583015 68.630745 -0.80769759
68.251015 69.494064 -0.76944458
69.216301 70.741615 -0.71053916
70.375633 72.23996 -0.58063036
72.362747 74.808136 -0.38165686
75.966194 79.465271 0
84.100304 89.977913 0.91733223
67.082069 67.993271 -0.83163726
67.543709 68.591385 -0.80008584
68.231949 69.483109 -0.76719302
69.208153 70.747917 -0.71053916
70.368843 72.251762 -0.58091944
72.352859 74.822342 -0.38180187
75.97612 79.5168 0
84.122879 90.072113 0.91979945
67.022964 67.926491 -0.81696945
67.593246 68.667221 -0.81254339
68.231529 69.496277 -0.7683199
69.190605 70.742012 -0.70925647
70.384109 72.292244 -0.58322579
72.355621 74.853012 -0.38252741
75.970062 79.54776 0
84.100876 90.108765 0.92023504
67.075417 68.004623 -0.83245146
67.593712 68.679512 -0.8139264
68.231071 69.509445 -0.76944458
69.210594 70.78492 -0.71310776
70.364632 72.287636 -0.58236063
72.33934 74.858978 -0.38238242
75.98613 79.607605 0
84.085136 90.153641 0.92096055
67.04052 67.969101 -0.82430339
67.600258 68.699783 -0.81669503
68.239861 69.534714 -0.77225846
69.196144 70.783051 -0.71225101
70.373482 72.319954 -0.58408988
72.345184 74.893814 -0.38325354
75.960938 79.613823 0
84.063004 90.190277 0.92139614
67.080734 68.031677 -0.8365255
67.545837 68.640343 -0.80562043
68.223923 69.527733 -0.77057141
69.225349 70.83828 -0.7173866
70.366577 72.331772 -0.58437896
72.332016 74.903885 -0.38325354
75.964172 79.657204 0
84.037651 90.222748 0.92168611
67.045898 67.996094 -0.82837743
67.528069 68.628677 -0.80285448
68.214149 69.528778 -0.7700069
69.201523 70.824173 -0.71524721
70.36277 72.347679 -0.58495498
72.30938 74.901543 -0.38281798
75.979958 79.717186 0
84.005951 90.246941 0.92168611
67.050049 68.011574 -0.83082312
67.549805 68.668877 -0.80908328
68.216698 69.546005 -0.77169609
69.174622 70.805923 -0.71267855
70.340157 72.33889 -0.58380181
72.315063 74.936386 -0.38368854
75.957809 79.727509 0
83.999382 90.304184 0.92284727
67.039223 68.00737 -0.82919163
67.532028 68.657173 -0.80631459
68.203857 69.543007 -0.77057141
69.172607 70.820366 -0.71353531
70.333199 72.350662 -0.58408988
72.283005 74.921593 -0.38281798
75.970245 79.783409 0
83.955025 90.311768 0.92226666
67.001579 67.96769 -0.82022935
67.5718 68.721451 -0.81669503
68.212479 69.568344 -0.77338529
69.179848 70.847076 -0.71567476
70.335587 72.374809 -0.58524305
72.29174 74.960594 -0.38383353
75.960587 79.810318 0
83.93576 90.35244 0.92284727
67.023575 68.006821 -0.82756323
67.520767 68.665695 -0.80631459
68.202682 69.569359 -0.77282083
69.17466 70.857422 -0.7161023
70.32859 72.386597 -0.58553213
72.278496 74.970604 -0.38383353
75.96656 79.858002 0
83.900772 90.372368 0.92270225
67.01873 68.010475 -0.82756323
67.545296 68.710022 -0.81323487
68.18679 69.562271 -0.77113378
69.135498 70.822662 -0.71182346
70.340218 72.423157 -0.58754933
72.268364 74.984764 -0.38397911
75.966164 79.897392 0
83.884521 90.417152 0.92342782
66.972328 67.958771 -0.81615216
67.506462 68.670166 -0.80562043
68.177017 69.563263 -0.77057141
69.151917 70.86171 -0.71524721
70.33625 72.439095 -0.58812648
72.251961 74.990578 -0.38383353
75.978195 79.953453 0
83.868179 90.461929 0.92415339
66.994209 67.997963 -0.82348609
67.50383 68.678429 -0.80631459
68.182465 69.584557 -0.77282083
69.134384 70.855591 -0.71396291
70.319839 72.438454 -0.58754933
72.251129 75.017181 -0.38441411
75.974518 79.988754 0
81.266205 87.05439 0.80441958
66.977554 67.985748 -0.82022935
67.513184 68.702751 -0.80977476
68.157471 69.565193 -0.76944458
69.147606 70.890587 -0.71695906
70.309639 72.446091 -0.58754933
72.240936 75.031311 -0.38455966
75.983223 80.040741 0
81.275658 87.125198 0.80616122
67.005219 68.032936 -0.82919163
67.492516 68.686882 -0.80631459
68.168953 69.59465 -0.77282083
69.130074 70.884453 -0.71567476
70.302521 72.457848 -0.5878374
72.252441 75.0746 -0.38572076
75.985596 80.084412 0
81.278748 87.187721 0.80761236
67.032288 68.074402 -0.8373397
67.510643 68.717155 -0.81115776
68.180756 69.617561 -0.77563685
69.13205 70.89579 -0.71653152
70.288155 72.449219 -0.58697331
72.23954 75.071236 -0.38543022
76.00695 80.133415 0
81.25544 87.185661 0.80717736
66.974327 68.006622 -0.82267189
67.504936 68.72139 -0.81115776
68.1679 69.614441 -0.77451003
69.132889 70.914345 -0.71781421
70.290276 72.473419 -0.58812648
72.244736 75.106216 -0.38630077
76.00296 80.1688 0
81.171646 87.131378 0.8045646
66.998909 68.04995 -0.83082312
67.499229 68.725624 -0.81115776
68.17321 69.635811 -0.77676153
69.097031 70.883408 -0.71396291
70.27079 72.468544 -0.58726132
72.25296 75.145409 -0.38731688
76.017487 80.229309 0
81.072563 87.056053 0.80122679
66.97052 68.021759 -0.82430339
67.472664 68.701607 -0.80631459
68.160362 69.632683 -0.77563685
69.113113 70.9226 -0.7173866
70.269775 72.488602 -0.58812648
72.217873 75.126106 -0.38630077
76.016418 80.268936 0
80.98912 87.001434 0.79861456
66.974442 68.037277 -0.82674593
67.526489 68.786575 -0.8201552
68.138474 69.617233 -0.77282083
69.123009 70.953568 -0.7199536
70.241096 72.471176 -0.58639622
72.216751 75.152763 -0.38688132
76.018364 80.312775 0
80.939735 86.992653 0.79759842
66.972496 68.044861 -0.82756323
67.496941 68.758507 -0.81462055
68.158775 69.659096 -0.77788836
69.105492 70.947357 -0.71867096
70.261497 72.520401 -0.58927965
72.224815 75.192001 -0.38789743
76.020218 80.356636 0
80.875015 86.962852 0.79585677
66.97345 68.056412 -0.82919163
67.497116 68.770813 -0.81600356
68.142921 69.651817 -0.77619916
69.106194 70.965927 -0.7199536
70.235901 72.507088 -0.5878374
72.214355 75.206123 -0.38804245
76.021988 80.400536 0
80.828827 86.958084 0.79498619
67.044395 68.163742 -0.85037917
67.491348 68.775032 -0.81600356
68.130081 69.648613 -0.77507234
69.094742 70.967957 -0.71952605
70.231728 72.522972 -0.58841449
72.210014 75.22863 -0.38847801
76.051315 80.482277 0
80.767326 86.932251 0.79338956
66.960724 68.059601 -0.82837743
67.473755 68.763031 -0.81323487
68.120262 69.64949 -0.77451003
69.092377 70.982407 -0.72038281
70.22142 72.530502 -0.58841449
72.22094 75.272133 -0.38963911
76.019119 80.480003 0
80.69368 86.889526 0.79121286
66.915115 68.007217 -0.81696945
67.479805 68.783455 -0.81600356
68.119415 69.662697 -0.77563685
69.099037 71.009308 -0.72252226
70.223282 72.554741 -0.58956766
72.210365 75.286255 -0.38978413
76.026756 80.532394 0
80.601814 86.821426 0.78816509
67.032196 68.178764 -0.85119647
67.488754 68.807961 -0.81946367
68.127495 69.688232 -0.77845073
69.075485 70.99469 -0.72038281
70.209908 72.558075 -0.58927965
72.184517 75.279343 -0.38920355
76.074013 80.639587 0
80.534538 86.786781 0.78627783
66.937294 68.058289 -0.82593173
67.477058 68.804047 -0.81808066
68.108696 69.676743 -0.77619916
69.076057 71.01329 -0.7216655
70.19046 72.552994 -0.58841449
72.183067 75.306061 -0.38978413
76.063057 80.666817 0
80.485672 86.777283 0.78526229
66.978683 68.125961 -0.8389712
67.438942 68.763496 -0.81046623
68.113731 69.698189 -0.77845073
69.091621 71.052719 -0.72508919
70.186172 72.568848 -0.58899057
72.178528 75.328583 -0.39021969
76.097748 80.757339 0
80.479424 86.826668 0.78627783
66.950584 68.097466 -0.83245146
67.456642 68.800217 -0.81600356
68.097931 69.690781 -0.77676153
69.077103 71.050537 -0.7242341
70.184883 72.588913 -0.58985567
72.170898 75.346886 -0.39050967
76.065323 80.755043 0
80.457909 86.855011 0.7865684
66.916801 68.060883 -0.82430339
67.439133 68.788094 -0.81323487
68.108849 69.720497 -0.78013992
69.071571 71.060837 -0.72466165
70.156403 72.571182 -0.58812648
72.157188 75.35675 -0.39050967
76.060249 80.790741 0
80.378746 86.803131 0.78410119
66.940674 68.104584 -0.83245146
67.453804 68.820801 -0.81808066
68.093048 69.713058 -0.77845073
69.060043 71.06279 -0.7242341
70.173149 72.616455 -0.59072083
72.146492 75.370834 -0.39065522
76.11573 80.911079 0
80.26947 86.708847 0.78018284
66.941467 68.116188 -0.83408296
67.433388 68.804565 -0.81462055
68.089096 69.722137 -0.7790131
69.042549 71.056358 -0.7229498
70.168747 72.632317 -0.59129691
72.1418 75.393341 -0.39109024
76.11042 80.946877 0
80.166481 86.622787 0.77655447
66.976654 68.176086 -0.84549093
67.43631 68.820953 -0.81669503
68.082184 69.727074 -0.7790131
69.031044 71.058273 -0.72252226
70.161308 72.643974 -0.59158492
72.146133 75.428574 -0.39196134
76.120148 81.003891 0
80.108963 86.599976 0.77510279
66.88282 68.054794 -0.82022935
67.436302 68.83329 -0.81808066
68.084091 69.744431 -0.78070229
69.022507 71.064346 -0.72252226
70.138885 72.634567 -0.59043282
72.126289 75.429932 -0.39167079
76.12674 81.056702 0
80.063583 86.594025 0.77423221
66.895073 68.082458 -0.82511759
67.421753 68.82515 -0.81600356
68.085968 69.761803 -0.78239149
69.022881 71.082977 -0.72380656
70.122452 72.63353 -0.58985567
72.124496 75.456696 -0.39225134
76.109123 81.075577 0
79.985168 86.541351 0.77176499
66.924393 68.134384 -0.83489716
67.441994 68.86615 -0.82223231
68.070198 69.75428 -0.78070229
69.008385 71.08065 -0.7229498
70.12397 72.657814 -0.59100884
72.119659 75.479233 -0.3926869
76.115532 81.128441 0
79.978928 86.590355 0.77278113
66.896599 68.105606 -0.82837743
67.401398 68.821106 -0.8139264
68.063248 69.759193 -0.78070229
68.996872 71.082504 -0.72252226
70.122452 72.677887 -0.591874
72.114769 75.501785 -0.39312246
76.121826 81.181343 0
79.93364 86.58416 0.77191001
66.942833 68.181854 -0.84304523
67.421555 68.862137 -0.8201552
68.0709 69.784874 -0.78351617
69.00013 71.105331 -0.7242341
70.108978 72.681038 -0.59158492
72.100868 75.511581 -0.39312246
76.113045 81.212997 0
64 64 0
66.920746 68.16114 -0.838157
67.418571 68.870384 -0.82084936
68.055145 69.777306 -0.78182697
68.991539 71.111366 -0.7242341
70.119286 72.718056 -0.59360319
72.095901 75.534103 -0.39355746
76.149055 81.308578 0
64 64 0
66.935249 68.187187 -0.84304523
67.430023 68.89299 -0.82430947
68.03125 69.750641 -0.77788836
68.963661 71.08075 -0.72081035
70.131844 72.747177 -0.59533352
72.100861 75.556015 -0.39413804
76.162498 81.350006 0
64 64 0
66.921692 68.178574 -0.84059954
67.38961 68.847786 -0.81600356
68.047592 69.788826 -0.78239149
68.9757 71.116203 -0.72380656
70.115334 72.746094 -0.59475636
72.080948 75.557289 -0.39384803
76.189247 81.432945 0
64 64 0
66.927948 68.198318 -0.84385943
67.41819 68.901268 -0.82430947
68.037682 69.789536 -0.78182697
68.972969 71.130623 -0.72466165
70.107719 72.757713 -0.59504443
72.090759 75.601143 -0.39500913
76.168175 81.447662 0
64 64 0
66.857956 68.108528 -0.82511759
67.380745 68.860077 -0.81669503
68.033592 69.798592 -0.78239149
68.961418 71.132416 -0.7242341
70.091232 72.756599 -0.59446836
72.079697 75.615173 -0.39515415
76.185715 81.517891 0
64 64 0
66.929062 68.221626 -0.84711927
67.389168 68.884766 -0.8201552
68.026581 69.803459 -0.78239149
68.952797 71.138405 -0.7242341
70.083588 72.768204 -0.59475636
72.071579 75.633461 -0.39544412
76.197174 81.579636 0
79.666908 86.580521 0.76755607
66.859276 68.131683 -0.82837743
67.403252 68.917747 -0.825001
68.022453 69.812492 -0.7829538
68.950005 71.152817 -0.72508919
70.090645 72.801056 -0.59648561
72.05751 75.643204 -0.39544412
76.190727 81.615753 0
79.568634 86.496872 0.76407278
66.893585 68.192085 -0.8397854
67.408714 68.93837 -0.82776964
68.024078 69.829887 -0.78464085
68.932617 71.146133 -0.72380656
70.071198 72.795654 -0.59562153
72.055244 75.670044 -0.3960247
76.216743 81.699005 0
79.544403 86.519958 0.76421833
66.888519 68.195572 -0.8397854
67.379982 68.909424 -0.82223231
67.996872 69.805458 -0.78070229
68.95018 71.19014 -0.72765785
70.075233 72.82428 -0.59706271
72.05883 75.70546 -0.39689583
76.210106 81.735191 0
79.561378 86.602921 0.76639497
66.925423 68.260193 -0.85201061
67.36837 68.905243 -0.82084936
68.009979 69.839592 -0.78464085
68.94149 71.196121 -0.72765785
70.055779 72.818817 -0.59619761
72.038788 75.706612 -0.39660525
76.21814 81.792847 0
79.513458 86.591713 0.76537889
66.839272 68.145454 -0.82837743
67.356766 68.901016 -0.81946367
68.002922 69.844437 -0.78464085
68.932793 71.202087 -0.72765785
70.056808 72.843201 -0.59735072
72.030518 75.724899 -0.39689583
76.246628 81.8806 0
79.494965 86.623306 0.76581442
66.89003 68.230515 -0.84467673
67.353668 68.90921 -0.8201552
67.984398 69.832497 -0.78239149
68.912498 71.191078 -0.72594595
70.04612 72.850517 -0.59735072
72.025131 75.747452 -0.39733082
76.263176 81.951248 0
79.467613 86.642014 0.76581442
66.898827 68.254425 -0.84875077
67.339264 68.900833 -0.81808066
67.997375 69.866692 -0.78633004
68.924034 71.2267 -0.72894049
70.055817 72.887741 -0.59936905
72.010925 75.757141 -0.39733082
76.24733 81.974648 0
79.393425 86.591972 0.76349217
66.858025 68.216408 -0.8397854
67.35556 68.950409 -0.825001
67.96608 69.851105 -0.7829538
68.897926 71.225838 -0.72765785
70.022713 72.885223 -0.59821588
72.005821 75.810883 -0.39849192
76.244751 82.064514 0
79.268814 86.525879 0.76000941
66.891693 68.277199 -0.85119647
67.349579 68.95446 -0.825001
67.967537 69.868515 -0.78464085
68.88343 71.223236 -0.7268011
70.017761 72.901054 -0.59879196
71.994461 75.82486 -0.39863747
76.246239 82.1138 0
79.160088 86.423759 0.7559455
66.88652 68.280685 -0.85119647
67.34639 68.962662 -0.82569247
67.960442 69.873299 -0.78464085
68.894798 71.258934 -0.72979724
70.027245 72.938347 -0.60081023
71.980171 75.834518 -0.39863747
76.285446 82.219208 0
79.141701 86.454994 0.75638103
66.81514 68.18573 -0.83163726
67.354401 68.987534 -0.82915527
67.967537 69.899178 -0.78745687
68.871696 71.243546 -0.72765785
70.013557 72.941338 -0.60052222
71.974556 75.857071 -0.3990725
76.298271 82.285843 0
79.042053 86.365463 0.75275272
66.826599 68.213753 -0.8365255
67.326012 68.958244 -0.82361799
67.949081 69.887085 -0.78520536
68.874382 71.266487 -0.7293697
70.002747 72.948593 -0.60052222
71.983383 75.90123 -0.4002336
76.290672 82.322319 0
79.029488 86.405205 0.75347829
66.827011 68.225388 -0.838157
67.308853 68.94558 -0.82084936
67.941963 69.891853 -0.78520536
68.862732 71.268089 -0.72894049
69.997681 72.964432 -0.6010983
71.96611 75.906548 -0.40008861
76.306152 82.393387 0
79.045753 86.488144 0.75565553
66.882256 68.319252 -0.8560847
67.336296 68.999657 -0.82915527
67.948944 69.917747 -0.78801924
68.865349 71.291039 -0.73065239
69.998329 72.988884 -0.60225141
71.957481 75.924805 -0.40037861
76.330132 82.477501 0
79.038757 86.536552 0.75667107
66.800346 68.207504 -0.83326566
67.321915 68.99115 -0.8270781
67.924889 69.897125 -0.78464085
68.848007 71.284103 -0.7293697
69.987465 72.996124 -0.60225141
71.94883 75.943069 -0.40066916
76.359711 82.570389 0
79.020157 86.567688 0.7571066
66.849937 68.293259 -0.84956497
67.307549 68.98262 -0.825001
67.912148 69.893402 -0.78351617
68.844879 71.298508 -0.73022485
69.985176 73.016289 -0.60311657
71.954514 75.982979 -0.40168527
76.357407 82.615654 0
79.015869 86.620461 0.7582677
66.801086 68.230751 -0.8365255
67.301529 68.98661 -0.825001
67.921844 69.923538 -0.78689235
68.83889 71.308632 -0.73065239
69.974274 73.023514 -0.60311657
71.928558 75.97525 -0.40110472
76.389503 82.713036 0
78.959831 86.595245 0.75681603
66.795975 68.234131 -0.8365255
67.301033 68.998978 -0.82638663
67.906296 69.915565 -0.78520536
68.835716 71.323051 -0.73150915
69.966217 73.035034 -0.60340458
71.93985 76.023849 -0.40241084
76.364014 82.723656 0
78.918205 86.591629 0.75609052
66.861542 68.344833 -0.85771304
67.303261 69.015518 -0.82846111
67.907524 69.932999 -0.78689235
68.826866 71.328888 -0.73150915
69.941071 73.020645 -0.6019634
71.919594 76.024742 -0.40212026
76.381454 82.799423 0
78.868027 86.574913 0.75492936
66.837196 68.313538 -0.85119647
67.294724 69.00914 -0.8270781
67.903938 69.935356 -0.78689235
68.813972 71.318932 -0.73022485
69.966888 73.071777 -0.6051349
71.935173 76.064262 -0.40328139
76.418724 82.880829 0
78.825829 86.540482 0.75347829
66.813004 68.288025 -0.84549093
67.327194 69.071846 -0.83676708
67.888405 69.927338 -0.78520536
68.813576 71.337624 -0.73150915
69.94458 73.061676 -0.60398173
71.917747 76.069496 -0.4031364
76.447281 82.974152 0
78.784332 86.536659 0.75275272
66.778046 68.245918 -0.8365255
67.293594 69.033882 -0.8298468
67.895149 69.953285 -0.78801924
68.801895 71.339142 -0.7310816
69.942108 73.081825 -0.60484582
71.931602 76.122536 -0.40458751
76.481346 83.076286 0
78.740013 86.528404 0.7518816
66.810738 68.307236 -0.84793657
67.292992 69.046257 -0.83122975
67.890732 69.962242 -0.78858155
68.81266 71.375023 -0.73407614
69.942444 73.106331 -0.60599899
71.899918 76.106003 -0.40371695
76.509476 83.169807 0
78.695747 86.520096 0.75101101
66.751602 68.227768 -0.83163726
67.281425 69.041824 -0.8298468
67.880753 69.962685 -0.78801924
68.781342 71.346413 -0.73065239
69.939903 73.126511 -0.60686409
71.905128 76.146034 -0.40473306
76.562973 83.302696 0
78.654358 86.51606 0.75028545
66.805695 68.322304 -0.84956497
67.305374 69.092072 -0.83745855
67.879074 69.975883 -0.78914392
68.794823 71.386635 -0.73407614
69.914787 73.111992 -0.60542291
71.88195 76.142494 -0.4042975
76.570801 83.365875 0
78.584694 86.468361 0.74810827
66.854202 68.408676 -0.86586428
67.271957 69.053947 -0.83053827
67.880142 69.99337 -0.79083312
68.788681 71.396729 -0.73450369
69.90097 73.114799 -0.6051349
71.884216 76.178177 -0.40516806
76.558708 83.398529 0
78.537773 86.455444 0.74709266
66.816696 68.362289 -0.8560847
67.252235 69.036827 -0.8270781
67.87014 69.99379 -0.79027075
68.776955 71.398201 -0.73407614
69.926422 73.178413 -0.60888243
71.883591 76.209518 -0.40589362
76.586075 83.492386 0
78.538811 86.51664 0.7485438
66.731133 68.24102 -0.83163726
67.246147 69.040756 -0.8270781
67.857384 69.989906 -0.78914392
68.756897 71.386696 -0.73236424
69.906921 73.172516 -0.60801727
71.871651 76.223419 -0.40603918
76.607605 83.577599 0
78.531296 86.564781 0.74955994
66.771423 68.315018 -0.84549093
67.245476 69.053108 -0.82846111
67.855644 70.00312 -0.79027075
68.759064 71.409721 -0.73407614
69.890244 73.170929 -0.60744017
71.862488 76.241661 -0.40632918
76.598 83.614716 0
78.551758 86.656654 0.75202715
66.734207 68.268417 -0.83571136
67.242081 69.061264 -0.82915527
67.84565 70.003502 -0.78970844
68.744576 71.40683 -0.73322099
69.887527 73.191116 -0.60830528
71.856102 76.264282 -0.40676475
76.607979 83.68251 0
80.587395 89.894844 0.85884422
66.776947 68.346687 -0.85037917
67.249466 69.086311 -0.83261544
67.854805 70.033829 -0.79308468
68.771553 71.468796 -0.73878419
69.876419 73.198219 -0.60830528
71.835678 76.264999 -0.40647417
76.623413 83.759132 0
82.433365 92.853317 0.95622736
66.782318 68.366714 -0.85363901
67.248703 69.098694 -0.83399844
67.842056 70.029922 -0.79195994
68.748734 71.452911 -0.73664474
69.876419 73.222763 -0.60945845
71.837608 76.300766 -0.40734529
76.652679 83.85778 0
82.37616 92.840523 0.9550668
66.771744 68.36174 -0.85201061
67.221016 69.068733 -0.82846111
67.84021 70.043129 -0.79308468
68.723198 71.432632 -0.73407614
69.88192 73.256065 -0.61118877
71.8311 76.323372 -0.40778029
76.659386 83.921387 0
82.332932 92.849541 0.95463127
66.769112 68.369255 -0.85282481
67.222946 69.085342 -0.83053827
67.835625 70.052055 -0.79364699
68.733452 71.468697 -0.73707229
69.859657 73.245682 -0.6100356
71.818993 76.337227 -0.40792584
76.710526 84.055359 0
82.281364 92.845329 0.95376015
66.763832 68.372597 -0.85282481
67.224846 69.101959 -0.83261544
67.801163 70.013733 -0.78801924
68.710709 71.452713 -0.7349329
69.845711 73.248375 -0.60974652
71.812401 76.359833 -0.40836087
76.736336 84.149887 0
82.218735 92.823479 0.95230901
66.684738 68.25885 -0.83000576
67.202621 69.080376 -0.82846111
67.818283 70.057007 -0.79308468
68.707176 71.467079 -0.73578799
69.845566 73.272934 -0.61089969
71.786377 76.351677 -0.40778029
76.764717 84.248924 0
82.172813 92.827881 0.95172846
66.779564 68.421104 -0.86097288
67.209831 69.105476 -0.83192128
67.81366 70.065918 -0.79364699
68.717278 71.503189 -0.73878419
69.834358 73.279991 -0.61089969
71.79081 76.391876 -0.4087964
76.817802 84.387695 0
79.944603 89.361107 0.83663917
66.729576 68.353271 -0.84711927
67.222321 69.139114 -0.83676708
67.790138 70.044701 -0.79027075
68.691841 71.48278 -0.73621553
69.828644 73.295807 -0.61147678
71.786873 76.418892 -0.40937698
76.840164 84.478134 0
79.889091 89.340714 0.83533245
66.703346 68.323036 -0.84059954
67.213448 69.138756 -0.83607554
67.809769 70.092354 -0.79589856
68.690964 71.501511 -0.73749983
69.817406 73.302841 -0.61147678
71.785637 76.450325 -0.41010252
76.870605 84.581894 0
79.88327 89.399567 0.83663917
66.721672 68.364059 -0.84793657
67.188652 69.112823 -0.83122975
67.783585 70.06678 -0.79195994
68.690048 71.520241 -0.73878419
69.833527 73.353752 -0.61435914
71.770584 76.459717 -0.41010252
76.920082 84.716667 0
79.882805 89.467232 0.83823526
66.76339 68.442894 -0.86260438
67.185112 69.120934 -0.83192128
67.784294 70.084282 -0.79364699
68.686378 71.534615 -0.73963928
69.803108 73.330055 -0.61234194
71.763763 76.482346 -0.41053808
76.936279 84.798569 0
79.86026 89.499649 0.83867079
66.705902 68.362213 -0.84630507
67.215958 69.184479 -0.84161288
67.779617 70.093163 -0.79420936
68.655617 71.505371 -0.73621553
69.800003 73.350235 -0.61320597
71.770592 76.527046 -0.41169921
76.968758 84.907059 0
79.840393 89.536453 0.8392514
66.708435 68.378098 -0.84875077
67.175377 69.132896 -0.83261544
67.79097 70.127983 -0.79815006
68.665459 71.541557 -0.73921174
69.794144 73.366043 -0.61378312
71.758179 76.54084 -0.41184419
76.998253 85.011246 0
79.809525 89.55558 0.8392514
66.679787 68.343506 -0.8414169
67.182343 69.158073 -0.83607554
67.767563 70.106613 -0.79477388
68.645554 71.529709 -0.73749983
69.785538 73.377441 -0.61407113
71.734833 76.536934 -0.41140863
77.041176 85.137672 0
79.721336 89.481789 0.83620358
66.718567 68.418312 -0.8552705
67.176109 69.161919 -0.83607554
67.778809 70.141449 -0.79871243
68.655289 71.565933 -0.74049604
69.782341 73.397644 -0.61493629
71.725128 76.55513 -0.41169921
77.03199 85.180008 0
80.891487 91.452591 0.90020663
66.749542 68.474701 -0.86586428
67.162483 69.146736 -0.83330691
67.75914 70.11776 -0.79533619
68.639969 71.551247 -0.73878419
69.768532 73.387909 -0.61407113
71.728424 76.577507 -0.41227975
77.03553 85.214478 0
80.820488 91.374237 0.89730382
66.676987 68.368439 -0.84467673
67.153641 69.146278 -0.83261544
67.75972 70.1353 -0.79702538
68.638893 71.569984 -0.7400685
69.773399 73.421326 -0.61580038
71.724083 76.604561 -0.4128603
78.236374 87.231644 0
80.738525 91.314789 0.89469159
66.707787 68.430717 -0.8560847
67.178818 69.201462 -0.84092134
67.762901 70.157181 -0.79927695
68.648476 71.606232 -0.74306303
69.76741 73.437134 -0.61637747
71.714264 76.622742 -0.41315031
78.181152 87.20443 0
80.664871 91.268494 0.89251488
66.723015 68.467751 -0.86260438
67.17514 69.209579 -0.84161288
67.75016 70.153038 -0.79815006
68.620583 71.581169 -0.7400685
69.756004 73.444092 -0.61637747
71.707123 76.64537 -0.41358587
78.117889 87.163773 0
80.045021 90.325684 0.86102092
66.694504 68.433029 -0.8552705
67.145393 69.174828 -0.83538407
67.734802 70.144531 -0.79646087
68.624748 71.608681 -0.74220788
69.744583 73.451042 -0.61637747
71.713432 76.690201 -0.414747
78.097992 87.194145 0
79.891739 90.145233 0.85449034
66.671211 68.406685 -0.84956497
67.136528 69.174316 -0.83468992
67.727379 70.14904 -0.79646087
68.607567 71.601089 -0.74092358
69.73584 73.462395 -0.61666548
71.69809 76.699516 -0.414747
78.09964 87.260132 0
79.88707 90.208847 0.85594141
66.683784 68.439522 -0.8552705
67.145851 69.20388 -0.83884424
67.740974 70.188332 -0.80096394
68.616974 71.637413 -0.74391979
69.727081 73.47374 -0.61695355
71.685425 76.713249 -0.41489199
78.095757 87.31723 0
79.95755 90.397018 0.86145645
66.650345 68.396194 -0.84630507
67.124016 69.181885 -0.83468992
67.743996 70.210258 -0.8032155
68.589188 71.612198 -0.74092358
69.718307 73.4851 -0.61724263
71.686157 76.749222 -0.41576254
78.126694 87.432304 0
80.067856 90.652161 0.86914873
66.688324 68.471405 -0.86015874
67.130684 69.207169 -0.83815271
67.733871 70.210426 -0.80265313
68.585281 71.626549 -0.74178034
69.712166 73.500862 -0.61781865
71.670746 76.758499 -0.41576254
78.130554 87.502884 0
80.129349 90.827431 0.87422818
66.66259 68.440735 -0.85363901
67.134712 69.228157 -0.84092134
67.721138 70.206223 -0.80152845
68.605095 71.680504 -0.74648678
69.705994 73.516617 -0.61839473
71.666016 76.785591 -0.41634312
78.131584 87.569054 0
80.150375 90.936043 0.87713099
66.6623 68.452446 -0.8552705
67.112938 69.2061 -0.83676708
67.716248 70.215073 -0.80209082
68.577362 71.655212 -0.74349058
69.689186 73.514633 -0.61781865
71.645226 76.785927 -0.41605312
78.156509 87.675446 0
80.120476 90.959991 0.87727594
66.692352 68.515091 -0.86667848
67.101509 69.201248 -0.83538407
67.695724 70.197739 -0.79927695
68.568115 71.660744 -0.74349058
69.696236 73.552612 -0.61983699
71.648407 76.826408 -0.41706923
78.178543 87.777473 0
80.098541 90.997307 0.87785649
66.659103 68.471596 -0.85771304
67.100349 69.213608 -0.83676708
67.696014 70.215294 -0.80096394
68.5746 71.692741 -0.74605918
69.676758 73.546143 -0.61897182
71.648834 76.862434 -0.41793978
78.192368 87.866165 0
80.081833 91.043533 0.87872708
66.678917 68.517334 -0.86586428
67.078697 69.19146 -0.83261544
67.698868 70.237236 -0.8032155
68.565308 71.698265 -0.74605918
69.678406 73.575241 -0.62041301
71.630638 76.867203 -0.41779479
78.198036 87.941498 0
80.062401 91.085289 0.87945265
66.648285 68.478012 -0.85771304
67.080078 69.208122 -0.83468992
67.683578 70.228592 -0.80152845
68.540314 71.677246 -0.74349058
69.672104 73.591003 -0.62099016
71.628311 76.898773 -0.41852033
78.203537 88.016876 0
79.942375 90.957085 0.87466371
66.620277 68.442894 -0.85037917
67.12986 69.306931 -0.84991878
67.678627 70.237411 -0.80209082
68.541466 71.700417 -0.74520242
69.676277 73.62458 -0.62271935
71.612724 76.907982 -0.41852033
78.177147 88.038498 0
79.693314 90.609268 0.86276257
66.662521 68.527016 -0.86586428
67.108177 69.284752 -0.84576452
67.67366 70.246223 -0.80265313
68.552979 71.741302 -0.74862617
69.669884 73.640335 -0.62329543
71.610291 76.93956 -0.4192459
78.166565 88.087021 0
79.582115 90.493835 0.85840869
66.692062 68.589912 -0.87727219
67.068794 69.232239 -0.83676708
67.681534 70.276955 -0.80602938
68.53064 71.724663 -0.74648678
69.645142 73.624878 -0.62185425
71.597275 76.953224 -0.41939089
78.140083 88.108604 0
79.523804 90.467827 0.85695755
66.631607 68.499298 -0.85934454
67.067543 69.244614 -0.83815271
67.658554 70.255089 -0.80265313
68.539452 71.761154 -0.74948293
69.638741 73.640633 -0.62243134
71.584251 76.966896 -0.41953644
78.087296 88.085236 0
79.494431 90.491043 0.85710257
66.673485 68.583595 -0.87482655
67.061203 69.248322 -0.83815271
67.668922 70.290237 -0.80659389
68.535233 71.775497 -0.75033808
69.634895 73.660828 -0.62329543
71.576424 76.989502 -0.41997147
78.060799 88.106735 0
79.454559 90.496277 0.85666698
66.605812 68.480003 -0.85445321
67.064949 69.269363 -0.84092134
67.663872 70.299049 -0.80715621
68.505188 71.745468 -0.74691433
69.618027 73.658691 -0.62271935
71.563347 77.003159 -0.42011702
78.010727 88.087715 0
79.40947 90.492477 0.85594141
66.578079 68.444664 -0.84711927
67.053535 69.264374 -0.83953571
67.640953 70.277092 -0.80377781
68.508713 71.773125 -0.74905539
69.619324 73.687843 -0.62416053
71.563263 77.039246 -0.42098758
77.960716 88.068604 0
79.343552 90.452637 0.85405475
66.55043 68.409271 -0.8397854
67.077324 69.320175 -0.84784168
67.646095 70.30349 -0.80659389
68.507019 71.791885 -0.75033808
69.610199 73.699104 -0.6244486
71.557915 77.066368 -0.42156813
77.918594 88.062927 0
79.301163 90.453163 0.8534742
66.624138 68.54937 -0.86586428
67.070892 69.323891 -0.84784168
67.630859 70.294685 -0.8049047
68.487343 71.779541 -0.74862617
69.613991 73.732765 -0.62617886
71.542122 77.075493 -0.42156813
77.868706 88.043663 0
79.253616 90.444633 0.85260367
66.635887 68.58252 -0.87156665
67.049438 69.301498 -0.84368736
67.623245 70.299065 -0.8049047
68.485619 71.798309 -0.74991047
69.591911 73.721611 -0.62502569
71.534088 77.098114 -0.42200369
77.829262 88.042358 0
79.182785 90.395462 0.85042644
66.642319 68.613037 -0.87645805
67.034843 69.298317 -0.84230435
67.619408 70.318855 -0.80659389
68.484238 71.828697 -0.75204992
69.581993 73.745201 -0.62589085
71.525833 77.138802 -0.42287424
77.752037 88.008675 0
78.39621 89.133278 0.80891848
66.607323 68.56472 -0.86667848
67.025955 69.297623 -0.84161288
67.609238 70.318802 -0.80602938
68.472229 71.829659 -0.75162238
69.583046 73.774391 -0.62733203
71.528 77.179474 -0.42389035
77.702362 87.989113 0
78.368408 89.155182 0.80906403
66.579788 68.529213 -0.85934454
67.0121 69.288193 -0.83953571
67.621727 70.358482 -0.81053245
68.462769 71.835052 -0.75162238
69.586586 73.80809 -0.62906122
71.509483 77.184036 -0.4237448
77.665649 87.992096 0
78.345718 89.186058 0.80949903
66.601166 68.579597 -0.86830682
67.020569 69.317993 -0.84368736
67.598984 70.336349 -0.80715621
68.453293 71.840439 -0.75162238
69.572174 73.810341 -0.62877321
71.503815 77.211174 -0.42432535
77.621216 87.98143 0
78.312706 89.19886 0.80935401
66.529861 68.466614 -0.84630507
67.011673 69.317284 -0.84299588
67.593826 70.345108 -0.80771858
68.464058 71.881554 -0.75504613
69.545029 73.79007 -0.62704402
71.490417 77.224762 -0.42447093
77.564018 87.948059 0
78.297623 89.243279 0.81022513
66.677605 68.740814 -0.89764559
67.007713 69.325279 -0.84368736
67.613647 70.398125 -0.81391084
68.439377 71.860115 -0.75247747
69.538277 73.805763 -0.62762004
71.482094 77.247368 -0.42490593
77.52739 87.950836 0
78.277321 89.278618 0.81080514
66.603951 68.623451 -0.87482655
66.99881 69.324547 -0.84299588
67.605919 70.402489 -0.81391084
68.427361 71.861 -0.75204992
69.556885 73.866531 -0.63107955
71.478836 77.279053 -0.42563203
77.48056 87.93541 0
78.267174 89.332077 0.81196624
66.535431 68.514542 -0.85363901
67.007126 69.354424 -0.84715015
67.583244 70.380249 -0.81053245
68.432953 71.893211 -0.75461853
69.54496 73.873238 -0.63107955
71.47551 77.31073 -0.4263576
77.441437 87.933533 0
78.246727 89.367416 0.81254685
66.568626 68.586609 -0.86667848
67.017807 69.38868 -0.85199332
67.590431 70.411186 -0.81391084
68.420891 71.894073 -0.75418937
69.527969 73.870895 -0.63050246
71.469582 77.337891 -0.42693815
77.392159 87.913422 0
79.828445 92.263725 0.90470552
66.5438 68.555183 -0.86015874
66.979492 69.335381 -0.84299588
67.582687 70.41552 -0.81391084
68.426376 71.926308 -0.75675797
69.523605 73.891121 -0.63136756
71.455986 77.35144 -0.42708316
77.355652 87.91597 0
79.784157 92.264702 0.90412551
66.588791 68.648941 -0.87727219
66.975479 69.343353 -0.84368736
67.574928 70.419838 -0.81391084
68.411797 71.922676 -0.75590122
69.514168 73.902306 -0.63165563
71.444901 77.369514 -0.42737314
77.298882 87.882065 0
79.722183 92.233803 0.90252882
66.549583 68.591568 -0.86586428
67.017738 69.434677 -0.85753059
67.564705 70.419716 -0.81334853
68.399727 71.923515 -0.75547367
69.489639 73.886353 -0.63021439
71.43631 77.392136 -0.4278087
77.264969 87.889023 0
79.665352 92.211891 0.90122271
66.673332 68.828163 -0.9098708
66.97715 69.376877 -0.84784168
67.552017 70.415115 -0.81222165
68.405075 71.95578 -0.75804228
69.487717 73.911079 -0.63136756
71.435234 77.428398 -0.42867982
77.215927 87.868607 0
78.916359 90.939667 0.86000532
66.521751 68.567421 -0.86015874
66.963371 69.367287 -0.84576452
67.541809 70.414963 -0.81165934
68.395462 71.961098 -0.75804228
69.495735 73.953934 -0.63367391
71.421516 77.441917 -0.42882481
77.182037 87.875427 0
78.883797 90.957672 0.86000532
66.578209 68.683044 -0.88134629
66.944786 69.348892 -0.84230435
67.556114 70.459297 -0.81672472
68.385841 71.966408 -0.75804228
69.476219 73.946968 -0.63280874
71.395241 77.432663 -0.42824426
77.130585 87.850311 0
64 64 0
66.605858 68.746834 -0.89275736
66.9673 69.405228 -0.85061032
67.56543 70.494781 -0.82066548
68.361382 71.944687 -0.75547367
69.464195 73.953575 -0.63280874
71.411514 77.500809 -0.43013093
77.104263 87.870712 0
78.851112 91.05278 0.86189204
66.559776 68.67627 -0.87890369
66.953537 69.395599 -0.84853315
67.542931 70.472328 -0.81728709
68.351776 71.949951 -0.75547367
69.454659 73.964722 -0.63309789
71.390198 77.500626 -0.42984039
77.057922 87.854584 0
78.880798 91.184662 0.86552036
66.568329 68.705383 -0.88379192
66.947014 69.399162 -0.84853315
67.542412 70.48999 -0.81897628
68.361847 71.991257 -0.75889742
69.459953 74.003075 -0.63511509
71.388824 77.536926 -0.43071151
77.016624 87.847504 0
78.959969 91.407875 0.87205094
66.527191 68.643349 -0.87156665
66.940483 69.402718 -0.84853315
67.532143 70.489807 -0.81841391
68.362007 72.014557 -0.76060927
69.442924 74.000587 -0.63453907
71.387367 77.573219 -0.43158206
76.972862 87.835777 0
78.909462 91.393997 0.8710354
66.450851 68.516068 -0.84711927
66.984215 69.498878 -0.86306787
67.514603 70.476204 -0.81616241
68.335175 71.988235 -0.75761306
69.433296 74.011703 -0.63482708
71.375923 77.591278 -0.43187261
76.926674 87.819412 0
78.881302 91.421112 0.87132537
66.544197 68.701614 -0.88134629
66.922653 69.400993 -0.84715015
67.526123 70.516197 -0.82066548
68.332848 72.007011 -0.75889742
69.431046 74.036453 -0.63598025
71.352074 77.586472 -0.43143705
76.887985 87.816719 0
78.875366 91.489357 0.87292206
66.526779 68.682938 -0.87727219
66.923264 69.417755 -0.84922463
67.496521 70.480194 -0.81559789
68.323174 72.012245 -0.75889742
69.416458 74.03846 -0.63569224
71.352928 77.627365 -0.43245319
76.849312 87.81395 0
78.933434 91.676514 0.87829155
66.546883 68.733879 -0.88623762
66.926224 69.438957 -0.85199332
67.500732 70.506798 -0.81841391
68.328079 72.044579 -0.76146436
69.41658 74.067772 -0.63713342
71.351219 77.663689 -0.43332374
76.805725 87.801949 0
78.919678 91.731148 0.87945265
66.55751 68.767433 -0.89194
66.907791 69.420387 -0.84853315
67.485664 70.497589 -0.81672472
68.323212 72.058861 -0.76232111
69.406853 74.078865 -0.63742143
71.337158 77.677132 -0.43346873
76.754814 87.776123 0
78.886162 91.749161 0.87945265
66.493462 68.661552 -0.87156665
66.90834 69.437172 -0.85061032
67.482597 70.51075 -0.8178494
68.323158 72.082191 -0.76403302
69.392235 74.080833 -0.63713342
71.330437 77.704323 -0.43404928
76.718704 87.777748 0
78.828117 91.721306 0.87800151
66.545982 68.773598 -0.89194
66.932465 69.49823 -0.85960776
67.479515 70.523926 -0.81897628
68.303726 72.06929 -0.76232111
69.394653 74.114716 -0.63886261
71.321213 77.726929 -0.43448484
76.672829 87.760963 0
78.814171 91.775887 0.87916261
66.468269 68.641388 -0.86667848
66.923462 69.497345 -0.85891622
67.469246 70.523643 -0.81841391
68.293976 72.074478 -0.76232111
69.387291 74.130371 -0.63943976
71.324142 77.772469 -0.43564597
76.636772 87.762466 0
78.800125 91.830475 0.88032377
66.481697 68.673439 -0.87238401
66.943672 69.543419 -0.8658365
67.462914 70.52124 -0.8178494
68.291496 72.081604 -0.76274872
69.383591 74.138191 -0.63972777
71.323128 77.790665 -0.43608153
76.605324 87.737915 0
77.052887 88.58075 0.77728003
66.457542 68.641487 -0.86586428
66.873589 69.427261 -0.84715015
67.466927 70.54789 -0.82066548
68.291344 72.104935 -0.76446056
69.378601 74.158409 -0.64059293
71.318619 77.822464 -0.43680707
76.559593 87.72094 0
76.955086 88.467903 0.77321613
66.445007 68.631332 -0.86341858
66.871704 69.43959 -0.84853315
67.459015 70.552071 -0.82066548
68.283936 72.114647 -0.76488811
69.361488 74.155739 -0.64001578
71.292206 77.812912 -0.43622652
76.528481 87.731483 0
76.838181 88.318108 0.76799166
66.487755 68.726135 -0.88053209
66.886162 69.483017 -0.85476196
67.462929 70.578728 -0.82347935
68.274132 72.11982 -0.76488811
69.351616 74.166786 -0.64030385
71.299713 77.867699 -0.43767762
76.490105 87.72818 0
78.205444 90.986908 0.85173255
66.573929 68.904205 -0.91312754
66.884201 69.495392 -0.85614759
67.428993 70.533401 -0.81728709
68.266708 72.129532 -0.76531732
69.351357 74.196159 -0.6417461
71.282951 77.876503 -0.43767762
76.446915 87.715614 0
76.776955 88.344452 0.76784611
66.554253 68.881042 -0.90823931
66.870583 69.485527 -0.85407043
67.451729 70.596069 -0.82460403
68.252121 72.12558 -0.76446056
69.334229 74.193443 -0.64116895
71.278229 77.90831 -0.43840319
76.40377 87.702972 0
76.745117 88.35527 0.76770109
66.415733 68.629944 -0.86097288
66.894119 69.546822 -0.86306787
67.443756 70.600235 -0.82460403
68.247055 72.139824 -0.76531732
69.329094 74.213646 -0.64203411
71.268631 77.930923 -0.43883875
76.3703 87.708702 0
76.703667 88.347618 0.76697552
66.474014 68.755646 -0.88379192
66.868889 69.514702 -0.85753059
67.431091 70.595383 -0.82347935
68.258537 72.185936 -0.76916862
69.31913 74.224663 -0.64232212
71.251793 77.939697 -0.43883875
76.317627 87.677467 0
76.657448 88.330673 0.76595944
66.456886 68.736702 -0.87971789
66.859917 69.513718 -0.85683912
67.43013 70.613045 -0.8251664
68.248642 72.191078 -0.76916862
69.316299 74.249451 -0.64347529
71.256477 77.989967 -0.44014487
76.269836 87.655373 0
76.620865 88.332123 0.76552445
66.455696 68.748436 -0.88134629
66.853256 69.517166 -0.85683912
67.424477 70.621712 -0.82573086
68.224586 72.168831 -0.76660001
69.30629 74.260452 -0.6437633
71.244347 78.007965 -0.44043544
76.238861 87.665558 0
