# .PCD v0.7 - Point Cloud Data file format
VERSION 0.7
FIELDS x y z
SIZE 4 4 4
TYPE F F F
COUNT 1 1 1
WIDTH 1656
HEIGHT 1
VIEWPOINT 0 0 0 1 0 0 0
POINTS 1656
DATA ascii
48.989655 102.59137 1.1564401
59.22496 76.232788 -0.73183846
58.217266 78.814316 -0.44413906
58.063908 79.207191 0
45.008827 112.65193 1.4586046
59.227161 76.183662 -0.72924411
58.199371 78.807312 -0.44413906
58.047432 79.195168 0
47.262535 106.72586 1.281544
59.195412 76.221214 -0.73183846
58.185287 78.790611 -0.44384849
58.01194 79.231552 0
47.222336 106.67657 1.2806728
59.148224 76.319382 -0.73789233
58.176353 78.787094 -0.44384849
58.017998 79.189186 0
47.211788 106.62775 1.2795117
59.177074 76.20285 -0.73126131
58.154667 78.789726 -0.44413906
57.974777 79.244873 0
47.148827 106.63644 1.2803828
59.156609 76.211449 -0.73212647
58.125309 78.81163 -0.44500962
57.950603 79.252106 0
47.108826 106.58705 1.2795117
59.134209 76.224808 -0.73327965
59.314278 75.7724 -0.35386705
57.947578 79.206093 0
44.482216 113.03644 1.4739885
59.07531 76.329399 -0.73990953
59.290421 75.790855 -0.35459259
57.915699 79.23259 0
44.369003 113.14796 1.4780525
59.1143 76.189011 -0.73183846
58.071655 78.790237 -0.44500962
57.903103 79.210747 0
44.220695 113.34608 1.4847286
59.060974 76.279068 -0.73760319
58.053791 78.783058 -0.44500962
57.880848 79.21302 0
44.036972 113.63071 1.494017
58.999672 76.388214 -0.74452221
58.024258 78.804787 -0.44588074
57.866364 79.195969 0
43.957573 113.65473 1.495468
58.96529 76.430099 -0.74740458
58.002476 78.807182 -0.44617075
57.85387 79.174072 0
44.063412 113.22107 1.4831319
58.909374 76.524643 -0.75345844
57.978714 78.814369 -0.44660628
57.812019 79.224495 0
44.088089 112.98994 1.4768913
58.921589 76.451431 -0.74942291
57.960819 78.807083 -0.44660628
57.803455 79.192917 0
44.017128 112.99473 1.4777625
58.902626 76.454872 -0.75000006
57.935059 78.819016 -0.44718686
57.775246 79.209496 0
43.971725 112.93687 1.4767463
58.889549 76.443909 -0.74971092
57.913212 78.821281 -0.44747686
57.754898 79.206772 0
43.90274 112.93668 1.4774718
58.856781 76.480759 -0.75230527
57.899265 78.804314 -0.44718686
57.718681 79.242523 0
43.835705 112.93157 1.4780525
57.869469 78.825737 -0.44805741
57.704243 79.225311 0
46.457375 106.42413 1.2821245
57.855537 78.808731 -0.44776741
57.683857 79.222496 0
46.428036 106.35009 1.2805278
57.83765 78.801292 -0.44776741
57.633461 79.29174 0
46.376877 106.32883 1.2805278
57.82177 78.789047 -0.44762242
57.629036 79.250412 0
46.353783 106.24038 1.2784961
57.783821 78.829491 -0.44907352
57.61866 79.223495 0
46.320839 106.1759 1.27719
57.767918 78.817184 -0.44892853
57.590183 79.239761 0
46.277946 106.13534 1.2766094
57.754063 78.800056 -0.44863796
57.567722 79.241608 0
46.223011 106.12346 1.2768995
57.732128 78.802078 -0.44892853
57.541191 79.252998 0
46.176178 106.09239 1.2766094
57.689869 78.851875 -0.45066965
57.52684 79.235588 0
46.149715 106.01343 1.2748678
57.690269 78.801216 -0.44936353
57.502312 79.242126 0
46.113228 105.95836 1.2738516
57.662964 78.840408 -0.45066965
57.482883 79.262131 0
46.120537 105.87107 1.2715294
57.638893 78.847076 -0.45110521
57.441898 79.30687 0
53.836533 87.721939 0.72075397
57.618908 78.844154 -0.4512502
57.398739 79.356323 0
53.818138 87.685776 0.7200284
57.598911 78.841217 -0.45139575
57.380188 79.348335 0
53.805988 87.635284 0.7188673
57.576859 78.843002 -0.45168576
57.334778 79.40242 0
53.796013 87.580025 0.71756119
57.563065 78.825706 -0.45139575
57.301666 79.427765 0
53.821342 87.443726 0.71378732
57.538937 78.832199 -0.45183074
57.307968 79.362411 0
53.820004 87.369476 0.71190059
57.510605 78.848206 -0.45255688
57.266487 79.406761 0
53.814659 87.304794 0.7103045
57.490585 78.845108 -0.45270187
57.247875 79.398621 0
53.82407 87.20681 0.70769227
56.774887 80.423309 -0.99993658
57.460098 78.865761 -0.45357242
57.22718 79.395203 0
53.802315 87.180222 0.70725673
56.801006 80.31044 -0.99359357
57.446335 78.848351 -0.45328242
57.177055 79.458443 0
53.776413 87.163132 0.70711172
56.800152 80.259163 -0.99099922
57.415779 78.868919 -0.454153
57.12888 79.516808 0
53.744225 87.160255 0.70740169
56.79311 80.222099 -0.98927003
57.391483 78.875206 -0.45458853
57.103794 79.522766 0
53.720467 87.138359 0.70711172
56.767193 80.227554 -0.99013519
57.379864 78.852966 -0.454153
57.046906 79.599991 0
53.688286 87.135406 0.70740169
56.758156 80.195175 -0.98869288
57.353436 78.86393 -0.45473355
57.023808 79.601089 0
53.668823 87.103951 0.70682114
56.734352 80.195862 -0.98927003
57.333355 78.860626 -0.45487854
56.970882 79.668617 0
53.643044 87.086716 0.70667613
56.688847 80.192413 -0.99013519
57.293182 78.853958 -0.45516911
53.600365 87.032639 0
53.627914 86.971619 0.70391834
56.665024 80.192978 -0.99071121
57.290253 78.812698 -0.454153
53.581123 87.001106 0
53.645195 86.859665 0.70087057
56.651886 80.169968 -0.98984605
58.73431 75.587471 -0.35546318
53.574879 86.941109 0
53.677773 86.714676 0.69680721
56.623768 80.179909 -0.99099922
58.737556 75.543266 -0.35430205
53.568752 86.881142 0
53.66758 86.66436 0.69564611
56.597767 80.185104 -0.99186438
58.751713 75.475464 -0.35241538
53.562767 86.821175 0
53.672626 86.580963 0.69346887
56.575066 80.208832 -0.99359357
58.710152 75.54789 -0.35473761
53.620502 86.65873 0
53.715256 86.451889 0.68969554
56.559803 80.19046 -0.99301755
58.709217 75.513168 -0.35386705
53.601826 86.627251 0
53.705494 86.401665 0.68853444
56.542408 80.176765 -0.99272954
58.684433 75.530357 -0.35459259
53.602821 86.553223 0
53.71759 86.304268 0.68592221
56.525047 80.163033 -0.9924404
64 64 -0
53.621456 86.441444 0
53.699375 86.272957 0.68534166
58.510483 75.83239 -0.72693777
58.645649 75.541046 -0.35531816
53.605309 86.405266 0
53.716213 86.166214 0.68243885
58.520203 75.774155 -0.72376627
58.64925 75.496872 -0.35415706
53.608986 86.32663 0
53.70697 86.116089 0.68127829
58.554119 75.664413 -0.71742439
64 64 -0
53.60183 86.271622 0
53.708843 86.042412 0.67939103
58.566357 75.601608 -0.71396488
64 64 -0
53.599213 86.207184 0
53.724091 85.940552 0.67663383
58.591934 75.510773 -0.70877618
58.550159 75.599686 -0.35793039
53.605583 86.123947 0
53.737358 85.84346 0.6740216
58.586849 75.485512 -0.707623
58.578236 75.503792 -0.35517317
58.387241 75.909042 0
53.708763 85.835747 0.67416656
58.579613 75.464928 -0.70675784
58.610985 75.398567 -0.35212538
58.375076 75.897545 0
53.740131 85.701149 0.67039323
58.556896 75.477066 -0.70791101
58.519279 75.556381 -0.35720482
53.654812 85.813362 0
53.731735 85.651169 0.66923213
58.551922 75.451797 -0.70675784
58.558903 75.437119 -0.3537215
53.67094 85.711563 0
53.732372 85.582428 0.66749042
58.535862 75.449867 -0.70704585
58.468979 75.590012 -0.35865653
53.642475 85.703751 0
53.724205 85.532486 0.66632932
58.515327 75.45726 -0.70791101
58.45723 75.578621 -0.35851094
53.627491 85.667755 0
53.73185 85.449753 0.66415268
58.519402 75.413315 -0.70560467
58.46349 75.529755 -0.35720482
53.626106 85.603592 0
53.730686 85.385796 0.66255599
58.525818 75.364746 -0.70301032
58.44054 75.541786 -0.3577854
53.656475 85.473808 0
53.738686 85.303139 0.66037875
58.45583 75.474564 -0.71021736
58.428856 75.530388 -0.35764039
53.680351 85.3582 0
53.71521 85.286049 0.66023374
58.450993 75.449234 -0.70906419
58.405861 75.542351 -0.35822096
53.67498 85.303558 0
53.71896 85.212814 0.65834707
58.394196 75.530907 -0.7145409
58.366932 75.586983 -0.35981706
53.708412 85.169373 0
53.738781 85.106903 0.65544426
58.42334 75.435791 -0.70906419
58.364323 75.556816 -0.35909152
53.691963 85.138206 0
57.432831 77.466988 0.41844395
58.336792 75.577744 -0.71828955
58.423428 75.400635 -0.3544476
53.673294 85.111702 0
57.43026 77.431038 0.41757339
58.359264 75.49659 -0.71367687
58.400497 75.412552 -0.35502815
53.668423 85.057159 0
57.416332 77.418411 0.41742781
58.345482 75.507095 -0.7145409
58.315681 75.567734 -0.35996261
53.687836 84.985519 0
57.435722 77.358482 0.4156867
58.354446 75.453865 -0.71165854
58.281033 75.602806 -0.36126873
53.664795 84.968369 0
57.403507 77.383156 0.41670227
58.361244 75.405304 -0.70906419
58.27393 75.581909 -0.3608332
53.669453 84.89521 0
57.41267 77.323944 0.41510615
58.358955 75.375313 -0.707623
58.218384 75.658775 -0.36344543
53.674271 84.822098 0
57.398891 77.31131 0.41496059
58.326782 75.40554 -0.70992935
54.471245 83.156792 -0.59754354
53.667664 84.772324 0
57.394382 77.28006 0.41423503
58.331482 75.361649 -0.707623
54.450424 83.140617 -0.59739852
53.670448 84.703949 0
57.387619 77.253464 0.41365448
58.336277 75.31778 -0.70531666
54.462189 83.059349 -0.59522128
53.608181 84.765915 0
57.369278 77.25013 0.41380003
58.290123 75.375648 -0.7093522
54.478798 82.968857 -0.59275407
64 64 0
57.369595 77.209587 0.41278392
58.294991 75.331779 -0.70704585
54.488598 82.892365 -0.59072238
53.562702 84.731445 0
57.348969 77.210846 0.41307393
58.29063 75.306404 -0.70589268
54.533707 82.74633 -0.58651352
53.535316 84.723465 0
57.337692 77.193527 0.41278392
58.269958 75.313347 -0.70675784
54.612026 82.535538 -0.58027291
53.538506 84.655083 0
57.333492 77.162292 0.41205835
58.24926 75.320251 -0.707623
54.634361 82.436142 -0.57751513
57.134357 77.514931 0
57.322308 77.144951 0.41176781
58.263767 75.257988 -0.70416349
54.640404 82.369247 -0.57577348
57.122761 77.497345 0
57.299347 77.150772 0.41220337
58.276066 75.200378 -0.70099199
54.644222 82.30703 -0.57417732
57.115932 77.470482 0
57.281101 77.147285 0.41234836
58.215343 75.285522 -0.70675784
54.636337 82.26796 -0.5733062
57.102032 77.457527 0
57.277069 77.116043 0.41162279
58.24192 75.200317 -0.70185715
54.6404 82.205803 -0.57171011
57.100052 77.421417 0
57.263599 77.103287 0.4114778
58.261574 75.12899 -0.69782162
54.661285 82.111328 -0.56909734
57.114845 77.352936 0
57.247772 77.095139 0.4114778
58.222 75.172577 -0.70099199
54.679985 82.021561 -0.56663007
57.072422 77.395447 0
57.23912 77.07312 0.41104224
58.213264 75.156418 -0.70041597
54.682144 81.964157 -0.56517899
57.063427 77.373215 0
57.199402 77.111061 0.41249335
58.197403 75.153999 -0.70070398
54.67963 81.916008 -0.56401783
57.044872 77.369438 0
64 64 0
58.176746 75.160744 -0.70156914
56.876755 77.652283 -0.43006122
57.031128 77.356415 0
57.19899 77.034698 0.41060668
58.146484 75.185768 -0.70358634
56.857857 77.64827 -0.43020624
57.053608 77.2742 0
57.171188 77.049507 0.41133279
58.159409 75.128319 -0.70041597
56.867931 77.58902 -0.42861012
57.039989 77.261192 0
57.157848 77.036629 0.41118723
58.114178 75.198051 -0.70502865
56.857307 77.58931 -0.4287551
57.017452 77.284622 0
57.142715 77.046303 0.41162279
58.148899 75.099411 -0.6992628
56.867554 77.53009 -0.42715845
57.015965 77.248558 0
57.122108 77.047211 0.41191337
58.120991 75.119759 -0.70099199
56.856064 77.512283 -0.42686844
56.985371 77.267708 0
57.101494 77.048065 0.41220337
58.090591 75.144646 -0.70301032
56.847046 77.489861 -0.42643288
56.964462 77.268425 0
57.09547 77.021355 0.41162279
58.067413 75.155762 -0.70416349
64 64 -0
56.953327 77.250717 0
57.079742 77.013008 0.41162279
58.049076 75.157707 -0.70473951
56.81691 77.467957 -0.42628789
56.944672 77.228409 0
57.064022 77.004631 0.41162279
58.057556 75.109459 -0.70214516
56.825161 77.413437 -0.42483622
56.931149 77.215286 0
57.043407 77.005417 0.41191337
58.01479 75.156975 -0.70560467
64 64 -0
56.939785 77.160881 0
57.017879 77.015305 0.41249335
58.028267 75.09964 -0.7024343
56.777988 77.423523 -0.42570731
56.93129 77.138588 0
56.997231 77.016022 0.41278392
56.686016 77.555191 -0.85839134
56.788921 77.364471 -0.42411065
56.893177 77.171257 0
56.993843 76.98468 0.41205835
56.696716 77.496307 -0.85522097
64 64 -0
56.902031 77.11689 0
56.995476 76.944214 0.41104224
56.673008 77.501122 -0.85608613
56.776478 77.310471 -0.42294952
56.893639 77.094574 0
56.962486 76.967712 0.41205835
64 64 -0
56.729385 77.320351 -0.42382064
64 64 0
56.933655 76.946114 0.41191337
64 64 -0
56.720787 77.297874 -0.42338508
56.838718 77.082428 0
56.903049 76.964905 0.41278392
64 64 -0
56.714725 77.270844 -0.42280453
56.840454 77.041824 0
56.88739 76.956322 0.41278392
56.64896 77.352379 -0.84945512
56.69368 77.271149 -0.42309508
56.824699 77.033165 0
56.861717 76.965927 0.41336447
56.627827 77.352554 -0.85003227
56.67765 77.262314 -0.42309508
56.796379 77.047264 0
56.841034 76.966385 0.41365448
56.596668 77.370781 -0.85176146
56.664154 77.248894 -0.42294952
56.755402 77.084099 0
56.820332 76.966827 0.41394502
64 64 -0
56.655712 77.226402 -0.42251453
56.75729 77.043472 0
56.804672 76.958145 0.41394502
56.587025 77.31218 -0.84916711
56.652386 77.194801 -0.42178842
56.731403 77.052902 0
56.783966 76.958511 0.41423503
56.573463 77.298698 -0.8488791
56.651646 77.158699 -0.42091787
56.715637 77.044113 0
56.755646 76.972466 0.41496059
56.570488 77.285172 -0.84830195
56.641163 77.158791 -0.42106286
56.687435 77.07605 0
56.745266 76.972633 0.41510615
56.559494 77.267166 -0.84772593
56.617638 77.16349 -0.42149842
56.671638 77.067207 0
56.714352 76.991051 0.4159767
56.556145 77.235626 -0.84628475
56.594093 77.168152 -0.42193398
56.666061 77.040192 0
56.678276 77.018471 0.41713783
56.540161 77.226624 -0.84628475
56.57819 77.159195 -0.42193398
56.617073 77.090256 0
56.64724 77.036766 0.41800839
56.524185 77.217606 -0.84628475
56.557182 77.159256 -0.42222399
56.614071 77.058678 0
56.616138 77.055023 0.41887948
56.49802 77.22654 -0.84743679
56.54385 77.145737 -0.42207897
56.577751 77.08596 0
56.577293 77.086769 0.4201856
56.497383 77.190498 -0.8457076
56.527969 77.136719 -0.42207897
56.587685 77.031731 0
56.556355 77.086815 0.4204756
56.478889 77.185913 -0.8459956
56.5121 77.127686 -0.42207897
56.56163 77.040848 0
56.509647 77.131981 0.42221728
56.457821 77.185799 -0.84657276
56.48077 77.145683 -0.42294952
56.530365 77.058975 0
56.470566 77.163521 0.4235234
56.439323 77.18116 -0.84686077
56.46489 77.136589 -0.42294952
56.506832 77.063469 0
53.959538 81.504379 0.56357616
56.418247 77.180977 -0.84743679
56.443836 77.13649 -0.4232401
56.493645 77.049896 0
53.928032 81.510254 0.56415671
56.404907 77.167328 -0.84714878
56.427967 77.12735 -0.4232401
56.464882 77.063354 0
53.93026 81.457542 0.56285006
56.401951 77.135757 -0.8457076
56.399105 77.140678 -0.42396566
56.436066 77.076782 0
53.927376 81.413879 0.56183451
56.378296 77.139992 -0.84657276
56.380627 77.135979 -0.42411065
56.401997 77.099136 0
53.927204 81.365738 0.56067336
56.372829 77.112892 -0.84541959
56.362148 77.131248 -0.42425564
56.380936 77.098953 0
53.942802 81.290672 0.55864167
56.364811 77.090256 -0.84455442
56.348904 77.117531 -0.42411065
56.328403 77.152679 0
53.990002 81.161781 0.5548678
56.369896 77.045296 -0.84224808
56.31731 77.135201 -0.42498177
56.317768 77.134422 0
54.074215 80.970253 0.54906279
56.369835 77.009308 -0.84051889
56.309338 77.11245 -0.42454621
56.254509 77.205933 0
54.1063 80.868591 0.54615998
56.369862 76.973312 -0.83878857
56.275055 77.134514 -0.42556232
56.225365 77.218994 0
64 64 0
64 64 -0
56.369953 76.937355 -0.83705938
56.25919 77.125168 -0.42556232
56.206757 77.214066 0
54.152683 80.696915 0.54137051
56.356956 76.923683 -0.83677137
56.238049 77.124741 -0.42585233
56.169598 77.240486 0
64 64 0
64 64 -0
56.354538 76.892197 -0.83533019
56.216888 77.124306 -0.42614287
54.120003 80.660187 0
54.141514 80.623917 0.53977442
56.360115 76.847374 -0.83302385
56.185104 77.141678 -0.42701343
54.129139 80.59903 0
54.14003 80.580719 0.53875828
56.376175 76.802765 -0.83042949
56.153236 77.177139 -0.42831954
54.132435 80.570694 0
54.148621 80.543518 0.53774273
56.371319 76.775772 -0.82927632
56.124004 77.189957 -0.42904511
54.117752 80.549828 0
64 64 0
56.361206 76.75766 -0.82869917
56.089382 77.211639 -0.43006122
54.108456 80.520012 0
54.119347 80.501823 0.53716218
56.361771 76.721817 -0.82696998
56.068077 77.210976 -0.43035123
54.09922 80.490204 0
54.096741 80.494324 0.53730714
56.359741 76.69043 -0.8255288
56.030678 77.237 -0.43151236
54.076622 80.482681 0
54.074142 80.486794 0.53745216
56.360458 76.65461 -0.82379848
55.987823 77.271866 -0.43296403
54.051327 80.479599 0
54.046169 80.488144 0.53788775
56.366604 76.609962 -0.82149214
55.96373 77.275497 -0.43339902
54.031422 80.46756 0
54.015488 80.493881 0.5384683
56.367474 76.574203 -0.81976295
55.920723 77.310211 -0.43485069
54.006134 80.464401 0
53.987484 80.495125 0.5389033
56.363045 76.547302 -0.81860977
55.880329 77.340385 -0.43615681
53.975422 80.470093 0
53.954041 80.505219 0.5396294
56.364063 76.511566 -0.81687945
53.947525 80.471085 -0.53890997
53.95282 80.46241 0
53.936821 80.488625 0.53948385
56.36245 76.48027 -0.81543827
53.908638 80.48996 -0.53992611
53.924782 80.463577 0
53.906055 80.494186 0.54006439
56.360901 76.44899 -0.81399709
53.894165 80.468887 -0.53963554
53.918503 80.429214 0
53.891563 80.473122 0.53977442
56.359413 76.417725 -0.81255591
53.885155 80.438972 -0.53905553
53.923206 80.377129 0
53.893452 80.425491 0.53861326
56.355282 76.390877 -0.81140274
53.887127 80.391357 -0.53789443
53.917088 80.342796 0
53.892715 80.382301 0.53759718
56.3512 76.364029 -0.81024957
53.897408 80.330505 -0.53629774
53.913784 80.304031 0
53.889328 80.343567 0.53672659
56.349899 76.332809 -0.80880839
53.894112 80.291801 -0.53542721
53.913288 80.260887 0
53.888767 80.300415 0.53571051
56.351398 76.297188 -0.80707806
53.893654 80.24868 -0.53441107
53.921143 80.204483 0
53.891037 80.252884 0.53454936
56.355701 76.257225 -0.80506086
53.89328 80.205582 -0.53339493
53.918091 80.165802 0
53.898903 80.196571 0.53309828
56.360096 76.21727 -0.80304253
53.892986 80.162529 -0.53237939
53.939964 80.087402 0
53.901382 80.149109 0.53193712
56.361824 76.181747 -0.80131334
53.89555 80.115082 -0.53121829
53.931595 80.057602 0
53.903961 80.101669 0.53077602
56.349873 76.168114 -0.8010242
53.906513 80.054459 -0.5296216
53.939896 80.001366 0
53.892815 80.076256 0.53034049
56.361805 76.132858 -0.799007
53.916199 80.01757 -0.52860552
53.955185 79.955643 0
53.883102 80.070145 0.53034049
56.363724 76.097366 -0.79727668
53.921818 79.965828 -0.5272994
53.949802 79.921494 0
53.85537 80.071098 0.53077602
56.362942 76.066284 -0.79583549
53.921982 79.922913 -0.5262838
53.950062 79.878548 0
53.827614 80.072006 0.53121161
56.359455 76.039574 -0.79468232
53.925026 79.875618 -0.5251227
53.953194 79.83123 0
53.813778 80.050919 0.53092104
56.364346 75.999794 -0.79266512
53.917007 79.845901 -0.52454215
53.945251 79.801514 0
53.786018 80.051758 0.53135657
56.355419 75.981827 -0.79208797
53.934204 79.776749 -0.52265549
53.951359 79.74987 0
53.775021 80.026253 0.53092104
56.363251 75.937721 -0.78978163
53.937553 79.729553 -0.52149433
53.965992 79.685097 0
53.761257 80.005142 0.53063101
56.365582 75.902367 -0.78805244
53.924171 79.708626 -0.52120382
53.963905 79.646683 0
53.767174 79.953392 0.52932489
56.359604 75.880081 -0.78718728
53.92487 79.665855 -0.52018821
53.970341 79.595154 0
53.773205 79.90168 0.52801877
56.356468 75.853447 -0.78603411
53.928478 79.618729 -0.51902711
53.951504 79.583023 0
53.782166 79.845627 0.5265671
56.370045 75.769844 -0.78171057
53.935993 79.524574 -0.51670492
53.962006 79.484451 0
53.777817 79.768578 0.52482599
56.355827 75.76062 -0.78171057
53.939899 79.477547 -0.51554376
53.971676 79.428658 0
53.781425 79.721359 0.52366489
56.36705 75.712357 -0.77911508
53.938225 79.439262 -0.51467323
53.964409 79.399086 0
53.785137 79.674164 0.52250379
56.358559 75.694473 -0.77853906
53.948009 79.383583 -0.51322156
53.982819 79.330307 0
53.78611 79.631355 0.52148765
56.364281 75.654938 -0.77652073
53.957901 79.327957 -0.51177043
53.964302 79.318192 0
53.795704 79.575539 0.52003658
56.364403 75.624084 -0.77507955
53.950802 79.298439 -0.51118988
53.974373 79.262558 0
53.794014 79.537125 0.51916546
56.361744 75.597572 -0.77392638
53.943756 79.268929 -0.51060933
53.975979 79.220001 0
53.800972 79.485725 0.51785934
56.356289 75.575378 -0.77306122
53.948227 79.222069 -0.50944817
53.9748 79.181824 0
48.75959 87.079575 0.77242082
57.379791 73.99913 -0.99962467
56.368008 75.527321 -0.77046686
53.941315 79.192581 -0.50886762
53.97945 79.134979 0
48.734581 87.056808 0.77227587
57.370548 73.986847 -0.99919713
56.368385 75.496544 -0.76902568
53.940205 79.154449 -0.5079971
53.987076 79.083839 0
48.70673 87.038345 0.77227587
57.370209 73.974281 -0.99834037
56.378616 75.466095 -0.76729649
53.971321 79.087784 -0.50596541
53.980843 79.073456 0
48.695686 87.02478 0.77213085
57.366692 73.953461 -0.99705768
56.376244 75.439659 -0.76614332
53.961746 79.062675 -0.50552988
53.997276 79.009361 0
53.806255 79.29599 0.51336044
57.363232 73.932625 -0.99577338
56.371052 75.417526 -0.76527816
53.966652 79.015968 -0.50436872
53.993603 78.975632 0
53.807995 79.253418 0.5123443
57.354088 73.920341 -0.99534583
56.377419 75.378212 -0.76325983
53.977432 78.960663 -0.50291765
54.007385 78.915962 0
53.809811 79.210876 0.51132876
57.350697 73.899513 -0.99406153
56.375214 75.351822 -0.76210666
53.979652 78.918343 -0.50190151
53.995178 78.895226 0
53.820419 79.155403 0.50987709
57.355942 73.865929 -0.99149454
56.361504 75.342598 -0.76210666
53.979042 78.880371 -0.50103092
54.006256 78.839958 0
53.868874 79.043961 0.50653929
57.346909 73.853622 -0.99106532
56.368057 75.30336 -0.76008946
53.969799 78.855324 -0.50059539
53.991241 78.823563 0
53.929226 78.915413 0.5026204
57.337883 73.841331 -0.99063778
56.371811 75.268417 -0.75835913
53.975163 78.808762 -0.49943426
53.996681 78.776978 0
53.957809 78.834396 0.50029868
57.328876 73.829025 -0.99021024
56.3582 75.259193 -0.75835913
53.977707 78.766533 -0.49841815
53.993446 78.743347 0
53.972 78.774948 0.49870202
57.32856 73.803986 -0.98849833
56.370789 75.211464 -0.75576478
53.968636 78.741539 -0.49798316
54.004925 78.68821 0
53.971691 78.737045 0.49783146
57.325401 73.783188 -0.98721403
56.368908 75.18515 -0.75461161
53.974262 78.695061 -0.49682203
53.995979 78.663231 0
53.965607 78.707748 0.49725091
57.313583 73.775116 -0.98721403
56.372917 75.150307 -0.75288242
53.982918 78.644341 -0.49551591
54.004711 78.612473 0
53.968384 78.665581 0.4962348
57.330811 73.724693 -0.98293519
56.371155 75.124023 -0.75172925
53.991692 78.593636 -0.49420926
54.010612 78.566048 0
53.965366 78.632027 0.49550924
57.316158 73.720856 -0.98336273
56.384094 75.076431 -0.7491349
53.988785 78.560127 -0.49348369
54.007774 78.532509 0
53.97419 78.581352 0.49420312
57.310238 73.70433 -0.98250765
56.364849 75.075737 -0.74971092
53.994797 78.513794 -0.49232256
54.010895 78.49044 0
53.974281 78.543549 0.493332
57.304363 73.687782 -0.98165089
56.357346 75.057999 -0.7491349
53.980217 78.497421 -0.49217758
54.020023 78.439827 0
53.97739 78.501511 0.49231645
57.289742 73.683899 -0.98207843
56.349888 75.040245 -0.74855775
54.004143 78.425507 -0.49014589
53.999619 78.43203 0
53.968758 78.47657 0.49188089
57.289749 73.658936 -0.9803682
56.351311 75.00975 -0.74711657
53.986717 78.413422 -0.49014589
53.973278 78.432762 0
53.972031 78.434555 0.49086478
57.27515 73.655029 -0.98079574
56.343918 74.99202 -0.74654055
53.990105 78.371452 -0.48912978
53.955845 78.420639 0
53.97538 78.392593 0.48984921
57.284069 73.617424 -0.97779959
56.348419 74.957306 -0.74481022
53.990593 78.333794 -0.48825923
53.935452 78.412758 0
53.975857 78.354897 0.48897809
57.278336 73.600899 -0.97694445
56.344078 74.935356 -0.74394619
54.006069 78.274857 -0.48666257
53.915062 78.404846 0
53.98534 78.304459 0.48767197
57.272537 73.59684 -0.97694445
56.34935 74.91378 -0.74279302
54.01236 78.247536 -0.485937
53.900379 78.40728 0
53.991611 78.277138 0.48694643
57.263908 73.584488 -0.97651523
56.333195 74.90876 -0.74308103
54.022041 78.197197 -0.48463088
53.868015 78.416351 0
53.992302 78.23951 0.48607531
57.273026 73.546982 -0.9735207
56.337902 74.874107 -0.74135071
54.016869 78.168137 -0.48405033
53.84761 78.408356 0
53.996048 78.197685 0.48505974
57.264465 73.534637 -0.97309154
56.324768 74.864838 -0.74135071
54.014748 78.134842 -0.48332477
64 64 0
53.984905 78.177086 0.4847692
57.255913 73.522308 -0.97266394
56.329582 74.830238 -0.73962152
54.009689 78.105804 -0.48274422
53.827858 78.362541 0
53.994812 78.126816 0.48346308
57.244411 73.514153 -0.97266394
56.32848 74.804092 -0.73846835
54.022743 78.051346 -0.48129255
53.792435 78.375694 0
53.99279 78.093529 0.48273751
57.241844 73.493446 -0.97138131
56.31543 74.794815 -0.73846835
54.02084 78.018112 -0.48056698
53.769032 78.371841 0
53.999878 78.047562 0.48157641
57.24231 73.468552 -0.9696694
56.308395 74.777107 -0.73789233
54.022018 77.980675 -0.47969642
53.751671 78.359467 0
53.998005 78.01432 0.48085085
57.236855 73.452026 -0.96881264
56.301407 74.759384 -0.73731518
54.014206 77.955925 -0.47926086
53.728279 78.35553 0
53.999229 77.976852 0.47997972
57.225437 73.443848 -0.96881264
56.297462 74.737457 -0.73645002
54.021584 77.910065 -0.47809973
53.701836 78.355804 0
54.003544 77.935211 0.47896418
57.214031 73.435654 -0.96881264
56.278446 74.736549 -0.73702717
54.019955 77.876907 -0.4773742
53.681461 78.347572 0
54.001881 77.902031 0.47823861
57.193623 73.439941 -0.97009701
56.286659 74.697838 -0.73500884
54.018387 77.843765 -0.47664863
53.651955 78.351982 0
54.006371 77.860428 0.4772225
57.194252 73.41507 -0.9683851
56.273739 74.688507 -0.73500884
54.029064 77.793793 -0.47534251
53.643772 78.326805 0
54.007889 77.823082 0.47635195
57.206985 73.373581 -0.96496135
56.263863 74.67498 -0.73472083
54.024605 77.7649 -0.47476196
53.623405 78.318512 0
54.009499 77.785744 0.47548082
57.186607 73.377831 -0.96624571
56.254005 74.661446 -0.73443282
54.023247 77.731819 -0.4740364
47.319324 86.958984 0
54.005066 77.756844 0.47490028
57.181332 73.361282 -0.96538895
56.250271 74.639526 -0.73356766
54.018902 77.70295 -0.47345585
47.285473 86.947212 0
54.006805 77.719559 0.47402972
57.1791 73.340614 -0.96410626
56.234371 74.634331 -0.73385566
54.029945 77.653099 -0.47214916
47.24548 86.943817 0
54.011692 77.678093 0.47301358
57.179951 73.315796 -0.96239442
56.215408 74.633301 -0.73443282
54.025723 77.624283 -0.47156918
47.187027 86.965546 0
54.01973 77.632469 0.47185248
57.168697 73.307541 -0.96239442
56.208694 74.615532 -0.73385566
54.030796 77.582893 -0.47055304
49.179493 84.192719 0
54.012493 77.607826 0.47141692
57.169628 73.282745 -0.96068251
56.192799 74.610291 -0.73414481
54.020557 77.562454 -0.4702625
49.185947 84.132881 0
54.020687 77.562279 0.47025636
57.16452 73.266212 -0.95982575
56.173847 74.609169 -0.73472083
54.022682 77.525299 -0.46939194
49.211067 84.047943 0
54.016647 77.533478 0.46967581
57.165016 73.25383 -0.95897067
56.167442 74.604439 -0.73472083
54.026863 77.502548 -0.46881136
49.195869 84.04319 0
54.03009 77.498184 0.4686597
57.166061 73.229057 -0.95725876
56.17926 74.561707 -0.73241448
54.038383 77.452904 -0.46750525
49.211926 83.970917 0
54.026157 77.469421 0.46807912
57.164097 73.20842 -0.95597446
56.144917 74.581329 -0.73443282
54.04073 77.415817 -0.46663415
49.234337 83.89035 0
54.025375 77.436501 0.46735358
57.146851 73.208389 -0.95682961
56.144493 74.555229 -0.73327965
54.046234 77.374603 -0.46561858
49.256927 83.80986 0
54.024658 77.403595 0.46662802
57.147999 73.183655 -0.95511937
56.134834 74.541588 -0.73299164
54.03941 77.35006 -0.46518302
49.251671 83.767006 0
54.036434 77.35405 0.4653219
57.149208 73.15892 -0.95340747
56.131401 74.519646 -0.73212647
54.054405 77.29641 -0.46373191
49.218445 83.761681 0
54.042099 77.312866 0.46430579
57.128914 73.162949 -0.95469016
56.10318 74.530823 -0.73356766
54.041462 77.280228 -0.46358693
49.200829 83.735474 0
54.03849 77.284195 0.46372521
57.127094 73.142342 -0.95340747
56.109108 74.496468 -0.73183846
54.044167 77.243256 -0.4627158
49.15823 83.742531 0
54.04118 77.247231 0.46285465
64 64 -0
57.119152 73.129921 -0.95297831
56.096428 74.486931 -0.73183846
54.043808 77.210464 -0.46199024
49.150047 83.703796 0
54.028316 77.231026 0.4627091
57.117401 73.109322 -0.95169562
56.090008 74.469109 -0.73126131
54.046646 77.173561 -0.46111968
49.126251 83.685844 0
54.031128 77.194092 0.46183854
57.109509 73.096893 -0.95126641
56.077362 74.459541 -0.73126131
54.046432 77.140793 -0.46039358
49.096184 83.676163 0
54.037159 77.153038 0.46082243
57.103092 73.059792 -0.94912702
56.070904 74.41568 -0.72953212
54.049324 77.071228 -0.45879745
49.039227 83.652504 0
54.043179 77.0793 0.45908076
57.101486 73.039223 -0.94784433
56.067741 74.393745 -0.72866696
54.039848 77.050926 -0.45850688
48.99654 83.659241 0
54.03368 77.059006 0.45879075
57.093697 73.026787 -0.94741511
56.052048 74.38826 -0.72895497
54.049347 77.005859 -0.45734578
49.013908 83.587364 0
54.043171 77.013939 0.45762965
57.082794 73.01844 -0.94741511
56.042648 74.37455 -0.72866696
54.049454 76.973213 -0.45662022
49.009266 83.544456 0
54.040108 76.985397 0.45704907
57.068764 73.014153 -0.94784433
56.036419 74.356735 -0.72809094
54.046455 76.944702 -0.45603967
48.979309 83.534592 0
54.049767 76.940399 0.45588797
57.070415 72.98951 -0.94613248
56.020756 74.351196 -0.72837895
54.059372 76.89563 -0.45473355
49.022446 83.429855 0
54.056335 76.899567 0.4548724
57.068981 72.968933 -0.94484818
56.024067 74.321083 -0.72693777
54.056511 76.867157 -0.454153
48.998978 83.411743 0
54.050293 76.875198 0.45443684
57.06356 72.964745 -0.94484818
56.01783 74.316261 -0.72693777
54.058281 76.848816 -0.45371744
49.022293 83.357391 0
54.058414 76.84864 0.4537113
57.06218 72.944183 -0.94356382
56.002205 74.310699 -0.72722578
54.065048 76.80806 -0.45270187
49.078667 83.236465 0
54.062016 76.811974 0.45284018
57.051376 72.935799 -0.94356382
55.999283 74.288773 -0.72636062
54.062344 76.779633 -0.45212132
49.122528 83.132141 0
54.059303 76.783546 0.45225963
57.053211 72.911194 -0.94185197
55.986855 74.279099 -0.72636062
54.069275 76.738922 -0.45110521
49.12822 83.077209 0
54.059837 76.751038 0.45153406
57.048767 72.894714 -0.94099689
55.977623 74.265335 -0.72607261
54.05389 76.726913 -0.45110521
49.118 83.042816 0
54.060432 76.718544 0.4508085
57.041187 72.882271 -0.94056928
55.971611 74.247482 -0.72549546
54.064163 76.682159 -0.44994408
49.104622 83.012543 0
54.061096 76.686073 0.45008296
57.02729 72.877892 -0.94099689
55.962429 74.233704 -0.72520745
54.074524 76.637451 -0.44878298
54.119263 76.58049 0
54.058613 76.657707 0.44950238
57.038803 72.841217 -0.93800068
55.956463 74.215866 -0.72463143
54.072121 76.609116 -0.4482024
54.100853 76.572624 0
54.059399 76.625275 0.44877684
57.040848 72.816681 -0.93628883
55.950539 74.198013 -0.72405428
54.07299 76.576721 -0.44747686
54.095333 76.548409 0
54.05381 76.601013 0.44834128
57.01746 72.824371 -0.93800068
55.941429 74.184227 -0.72376627
54.070698 76.548416 -0.44689628
54.099564 76.511932 0
55.586403 74.632904 0.37867767
57.022751 72.795815 -0.93586123
55.925919 74.178528 -0.72405428
54.074913 76.511986 -0.44602573
55.546471 74.656883 0
55.547726 74.655296 0.37983879
57.012127 72.787384 -0.93586123
55.916843 74.164719 -0.72376627
54.075974 76.479645 -0.44530016
55.510918 74.675179 0
55.528381 74.653221 0.38012934
57.004715 72.774918 -0.93543369
55.904568 74.154945 -0.72376627
54.067387 76.459511 -0.44500962
55.472069 74.697472 0
55.51228 74.647034 0.38027436
57.013351 72.742386 -0.93286508
55.901993 74.133034 -0.72290111
54.065315 76.431267 -0.44442907
55.50465 74.630226 0
55.505913 74.628647 0.37998378
57.002792 72.73394 -0.93286508
55.896217 74.115173 -0.72232509
54.047047 76.423317 -0.44457462
55.56665 74.526535 0
55.499573 74.610268 0.37969378
56.995457 72.721481 -0.93243754
55.887238 74.101341 -0.72203708
55.480103 74.608276 -0.37999049
55.563721 74.504166 0
55.493259 74.591896 0.3794038
56.984924 72.713013 -0.93243754
55.875038 74.091537 -0.72203708
55.437965 74.634399 -0.3812966
55.537979 74.510178 0
55.477211 74.585655 0.37954879
56.996979 72.676559 -0.92944133
55.866112 74.077675 -0.72174793
55.431641 74.615967 -0.3810066
55.463169 74.576904 0
55.457905 74.583427 0.37983879
56.989723 72.664101 -0.92901379
55.863693 74.055786 -0.72088391
64 64 -0
55.430756 74.590851 0
55.454918 74.560989 0.3794038
56.997417 72.643906 -0.92730188
55.851112 74.058899 -0.72145993
55.435318 74.572151 -0.37999049
55.447296 74.557358 0
55.50415 74.487183 0.37693655
56.980499 72.643417 -0.92815864
55.848747 74.036995 -0.72059476
55.445473 74.533562 -0.37897491
55.470634 74.502586 0
55.563568 74.388153 0.37374321
56.976551 72.626961 -0.92730188
55.826828 74.039177 -0.72145993
55.432751 74.523224 -0.37897491
55.494099 74.447868 0
55.610077 74.305412 0.37113097
56.982361 72.598587 -0.92516249
55.814701 74.029289 -0.72145993
55.420044 74.512863 -0.37897491
55.504509 74.409363 0
55.610771 74.27916 0.37055042
56.965481 72.598038 -0.92601758
55.805862 74.015396 -0.72117192
55.420509 74.486397 -0.37839437
55.511719 74.374916 0
55.601646 74.264999 0.37040541
56.977879 72.561752 -0.92302305
55.787212 74.013481 -0.72174793
55.430916 74.447891 -0.37737826
55.545395 74.308311 0
55.592541 74.250832 0.37026042
56.961021 72.561188 -0.92387819
55.781685 73.99556 -0.72117192
55.418301 74.437531 -0.37737826
55.539562 74.290039 0
55.590065 74.228615 0.36982486
56.957207 72.544762 -0.92302305
55.756451 74.001595 -0.72232509
55.422218 74.407104 -0.37665269
55.5172 74.291862 0
55.587631 74.206413 0.3693893
56.946888 72.53624 -0.92302305
55.750969 73.983643 -0.72174793
55.42289 74.380707 -0.37607214
55.508083 74.277603 0
55.581921 74.188232 0.36909929
56.943134 72.519798 -0.92216629
55.725712 73.989601 -0.72290111
55.423615 74.354324 -0.37549159
55.498989 74.263329 0
55.569618 74.178055 0.36909929
56.942677 72.499428 -0.92088366
55.716949 73.975624 -0.7226131
55.41111 74.343956 -0.37549159
55.473293 74.269066 0
55.530766 74.199852 0.37026042
56.935703 72.486938 -0.92045444
55.711514 73.957664 -0.72203708
55.42189 74.305603 -0.37447545
55.474213 74.242752 0
55.478561 74.237526 0.37200153
56.938614 72.462624 -0.91874254
55.689552 73.959541 -0.72290111
55.422764 74.279274 -0.3738949
55.465187 74.228439 0
55.446217 74.251167 0.37287265
56.918507 72.465904 -0.9200269
55.677528 73.949493 -0.72290111
55.420345 74.256958 -0.37345991
55.456169 74.214127 0
55.437164 74.236847 0.37272766
56.931366 72.429817 -0.91703236
55.658855 73.947365 -0.72347826
55.414642 74.238609 -0.37316933
55.443832 74.203796 0
55.414795 74.238426 0.37316266
56.921185 72.421265 -0.91703236
55.650169 73.933327 -0.72319025
55.412312 74.216293 -0.37273377
55.404716 74.225327 0
55.405769 74.224068 0.37301764
56.907707 72.416634 -0.91745991
55.634842 73.927177 -0.72347826
55.406666 74.197968 -0.3724438
55.378952 74.23085 0
55.410164 74.19381 0.3722921
56.910797 72.392365 -0.915748
55.616184 73.924957 -0.72405428
55.411114 74.167725 -0.37171823
55.373306 74.212486 0
55.391151 74.19136 0.37258211
56.907303 72.375954 -0.91489124
55.610878 73.906937 -0.72347826
55.405556 74.149399 -0.37142766
55.367706 74.194099 0
55.368767 74.192848 0.37301764
56.902245 72.371666 -0.91489124
55.604893 73.901863 -0.72347826
55.399426 74.144211 -0.37142766
55.351448 74.200798 0
55.359253 74.191589 0.37316266
56.898777 72.355263 -0.91403615
55.582882 73.903542 -0.72434342
55.397263 74.121941 -0.37099266
55.352612 74.174477 0
55.313282 74.220749 0.37461433
56.902004 72.331047 -0.91232431
55.56757 73.897301 -0.72463143
55.391785 74.103622 -0.37070212
55.37746 74.120438 0
55.311054 74.19838 0.37417877
56.888611 72.326363 -0.91275185
55.548904 73.894966 -0.72520745
55.396454 74.073456 -0.36997655
55.422699 74.042725 0
55.315609 74.168114 0.3734532
56.888577 72.306061 -0.91146755
55.536953 73.884743 -0.72520745
55.387669 74.059113 -0.36983156
55.441036 73.996773 0
55.326992 74.129974 0.37243709
56.885227 72.28968 -0.9106124
55.53849 73.85881 -0.72405428
55.392441 74.028984 -0.36910599
55.439137 73.974571 0
55.33506 74.09584 0.37156653
56.888611 72.265511 -0.90890056
55.499596 73.879951 -0.72636062
55.383728 74.014626 -0.36896044
55.423683 73.968178 0
55.336426 74.069603 0.37098598
56.875278 72.260796 -0.9093281
55.501179 73.854004 -0.72520745
55.361446 74.016014 -0.369396
55.391258 73.981453 0
55.348026 74.03157 0.36996987
56.872009 72.244415 -0.90847301
55.489277 73.843727 -0.72520745
55.362946 73.989845 -0.36881545
55.348568 74.00647 0
55.342705 74.01326 0.36967987
56.872147 72.224159 -0.90718865
55.480774 73.829529 -0.72491944
55.333866 73.999031 -0.36954099
55.302387 74.035355 0
55.330608 74.002792 0.36967987
56.862213 72.215538 -0.90718865
55.468903 73.819229 -0.72491944
55.321793 73.988556 -0.36954099
55.283447 74.032684 0
55.301491 74.011917 0.37040541
56.855659 72.203041 -0.90676111
55.460438 73.805016 -0.72463143
55.306305 73.981995 -0.36968654
55.274746 74.018227 0
55.248444 74.048431 0.37214708
56.869392 72.167328 -0.90376496
55.441799 73.802475 -0.72520745
55.27375 73.994957 -0.3705571
55.286613 73.980225 0
55.236305 74.037842 0.37214708
56.85276 72.166435 -0.90462172
55.433365 73.788239 -0.72491944
55.258259 73.988312 -0.37070212
55.29512 73.946198 0
55.213928 74.038971 0.37258211
56.842899 72.157791 -0.90462172
55.414726 73.785652 -0.72549546
55.246197 73.977745 -0.37070212
55.283108 73.935669 0
55.212074 74.01664 0.37214708
56.836449 72.145279 -0.90419251
55.402908 73.775269 -0.72549546
55.234146 73.967163 -0.37070212
55.257362 73.940765 0
55.18969 74.017708 0.37258211
56.826611 72.136612 -0.90419251
55.394524 73.761002 -0.72520745
55.201485 73.979958 -0.37157324
55.200611 73.980949 0
55.187893 73.995369 0.37214708
56.840572 72.101021 -0.90119797
55.379311 73.754463 -0.72549546
55.185993 73.973213 -0.37171823
55.17477 73.985909 0
55.199917 73.957458 0.37113097
56.829308 72.084198 -0.90077043
55.375366 73.723358 -0.72434342
55.133453 73.996094 -0.37316933
55.208496 73.911484 0
55.150848 73.976479 0.37243709
56.816135 72.079361 -0.90119797
55.367069 73.709053 -0.72405428
55.128281 73.977608 -0.37287936
55.27261 73.815285 0
55.076653 74.035675 0.37504932
56.809792 72.066841 -0.90077043
55.362221 73.690903 -0.72347826
55.092033 73.994026 -0.3738949
55.31617 73.742569 0
54.995373 74.102478 0.37795213
56.796631 72.061974 -0.90119797
55.360863 73.668884 -0.7226131
55.059181 74.006516 -0.37476602
55.339077 73.69326 0
54.965862 74.110962 0.37867767
56.793755 72.045609 -0.90034121
55.373348 73.631454 -0.72059476
55.060966 73.980225 -0.37418547
55.337791 73.67115 0
55.03339 74.011009 0.3753399
56.79089 72.029259 -0.89948606
55.344425 73.640282 -0.72203708
55.021141 74.000351 -0.37534657
55.322639 73.664551 0
55.104626 73.907364 0.37185654
56.784626 72.016731 -0.89905852
55.35701 73.602898 -0.72001874
55.019497 73.977898 -0.37491101
55.29356 73.673401 0
55.141327 73.842537 0.36982486
56.76807 72.015625 -0.89991367
55.331554 73.607811 -0.72117192
54.986565 73.990189 -0.37578157
55.267933 73.678329 0
55.143368 73.816391 0.36924431
56.761833 72.003075 -0.89948606
55.333832 73.581985 -0.72001874
54.957062 73.998573 -0.3765077
55.217834 73.710236 0
55.128029 73.809532 0.3693893
56.77631 71.967697 -0.89648992
55.332687 73.560005 -0.71915358
54.934525 73.999176 -0.37694269
55.174648 73.734322 0
55.126659 73.787254 0.36895373
56.745964 71.981766 -0.89905852
55.324615 73.5457 -0.71886557
54.918945 73.992073 -0.37708825
55.134888 73.754463 0
55.100857 73.791908 0.36953431
56.739792 71.969185 -0.89862931
55.327023 73.519913 -0.7177124
54.878891 74.01181 -0.37824881
55.081043 73.789917 0
55.092529 73.777313 0.3693893
56.744015 71.945244 -0.89691746
55.298088 73.528526 -0.71915358
54.852783 74.016129 -0.37882936
55.048164 73.802185 0
55.066704 73.781891 0.36996987
56.741348 71.928902 -0.89606237
55.29007 73.514191 -0.71886557
54.837166 74.008919 -0.37897491
55.04335 73.783691 0
55.051384 73.774918 0.37011486
56.728306 71.923904 -0.89648992
55.30307 73.476974 -0.71684724
54.804005 74.020805 -0.37984547
55.028023 73.776695 0
55.007946 73.798569 0.37142155
56.72221 71.911339 -0.89606237
55.291622 73.466461 -0.71684724
54.791901 74.009682 -0.37984547
55.023254 73.758194 0
54.967979 73.818283 0.37258211
56.712654 71.902542 -0.89606237
55.301224 73.433121 -0.71511805
54.75515 74.025299 -0.38086161
55.007946 73.75116 0
54.927937 73.837921 0.37374321
56.71357 71.882416 -0.89477801
55.289833 73.422607 -0.71511805
54.711296 74.048462 -0.3821677
54.989109 73.747925 0
54.901947 73.842216 0.37432376
56.707535 71.869843 -0.89435047
55.292519 73.396896 -0.71396488
54.653244 74.086784 -0.38405439
54.984406 73.729401 0
54.893589 73.827408 0.37417877
56.698032 71.861023 -0.89435047
55.263573 73.405312 -0.71540606
54.552647 74.17067 -0.38768274
54.976196 73.714691 0
54.920631 73.774513 0.37258211
56.693283 71.856613 -0.89435047
55.279022 73.377312 -0.71367687
54.493427 74.222031 -0.38985941
54.959705 73.720657 0
54.939491 73.742393 0.37156653
56.701298 71.82901 -0.89221108
55.292393 73.340279 -0.71165854
54.463352 74.229553 -0.39058551
54.937317 73.721153 0
54.927727 73.731445 0.37156653
56.688343 71.823929 -0.89263862
55.28817 73.322197 -0.71108252
54.46875 74.199028 -0.38985941
54.922024 73.713997 0
54.933712 73.701492 0.37084097
56.6824 71.811348 -0.89221108
55.287525 73.300339 -0.71021736
54.449322 74.195099 -0.39014995
54.871147 73.744812 0
54.932659 73.679146 0.37040541
56.683514 71.791267 -0.89092672
55.262131 73.304886 -0.71137053
54.444134 74.175964 -0.38985941
54.780998 73.817238 0
54.928093 73.660599 0.37011486
56.67762 71.778687 -0.89049917
55.265076 73.279259 -0.71021736
54.485264 74.107658 -0.38768274
54.658554 73.923569 0
54.934235 73.630714 0.3693893
56.671749 71.766098 -0.89007163
55.246777 73.276215 -0.71079338
54.455231 74.115051 -0.3884083
54.550117 74.014496 0
54.908337 73.634872 0.36996987
56.658844 71.760971 -0.89049917
55.264011 73.235565 -0.70848703
54.471584 74.073311 -0.38724717
54.487957 74.056 0
54.893135 73.627655 0.37011486
56.660072 71.740913 -0.88921487
55.259972 73.217499 -0.70791101
54.455849 74.065552 -0.38739216
54.482971 74.036949 0
54.885078 73.612877 0.36996987
56.657791 71.724602 -0.88835979
55.245277 73.210678 -0.70819902
54.454422 74.042725 -0.38695717
54.463684 74.032982 0
54.880623 73.59433 0.36967987
56.648464 71.715721 -0.88835979
55.23772 73.19635 -0.70791101
54.46381 74.008606 -0.38608605
54.462341 74.010147 0
54.865456 73.587059 0.36982486
56.646248 71.699402 -0.88750303
55.230186 73.182022 -0.707623
54.462482 73.985809 -0.38565105
54.479015 73.968498 0
54.843109 73.587296 0.37026042
56.654697 71.671974 -0.88536358
55.226257 73.16394 -0.70704585
54.461208 73.963013 -0.38521549
54.470573 73.953232 0
54.835133 73.572456 0.37011486
56.638329 71.670494 -0.88621867
55.218773 73.149597 -0.70675784
54.46357 73.936478 -0.38463494
54.462154 73.937958 0
54.798382 73.587624 0.37113097
56.621941 71.668999 -0.88707542
55.211304 73.135262 -0.70646983
54.451572 73.92495 -0.38463494
54.475418 73.900169 0
54.768791 73.595222 0.37185654
56.630497 71.641602 -0.88493603
55.203861 73.120911 -0.70618182
54.461239 73.890953 -0.38376382
54.463463 73.888649 0
54.73917 73.60276 0.37258211
56.639107 71.614243 -0.88279659
55.203636 73.099121 -0.70531666
54.46373 73.864487 -0.38318384
54.465988 73.862152 0
54.713127 73.606514 0.37316266
56.629913 71.605339 -0.88279659
55.196243 73.08477 -0.70502865
54.455444 73.84922 -0.38303828
54.461319 73.843155 0
54.531555 73.770676 0.37998378
56.631462 71.585381 -0.88151228
55.203308 73.055565 -0.70358634
54.461651 73.819046 -0.38231272
54.471199 73.809219 0
54.476303 73.803963 0.38172546
56.634048 71.573555 -0.88065553
55.187012 73.061378 -0.7044515
54.466595 73.802101 -0.38187715
64 64 0
54.430519 73.839188 0.38332215
56.639236 71.54995 -0.87894368
55.186909 73.039604 -0.70358634
54.451118 73.794304 -0.38202271
54.467957 73.777039 0
54.411392 73.835052 0.38361213
56.630119 71.541046 -0.87894368
55.165142 73.040054 -0.7044515
54.464722 73.756737 -0.3810066
54.467068 73.754341 0
54.392242 73.830902 0.3839027
56.631783 71.521149 -0.87766099
55.154224 73.029373 -0.7044515
54.449306 73.748917 -0.38115159
54.466217 73.731659 0
54.431278 73.767319 0.38187101
56.6227 71.512238 -0.87766099
55.165062 72.996536 -0.70272231
54.455738 73.718834 -0.38042605
54.461754 73.712708 0
54.444977 73.72979 0.3808549
56.606434 71.510628 -0.87851608
55.161461 72.978477 -0.70214516
54.454941 73.696182 -0.37999049
54.46463 73.68634 0
54.429585 73.721939 0.38099989
56.604568 71.494385 -0.87766099
55.15062 72.967789 -0.70214516
54.443233 73.684639 -0.37999049
64 64 0
64 64 0
56.591911 71.48909 -0.87808853
55.143425 72.953415 -0.70185715
54.413269 73.691559 -0.38071603
54.433937 73.670662 0
64 64 0
56.575645 71.487419 -0.87894368
55.150822 72.924347 -0.70041597
54.408875 73.672592 -0.38042605
54.422256 73.659096 0
64 64 0
57.646561 70.391937 -0.99825591
56.57745 71.467529 -0.87766099
55.143688 72.909981 -0.70012796
54.408188 73.649933 -0.37999049
54.403248 73.654907 0
64 64 0
57.642426 70.380661 -0.99769354
56.557571 71.469452 -0.87894368
55.125633 72.906593 -0.70070398
54.385529 73.649384 -0.38042605
54.384247 73.650673 0
64 64 0
57.627533 70.380173 -0.99882036
64 64 -0
55.125847 72.88488 -0.69983882
54.366539 73.645111 -0.38071603
54.361557 73.650101 0
54.344666 73.667007 0.38158047
57.630615 70.361694 -0.99713117
56.557701 71.433311 -0.87680423
55.13707 72.852226 -0.69810963
54.351204 73.637146 -0.38086161
54.331493 73.65683 0
54.307251 73.681046 0.38259658
57.637333 70.339645 -0.99487966
56.548725 71.424316 -0.87680423
55.115387 72.85247 -0.69897479
54.321163 73.643814 -0.38158715
54.323517 73.641472 0
54.291882 73.672989 0.38274157
57.618862 70.342705 -0.99656886
56.5616 71.393593 -0.87423724
55.108376 72.838066 -0.69868565
54.294773 73.646767 -0.3821677
54.304497 73.6371 0
54.258091 73.683228 0.38361213
57.625637 70.320671 -0.99431729
56.53809 71.399063 -0.87594914
55.105042 72.820038 -0.69810963
54.268364 73.649673 -0.38274828
54.274384 73.6437 0
54.242699 73.675125 0.38375768
57.621628 70.309387 -0.99375284
56.55471 71.364761 -0.87295294
55.112774 72.7911 -0.69666845
54.253021 73.641556 -0.38289326
54.236832 73.65757 0
54.212543 73.681595 0.38448325
57.621235 70.29454 -0.9926281
56.534851 71.366585 -0.87423724
55.102158 72.780357 -0.69666845
54.219189 73.651665 -0.38376382
54.217751 73.653084 0
54.189751 73.680717 0.38491881
57.602768 70.297523 -0.99431729
56.551567 71.332344 -0.87124109
55.087875 72.773224 -0.69695646
54.196419 73.650787 -0.38419938
54.191257 73.655869 0
54.174362 73.672501 0.3850638
57.606045 70.279106 -0.9926281
56.539055 71.326927 -0.87166864
55.092041 72.747948 -0.69580328
54.173637 73.649857 -0.38463494
54.179596 73.644005 0
54.144146 73.678818 0.38578936
57.591362 70.285919 -0.99431729
56.545616 71.311646 -0.87038594
55.101532 72.728073 -0.69465011
54.160397 73.651192 -0.38492495
54.155197 73.656288 0
54.130886 73.680138 0.38607937
57.583775 70.278175 -0.99431729
56.544132 71.295448 -0.86952919
55.090992 72.717316 -0.69465011
54.12645 73.66111 -0.38579607
54.124939 73.662582 0
54.10434 73.682739 0.38665992
57.583473 70.263306 -0.99319047
56.527966 71.29361 -0.87038594
55.102669 72.684875 -0.69292092
54.103638 73.660049 -0.38623106
54.124447 73.63974 0
54.077774 73.685295 0.38724047
57.590473 70.241371 -0.9909389
56.526524 71.277405 -0.86952919
55.099602 72.666893 -0.69234377
54.088238 73.651726 -0.38637662
54.090424 73.64959 0
54.054901 73.684181 0.38767603
57.579052 70.222328 -0.99037659
56.520008 71.248619 -0.86824656
55.07497 72.648956 -0.69263178
54.046284 73.645821 -0.38710219
54.037247 73.654579 0
54.016602 73.674591 0.38825661
57.56424 70.221626 -0.99150127
56.522331 71.228867 -0.86696219
55.068241 72.634575 -0.69234377
54.012226 73.655457 -0.38797274
54.021835 73.646164 0
54.004917 73.662514 0.38825661
57.578667 70.192688 -0.98812503
56.521004 71.212692 -0.86610544
55.057816 72.623772 -0.69234377
53.996815 73.646996 -0.3881183
54.002701 73.641319 0
54.041878 73.603539 0.38636991
57.58218 70.174347 -0.98643583
56.512291 71.203644 -0.86610544
55.054852 72.605797 -0.69176775
54.007645 73.613274 -0.38724717
54.036072 73.58593 0
54.052757 73.56987 0.38549882
57.563721 70.177147 -0.98812503
56.510994 71.187492 -0.86525035
55.04073 72.598557 -0.69205576
54.03727 73.561623 -0.38565105
54.065792 73.534248 0
54.131172 73.471497 0.38201603
57.585625 70.141251 -0.98362195
56.498611 71.181984 -0.86567789
55.063972 72.555534 -0.68946141
54.089535 73.48848 -0.38318384
54.069321 73.507835 0
54.142265 73.437996 0.38114491
57.570854 70.140526 -0.98474884
56.50108 71.16227 -0.86439359
55.053642 72.544731 -0.68946141
54.119419 73.437012 -0.38158715
54.129356 73.427521 0
54.145905 73.41172 0.38056433
57.563438 70.132751 -0.98474884
