# .PCD v0.7 - Point Cloud Data file format
VERSION 0.7
FIELDS x y z
SIZE 4 4 4
TYPE F F F
COUNT 1 1 1
WIDTH 1896
HEIGHT 1
VIEWPOINT 0 0 0 1 0 0 0
POINTS 1896
DATA ascii
73.243439 59.346367 -0.57674432
73.223946 59.356186 -0.28841236
76.526283 57.693615 0
76.519257 57.697151 0.39144939
73.232094 59.380013 -0.8605423
73.2593 59.366398 -0.57703346
73.235138 59.378487 -0.28841236
76.522865 57.733223 0
73.444054 59.273941 0.29493681
73.242279 59.38887 -0.86097151
64 64 -0
73.236069 59.391968 -0.28826734
76.521118 57.753002 0
73.41256 59.303917 0.29377568
73.23864 59.404621 -0.86011475
73.242676 59.402615 -0.57530314
73.218369 59.414703 -0.28754181
76.551956 57.756546 0
73.43219 59.308346 0.29421124
73.244186 59.415787 -0.86011475
73.252853 59.411488 -0.57559115
73.237862 59.418922 -0.2879768
76.526848 57.787907 0
73.405258 59.335911 0.29319513
73.235909 59.433788 -0.85883045
73.253754 59.424965 -0.57530314
73.229424 59.436993 -0.28754181
76.529678 57.805351 0
73.420189 59.342678 0.29348513
73.250633 59.440407 -0.85968721
73.254639 59.438431 -0.57501513
73.239586 59.445854 -0.28768679
76.541824 57.818199 0
73.421158 59.356358 0.29334012
73.24231 59.458382 -0.85840285
73.25087 59.454178 -0.57443911
73.235748 59.461609 -0.28739622
76.539948 57.837944 0
73.422104 59.370037 0.29319513
73.243187 59.471809 -0.8579753
73.251694 59.46764 -0.57414997
73.241226 59.472771 -0.28739622
76.547386 57.8531 0
73.427689 59.381424 0.29319513
73.23941 59.487492 -0.85711855
73.261826 59.476547 -0.57443911
73.251373 59.481651 -0.28754181
76.545456 57.872829 0
73.405251 59.406498 0.29232457
73.254105 59.49416 -0.8579753
73.25798 59.492271 -0.57386196
73.252136 59.495117 -0.28739622
76.548157 57.890278 0
73.345375 59.449722 0.29029232
73.254929 59.507584 -0.85754776
64 64 -0
73.24823 59.510834 -0.28710625
76.457207 57.953175 0
73.327492 59.472363 0.28956679
73.251099 59.523247 -0.856691
64 64 -0
73.248978 59.524273 -0.28696123
76.014755 58.185871 0
73.31424 59.492691 0.28898621
73.242622 59.541122 -0.8554067
64 64 -0
73.240334 59.542229 -0.28652567
75.796745 58.308949 0
73.310333 59.508461 0.28869623
73.243378 59.55452 -0.85497916
73.256348 59.548279 -0.57242078
73.259766 59.546638 -0.28696123
75.74733 58.350277 0
73.31105 59.521973 0.28855065
73.255325 59.555656 -0.85583591
73.259041 59.553871 -0.57242078
73.253075 59.556736 -0.28667068
75.755447 58.355118 0
73.313759 59.527596 0.28855065
73.251419 59.571281 -0.85497916
73.259743 59.567295 -0.57213277
73.267822 59.563427 -0.28696123
75.752853 58.373825 0
73.319153 59.538853 0.28855065
73.256767 59.582462 -0.85497916
73.255745 59.582947 -0.57155561
73.24971 59.585827 -0.28623512
75.759644 58.388031 0
73.329239 59.547874 0.28869623
73.248184 59.600269 -0.8536948
73.256409 59.596355 -0.5712676
73.245659 59.601467 -0.28594512
75.74762 58.411186 0
73.339302 59.556919 0.28884122
73.262779 59.60704 -0.85455155
73.252365 59.61198 -0.57069045
73.26506 59.605961 -0.28638068
75.744965 58.42984 0
73.35405 59.563759 0.28913122
73.235588 59.633598 -0.85155541
73.252991 59.625374 -0.57040244
73.24688 59.628262 -0.28565511
75.765793 58.43737 0
73.415779 59.548409 0.2908729
73.254791 59.638195 -0.85283971
73.262947 59.634354 -0.57069045
73.252151 59.639439 -0.28565511
75.758392 58.458241 0
73.501068 59.522125 0.29334012
73.260056 59.64938 -0.85283971
73.263535 59.647747 -0.57040244
73.224487 59.666092 -0.284639
75.755646 58.476883 0
73.567612 59.504883 0.29522678
73.246704 59.669281 -0.85112786
64 64 -0
73.243835 59.670628 -0.28507456
75.748184 58.497707 0
73.643631 59.483383 0.29740402
73.261246 59.676109 -0.85198462
64 64 -0
73.239639 59.686199 -0.28478402
75.740677 58.518517 0
73.686752 59.477448 0.29856515
73.261795 59.689476 -0.85155541
64 64 -0
73.244843 59.697369 -0.28478402
75.780327 58.51733 0
73.706337 59.482586 0.29900014
73.25769 59.704987 -0.85070026
73.251625 59.707802 -0.56838524
73.235886 59.715103 -0.28434846
75.763321 58.542526 0
73.721222 59.489937 0.29929072
73.244232 59.724796 -0.84898841
64 64 -0
73.231628 59.730625 -0.28405845
75.788803 58.548008 0
73.703087 59.512592 0.29856515
73.244736 59.738117 -0.84856087
73.271362 59.725845 -0.56896126
73.246216 59.737438 -0.28434846
73.569138 59.588566 0
73.717934 59.519974 0.29885516
73.254539 59.74715 -0.84898841
73.267128 59.741367 -0.56838524
73.270248 59.739933 -0.28492901
73.602829 59.587093 0
73.676125 59.553413 0.29740402
73.250328 59.762615 -0.84813166
73.258148 59.759033 -0.56752008
73.223427 59.774937 -0.28333288
73.6129 59.596527 0
73.648415 59.580261 0.29638791
73.246109 59.778057 -0.84727657
73.258568 59.772369 -0.56723207
73.237976 59.781773 -0.28362289
73.618217 59.608147 0
73.663208 59.587601 0.29667848
73.257996 59.779388 -0.84813166
73.256401 59.780113 -0.56694293
73.249985 59.783039 -0.28391343
73.601921 59.622593 0
73.680046 59.586979 0.29711348
73.244385 59.799076 -0.84641981
73.25679 59.793442 -0.56665492
73.259804 59.792072 -0.28405845
73.635628 59.621284 0
73.69957 59.592228 0.29754904
73.244781 59.812363 -0.84599221
73.266571 59.802498 -0.56694293
73.245941 59.81184 -0.2834779
73.655144 59.626484 0
73.714363 59.599655 0.29783958
73.254517 59.821426 -0.84641981
73.262215 59.817951 -0.56636691
73.265213 59.816597 -0.28391343
73.650925 59.642441 0
73.733871 59.604988 0.29827458
73.259552 59.832611 -0.84641981
73.267258 59.829144 -0.56636691
73.256035 59.834194 -0.2834779
73.627708 59.66692 0
73.724968 59.623146 0.29783958
73.250542 59.850101 -0.84513712
73.267578 59.842461 -0.5660789
73.227867 59.860275 -0.28246176
73.651932 59.670033 0
73.706528 59.645542 0.29711348
73.255554 59.861282 -0.84513712
64 64 -0
73.232864 59.871429 -0.28246176
73.638153 59.690197 0
73.645378 59.68697 0.29508179
73.246475 59.878742 -0.84385282
64 64 -0
73.223618 59.888927 -0.28202677
73.643356 59.701847 0
73.584137 59.728241 0.29305011
73.246758 59.891998 -0.84342527
64 64 -0
73.233322 59.897968 -0.28217179
73.65329 59.711391 0
75.417679 58.92754 0.34892589
73.261093 59.899021 -0.84428036
64 64 -0
73.22876 59.913342 -0.28188121
73.634674 59.733593 0
75.381035 58.960274 0.34761977
73.251968 59.916428 -0.84299767
64 64 -0
73.233688 59.924496 -0.28188121
75.82061 58.7827 0
75.387115 58.97403 0.34761977
73.256897 59.927612 -0.84299767
64 64 -0
73.219582 59.944027 -0.28130066
75.798332 58.809555 0
75.383659 58.991982 0.34732923
73.271202 59.934677 -0.84385282
64 64 -0
73.214966 59.959339 -0.28101066
75.795052 58.827999 0
75.389702 59.005741 0.34732923
73.261993 59.952053 -0.84256852
64 64 -0
73.253181 59.955906 -0.28202677
73.664711 59.776047 0
75.395729 59.019508 0.34732923
73.257469 59.967346 -0.84171337
64 64 -0
73.24852 59.971245 -0.28173622
73.703217 59.773174 0
75.377914 59.043655 0.34660366
73.262337 59.978535 -0.84171337
64 64 -0
73.234314 59.9907 -0.28115565
75.832817 58.862499 0
75.369591 59.063618 0.3461681
73.257759 59.993813 -0.84085661
64 64 -0
73.23439 60.003922 -0.28101066
75.824699 58.882996 0
75.385101 59.073227 0.34645867
73.272026 60.000931 -0.84171337
64 64 -0
73.24398 60.013027 -0.28115565
75.792641 58.91378 0
75.386276 59.089043 0.34631366
73.26741 60.016197 -0.84085661
64 64 -0
73.229691 60.03241 -0.2805751
75.832237 58.913647 0
75.387413 59.104866 0.3461681
73.265106 60.023819 -0.84042907
64 64 -0
73.212982 60.046185 -0.27999455
73.83606 59.77879 0
75.313972 59.144531 0.34384644
73.274612 60.032997 -0.84085661
64 64 -0
73.227318 60.05323 -0.28028509
73.874657 59.776344 0
75.319832 59.158203 0.34384644
73.255791 60.054272 -0.83871722
64 64 -0
73.227303 60.066418 -0.2801401
73.894119 59.782154 0
75.320885 59.173927 0.34370089
73.251114 60.069469 -0.83786207
64 64 -0
73.203346 60.089767 -0.27926898
73.899208 59.794113 0
75.326706 59.187611 0.34370089
73.255852 60.08065 -0.83786207
64 64 -0
73.217644 60.096832 -0.27955955
73.918663 59.799988 0
75.31337 59.209408 0.34312031
73.251114 60.095837 -0.83700532
64 64 -0
73.231918 60.103935 -0.27984953
73.918922 59.814003 0
75.319153 59.22308 0.34312031
73.260551 60.105026 -0.83743286
64 64 -0
73.188721 60.135239 -0.27839842
73.933578 59.821953 0
75.324913 59.236763 0.34312031
73.265251 60.116219 -0.83743286
64 64 -0
73.207748 60.140324 -0.27883342
73.938622 59.833958 0
75.335464 59.248432 0.34326586
73.269936 60.127419 -0.83743286
64 64 -0
73.178856 60.165466 -0.27781788
73.842796 59.888103 0
75.312416 59.274158 0.34239477
73.260406 60.144535 -0.83615023
64 64 -0
73.197861 60.170574 -0.27825287
75.856216 59.063801 0
75.33252 59.281834 0.3428303
73.269791 60.153763 -0.83657777
64 64 -0
73.207298 60.179695 -0.27839842
75.818909 59.096081 0
75.309418 59.30748 0.34195974
73.255455 60.172813 -0.83486593
64 64 -0
73.207092 60.192814 -0.27825287
64 64 0
75.329475 59.315193 0.34239477
73.274323 60.178131 -0.83615023
64 64 -0
73.211685 60.203941 -0.27825287
75.801842 59.136559 0
75.335129 59.328888 0.34239477
73.264526 60.208332 -0.83443832
64 64 -0
73.201607 60.234081 -0.27767286
75.784668 59.176918 0
75.322342 59.366135 0.3416692
73.259583 60.223412 -0.83358157
64 64 -0
73.196518 60.24913 -0.27738231
75.795303 59.189198 0
75.332741 59.377857 0.34181419
73.268906 60.232662 -0.83401078
64 64 -0
73.210686 60.256329 -0.27767286
75.801102 59.203453 0
75.338318 59.391556 0.34181419
73.259171 60.249649 -0.83272648
64 64 -0
73.215202 60.26746 -0.27767286
75.792412 59.223579 0
75.324608 59.413063 0.34123364
73.270943 60.2514 -0.83358157
64 64 -0
73.217453 60.273029 -0.27767286
75.790482 59.232655 0
75.322563 59.421852 0.34108865
73.270714 60.264519 -0.83315402
64 64 -0
73.226768 60.282227 -0.27781788
75.801056 59.244961 0
75.337738 59.431648 0.3413792
73.265701 60.279549 -0.83229893
64 64 -0
73.21196 60.301125 -0.2772373
75.806793 59.259224 0
75.323959 59.453094 0.34079865
73.255882 60.296471 -0.83101463
64 64 -0
73.230904 60.306465 -0.27767286
75.793182 59.281227 0
75.343903 59.460995 0.34123364
73.269882 60.303856 -0.83186972
64 64 -0
73.225693 60.321476 -0.27738231
75.803719 59.293549 0
75.334915 59.480476 0.34079865
73.274338 60.31506 -0.83186972
64 64 -0
73.239799 60.328781 -0.27767286
75.790054 59.315502 0
75.325874 59.499931 0.34036309
73.269249 60.330048 -0.83101463
64 64 -0
73.1959 60.359085 -0.27622119
75.790848 59.331673 0
75.331299 59.513622 0.34036309
73.273674 60.341248 -0.83101463
64 64 -0
73.238968 60.354942 -0.27738231
75.777115 59.353565 0
75.351219 59.521591 0.34079865
73.263748 60.358093 -0.82973027
64 64 -0
73.214355 60.37751 -0.27651176
75.787575 59.365887 0
75.351776 59.537216 0.34065309
73.282486 60.36367 -0.83101463
64 64 -0
73.213875 60.390549 -0.2763662
75.783463 59.383934 0
75.33297 59.560413 0.33992752
73.272522 60.380493 -0.82973027
64 64 -0
73.227921 60.397903 -0.27665675
75.803589 59.392498 0
75.357689 59.566551 0.34050807
73.26255 60.397278 -0.82844764
64 64 -0
73.217728 60.414707 -0.27622119
75.789742 59.41431 0
75.367874 59.578396 0.34065309
73.271675 60.406616 -0.82887518
64 64 -0
73.236595 60.420212 -0.27665675
75.785561 59.432323 0
75.344147 59.603401 0.33978254
73.256851 60.42522 -0.82716334
64 64 -0
73.245758 60.429504 -0.27680176
75.800789 59.442814 0
75.363998 59.611492 0.34021807
73.270744 60.432724 -0.82801843
64 64 -0
73.206421 60.457474 -0.27549565
75.786858 59.464554 0
75.374138 59.623363 0.34036309
73.255867 60.451283 -0.82630658
64 64 -0
73.200996 60.472321 -0.27520564
75.792328 59.478798 0
75.384262 59.63525 0.34050807
73.264961 60.460629 -0.82673573
64 64 -0
73.23922 60.470463 -0.27622119
75.792923 59.494907 0
75.394379 59.647156 0.34065309
73.271889 60.464401 -0.82716334
64 64 -0
73.212227 60.487152 -0.27535063
75.781052 59.507599 0
75.464996 59.628113 0.34268531
73.271362 60.477428 -0.82673573
64 64 -0
73.211609 60.50013 -0.27520564
75.781609 59.523682 0
75.538277 59.616135 0.344717
73.251587 60.497726 -0.82459468
64 64 -0
73.201248 60.516785 -0.27477008
75.787003 59.537922 0
75.577591 59.617195 0.34573311
73.265427 60.50528 -0.82545143
64 64 -0
73.234619 60.516903 -0.27564064
75.787521 59.554001 0
75.616905 59.618355 0.34674865
73.274445 60.514675 -0.82587898
64 64 -0
73.233955 60.529892 -0.27549565
75.783134 59.571915 0
75.680565 59.610458 0.34849033
73.259422 60.533085 -0.82416713
64 64 -0
73.228424 60.544693 -0.27520564
75.773849 59.591633 0
75.715073 59.61364 0.34936145
73.278038 60.538891 -0.82545143
64 64 -0
73.23259 60.555843 -0.27520564
75.788925 59.602219 0
75.7593 59.613274 0.35052201
73.267769 60.555473 -0.82416713
64 64 -0
73.231857 60.568817 -0.27506009
75.794235 59.616467 0
75.788963 59.618427 0.35124812
73.262306 60.570236 -0.82331204
64 64 -0
73.226257 60.583584 -0.27477008
75.809273 59.62711 0
75.842972 59.614632 0.35269925
73.256798 60.584988 -0.82245529
64 64 -0
73.235252 60.592937 -0.27491507
75.799911 59.646782 0
75.833633 59.634342 0.35226369
73.270569 60.592628 -0.82331204
64 64 -0
73.229614 60.607681 -0.27462506
75.785622 59.668224 0
64 64 0
73.26503 60.607365 -0.82245529
64 64 -0
73.189774 60.634922 -0.27331841
75.805496 59.677105 0
75.805107 59.67725 0.35110256
73.278778 60.61504 -0.82331204
64 64 -0
73.228012 60.63356 -0.27433452
75.800941 59.694939 0
75.810318 59.691517 0.35110256
73.268379 60.631519 -0.82202768
64 64 -0
73.222313 60.648258 -0.27404451
75.801247 59.710976 0
75.805756 59.709335 0.35081255
73.272438 60.642719 -0.82202768
64 64 -0
73.226357 60.659405 -0.27404451
75.791733 59.730556 0
75.796272 59.728912 0.35037699
73.281319 60.652184 -0.82245529
64 64 -0
73.225487 60.672325 -0.27389896
75.791992 59.746571 0
75.791656 59.746693 0.35008702
73.270874 60.668606 -0.8211726
64 64 -0
73.2295 60.683472 -0.27389896
75.792213 59.762589 0
75.806557 59.757431 0.35037699
73.270042 60.681545 -0.82074338
64 64 -0
73.204155 60.705135 -0.2730284
75.77774 59.783852 0
75.821472 59.768196 0.35066757
73.264381 60.696194 -0.81988829
64 64 -0
73.222816 60.711018 -0.27346396
75.787727 59.796337 0
75.797195 59.792961 0.34979644
73.273201 60.705673 -0.82031584
64 64 -0
73.21698 60.725647 -0.27317339
75.802597 59.807102 0
72.080711 61.129311 0.23949659
73.280029 60.709564 -0.82074338
64 64 -0
73.233658 60.726006 -0.27360895
75.790421 59.819447 0
72.053047 61.144615 0.23862547
73.274323 60.724197 -0.81988829
64 64 -0
73.2425 60.735435 -0.27375397
75.795464 59.833698 0
72.100586 61.138775 0.23993158
73.263741 60.740517 -0.81860399
64 64 -0
73.22683 60.753506 -0.27317339
75.79557 59.849686 0
75.805084 59.846336 0.34950644
73.277374 60.748314 -0.81946075
64 64 -0
73.220947 60.768089 -0.27288342
75.790756 59.867382 0
75.824814 59.855442 0.349942
73.271591 60.762913 -0.81860399
64 64 -0
73.210121 60.784374 -0.27244785
75.790833 59.883343 0
75.859245 59.859459 0.35081255
73.275497 60.77412 -0.81860399
64 64 -0
73.228729 60.790382 -0.27288342
75.795799 59.897594 0
75.84951 59.878914 0.35037699
73.274536 60.78701 -0.81817639
64 64 -0
73.242409 60.798138 -0.27317339
75.785988 59.916962 0
75.805382 59.910244 0.34892589
73.2687 60.801571 -0.81731963
64 64 -0
73.231552 60.814388 -0.2727384
75.79583 59.929512 0
75.825058 59.919426 0.34936145
73.267708 60.814438 -0.81689209
64 64 -0
73.23539 60.825546 -0.2727384
75.795822 59.945457 0
75.805389 59.942169 0.34863535
73.276398 60.823978 -0.81731963
64 64 -0
73.224464 60.841759 -0.27230284
75.805634 59.958031 0
75.825043 59.951382 0.34907091
73.265671 60.840157 -0.816037
73.285728 60.833313 -0.54676414
73.198753 60.862976 -0.27143174
75.805588 59.973976 0
75.805336 59.97406 0.34834534
73.28405 60.846405 -0.81731963
64 64 -0
73.246841 60.859043 -0.2727384
75.790726 59.994938 0
75.805275 59.989998 0.34820032
73.273277 60.862556 -0.816037
64 64 -0
73.211243 60.883545 -0.2715773
75.800484 60.007523 0
75.824867 59.999271 0.34863535
73.281921 60.872128 -0.81646454
64 64 -0
73.234703 60.888039 -0.27215785
75.810226 60.020123 0
75.814934 60.018536 0.34820032
73.275948 60.886616 -0.81560779
64 64 -0
73.228592 60.902508 -0.27186728
75.795288 60.041023 0
75.809875 60.036125 0.34790978
73.274841 60.899452 -0.81518024
64 64 -0
73.222481 60.916954 -0.2715773
75.809944 60.051971 0
75.814651 60.0504 0.34790978
73.268845 60.913902 -0.81432509
64 64 -0
73.250847 60.919891 -0.27230284
75.814713 60.066246 0
75.809563 60.067959 0.34761977
73.272568 60.925102 -0.81432509
64 64 -0
73.215103 60.94416 -0.27114174
75.804626 60.085442 0
71.986679 61.351517 0.23499712
73.269539 60.932323 -0.81389594
64 64 -0
73.23175 60.944828 -0.2715773
75.816879 60.089298 0
72.096809 61.320427 0.23818991
73.273239 60.943527 -0.81389594
64 64 -0
73.230484 60.957615 -0.27143174
75.806763 60.108471 0
72.090179 61.333462 0.23789991
73.276924 60.954731 -0.81389594
64 64 -0
73.234154 60.968773 -0.27143174
75.796616 60.127609 0
75.8162 60.121181 0.34732923
73.280594 60.965942 -0.81389594
64 64 -0
73.21312 60.988003 -0.27070618
75.801285 60.141869 0
75.855461 60.124157 0.34834534
73.273262 60.993126 -0.81261325
64 64 -0
73.235207 61.005466 -0.27114174
75.810577 60.170399 0
75.845024 60.159229 0.34776479
73.286652 61.001183 -0.81346834
64 64 -0
73.214096 61.024612 -0.27041617
75.805298 60.187866 0
75.844711 60.17514 0.34761977
73.27562 61.017117 -0.8121857
64 64 -0
73.207779 61.038933 -0.27012563
75.790077 60.208508 0
75.839424 60.192638 0.34732923
73.279221 61.028324 -0.8121857
64 64 -0
73.231148 61.04372 -0.27070618
75.80455 60.219585 0
75.844009 60.206947 0.34732923
73.277893 61.041103 -0.81175649
64 64 -0
73.249573 61.050137 -0.27114174
75.809113 60.233852 0
75.848587 60.221264 0.34732923
73.29126 61.049206 -0.81261325
64 64 -0
73.228371 61.06918 -0.27041617
75.808701 60.249699 0
75.833336 60.241875 0.34674865
73.294815 61.060436 -0.81261325
64 64 -0
73.217033 61.085033 -0.26998061
75.803307 60.267105 0
75.818047 60.262444 0.3461681
73.278778 61.077835 -0.8109014
64 64 -0
73.230453 61.093056 -0.27027062
75.817726 60.278244 0
75.832474 60.273602 0.34645867
73.282303 61.08905 -0.8109014
64 64 -0
73.243889 61.101097 -0.27056116
75.807312 60.297203 0
73.045326 61.163368 0.26474947
73.29071 61.09874 -0.81132895
64 64 -0
73.23745 61.115372 -0.27027062
75.791901 60.317677 0
73.058655 61.171204 0.26503947
73.284409 61.113014 -0.8104738
64 64 -0
73.275673 61.11573 -0.27128673
75.801331 60.330379 0
73.081917 61.17598 0.26562002
73.292793 61.122719 -0.8109014
64 64 -0
73.249374 61.136162 -0.27041617
75.815689 60.341564 0
73.060509 61.194637 0.26489446
73.28154 61.138489 -0.80961704
64 64 -0
73.232964 61.153461 -0.26983562
75.810165 60.35891 0
75.874634 60.339031 0.34703922
73.289894 61.148197 -0.81004465
64 64 -0
73.241356 61.163097 -0.26998061
75.819527 60.371655 0
75.844269 60.364059 0.34602311
73.281807 61.156815 -0.8091895
64 64 -0
73.223198 61.17477 -0.26940006
75.801804 60.384895 0
75.851433 60.369694 0.3461681
73.295044 61.165039 -0.81004465
64 64 -0
73.226601 61.185917 -0.26940006
75.806168 60.399158 0
71.695435 61.65292 0.22469264
73.283737 61.180744 -0.80876195
64 64 -0
73.234962 61.195557 -0.26954505
75.805534 60.414936 0
71.713181 61.657688 0.22512819
73.28714 61.191963 -0.80876195
64 64 -0
73.238342 61.206718 -0.26954505
75.834763 60.421673 0
75.854568 60.415684 0.34587809
73.30526 61.198753 -0.81004465
64 64 -0
73.256645 61.213387 -0.26998061
75.819138 60.441978 0
75.824059 60.440498 0.34486198
73.298813 61.212944 -0.8091895
64 64 -0
73.250061 61.227554 -0.2696906
75.818451 60.457752 0
75.833321 60.453297 0.34500697
73.282494 61.230053 -0.80747765
64 64 -0
73.238457 61.243195 -0.26925504
75.792786 60.480968 0
75.837601 60.467598 0.34500697
73.29567 61.23835 -0.80833274
64 64 -0
73.246765 61.25288 -0.26940006
75.787064 60.498184 0
75.846855 60.480419 0.34515256
73.294083 61.251041 -0.8079052
64 64 -0
73.235115 61.268478 -0.2689645
72.297577 61.54578 0
75.851097 60.494736 0.34515256
73.302315 61.260822 -0.80833274
64 64 -0
73.228455 61.282574 -0.26867449
72.260597 61.56757 0
75.855324 60.50906 0.34515256
73.290848 61.276394 -0.80705011
64 64 -0
73.246696 61.289337 -0.26911005
72.253548 61.580479 0
75.85453 60.524853 0.34500697
73.279343 61.291939 -0.80576575
64 64 -0
73.249962 61.300514 -0.26911005
72.251472 61.591911 0
75.853737 60.540634 0.34486198
73.292458 61.300289 -0.8066209
64 64 -0
73.233253 61.31749 -0.2685295
72.254379 61.601883 0
75.852921 60.556408 0.344717
73.300659 61.310089 -0.80705011
64 64 -0
73.246468 61.325764 -0.26881951
72.22226 61.621983 0
75.837105 60.576508 0.34413642
73.294029 61.324173 -0.80619335
64 64 -0
73.254677 61.335503 -0.2689645
72.230125 61.630478 0
75.851234 60.587933 0.34442699
73.292328 61.336819 -0.80576575
64 64 -0
73.262901 61.345253 -0.26911005
72.237984 61.638992 0
75.825363 60.610851 0.34355587
73.305405 61.345234 -0.8066209
64 64 -0
73.236107 61.365002 -0.26823893
72.711319 61.514721 0
71.746712 61.789917 0.2249832
73.288864 61.362083 -0.80491066
64 64 -0
73.259285 61.370487 -0.26881951
73.300095 61.358898 0
71.739365 61.802124 0.22469264
73.290459 61.367699 -0.80491066
64 64 -0
73.250877 61.37891 -0.2685295
73.321716 61.358841 0
71.705704 61.816711 0.22367708
73.293633 61.378925 -0.80491066
64 64 -0
73.249023 61.391506 -0.26838395
73.36998 61.357391 0
71.703323 61.827438 0.22353151
73.296791 61.390156 -0.80491066
64 64 -0
73.242172 61.405491 -0.26809394
71.970085 61.762596 0
71.715958 61.833935 0.22382207
73.299942 61.40139 -0.80491066
64 64 -0
73.255295 61.413864 -0.26838395
71.982819 61.769424 0
71.71357 61.844658 0.22367708
73.293167 61.415386 -0.8040539
64 64 -0
73.223381 61.434792 -0.26736838
71.990517 61.777679 0
71.711151 61.855377 0.22353151
73.296288 61.426617 -0.8040539
64 64 -0
73.246513 61.440395 -0.26794896
71.983154 61.790115 0
71.708733 61.866081 0.22338653
73.309296 61.43512 -0.80491066
64 64 -0
73.239563 61.45433 -0.26765838
72.00589 61.794231 0
71.736351 61.868496 0.22411208
73.292587 61.451801 -0.80319881
64 64 -0
73.267693 61.458626 -0.26838395
71.978447 61.812164 0
71.748955 61.875095 0.22440264
73.300606 61.461681 -0.80362636
64 64 -0
73.240685 61.478035 -0.26751339
71.966011 61.825916 0
71.781586 61.876251 0.22527319
73.303665 61.472919 -0.80362636
64 64 -0
73.258774 61.485115 -0.26794896
71.958595 61.838272 0
71.749054 61.895187 0.22425763
73.296791 61.486847 -0.8027696
64 64 -0
73.261803 61.496304 -0.26794896
71.941109 61.853321 0
71.761612 61.901844 0.22454764
73.294868 61.499413 -0.80234206
64 64 -0
73.254776 61.510201 -0.26765838
71.89846 61.875088 0
71.78923 61.904472 0.22527319
73.307808 61.507988 -0.80319881
64 64 -0
73.252762 61.522728 -0.26751339
71.835663 61.90213 0
71.786743 61.91523 0.22512819
73.310814 61.519238 -0.80319881
64 64 -0
73.265785 61.531235 -0.26780337
71.737602 61.9384 0
71.814362 61.91795 0.22585376
73.298912 61.534439 -0.80191445
64 64 -0
73.248688 61.547756 -0.26722339
71.760216 61.942417 0
71.816872 61.927395 0.22585376
73.30188 61.545677 -0.80191445
64 64 -0
73.286804 61.549656 -0.26823893
71.747589 61.95578 0
71.869629 61.92358 0.22730543
73.294899 61.559528 -0.8010577
64 64 -0
73.249542 61.571438 -0.26707783
71.745026 61.966465 0
71.897263 61.926495 0.22803098
73.297844 61.570759 -0.8010577
64 64 -0
73.247452 61.583927 -0.26693282
71.762589 61.971874 0
71.990257 61.912392 0.23064321
73.29084 61.584579 -0.80020261
64 64 -0
73.270477 61.58987 -0.26751339
71.770065 61.979946 0
72.269394 61.850136 0.23862547
73.297264 61.588905 -0.80063015
64 64 -0
73.261887 61.59808 -0.26722339
71.776321 61.983337 0
72.758621 61.728592 0.25270331
73.310127 61.597572 -0.80148691
64 64 -0
73.24968 61.613171 -0.26678783
71.783783 61.991436 0
72.826775 61.722298 0.25458997
73.308029 61.610104 -0.8010577
64 64 -0
73.242477 61.626934 -0.26649725
71.771095 62.004723 0
72.784218 61.744595 0.25328386
73.300972 61.62389 -0.80020261
64 64 -0
73.245338 61.638103 -0.26649725
71.763405 62.016693 0
72.600639 61.802803 0.24791384
73.293877 61.637665 -0.79934585
64 64 -0
73.253235 61.647995 -0.26664284
71.780937 62.022224 0
72.275925 61.896408 0.23848046
73.311661 61.645119 -0.80063015
64 64 -0
73.245987 61.661728 -0.26635227
71.783318 62.031628 0
72.061829 61.961197 0.23223989
73.299561 61.66013 -0.79934585
64 64 -0
73.268967 61.667828 -0.26693282
71.790733 62.039764 0
71.963493 61.9963 0.2293371
73.302383 61.671368 -0.79934585
64 64 -0
73.266739 61.68029 -0.26678783
72.045547 61.985985 0
71.986069 62.000874 0.22991766
73.300209 61.683849 -0.79891831
64 64 -0
73.254402 61.695259 -0.26635227
72.765152 61.817101 0
71.968307 62.015549 0.2293371
73.303001 61.695087 -0.79891831
64 64 -0
73.287453 61.69894 -0.26722339
72.727364 61.837708 0
71.940445 62.032677 0.22846654
73.31076 61.705105 -0.79934585
64 64 -0
73.244804 61.721359 -0.26591671
72.674377 61.861958 0
71.897392 62.053467 0.22715987
73.313522 61.716354 -0.79934585
64 64 -0
73.242508 61.733768 -0.26577172
72.676949 61.87244 0
71.728134 62.105087 0.22222541
73.294075 61.744923 -0.7972064
64 64 -0
73.252998 61.754887 -0.26591671
72.535385 61.929008 0
71.560989 62.165432 0.21729094
73.296791 61.756153 -0.7972064
64 64 -0
73.250656 61.767288 -0.26577172
72.482239 61.952751 0
71.593521 62.167252 0.21816206
73.304504 61.766186 -0.79763561
64 64 -0
73.253349 61.778465 -0.26577172
72.621346 61.930199 0
71.585617 62.178856 0.2178715
73.317177 61.775047 -0.79849076
64 64 -0
73.261078 61.788445 -0.26591671
72.750397 61.910393 0
71.623199 62.179573 0.21888761
73.304871 61.789867 -0.7972064
64 64 -0
73.268814 61.798431 -0.26606226
72.788368 61.912548 0
71.605164 62.193588 0.21830706
73.307533 61.801113 -0.7972064
64 64 -0
73.261345 61.812023 -0.26577172
72.745285 61.933941 0
71.612396 62.201584 0.21845205
73.298874 61.80909 -0.79635131
64 64 -0
73.247482 61.821198 -0.26533616
72.65535 61.960709 0
71.61348 62.206184 0.21845205
73.311501 61.817986 -0.7972064
64 64 -0
73.234947 61.835926 -0.26490116
72.51593 62.004417 0
71.701653 62.195229 0.2209193
73.299141 61.832729 -0.79592377
64 64 -0
73.257797 61.842369 -0.26548171
72.442291 62.032429 0
71.724075 62.199818 0.22149985
73.306755 61.842812 -0.79635131
64 64 -0
73.275574 61.850037 -0.26591671
72.429443 62.046158 0
71.726242 62.209152 0.22149985
73.304352 61.855209 -0.79592377
64 64 -0
73.262985 61.864746 -0.26548171
72.426735 62.057514 0
71.728401 62.218491 0.22149985
73.31694 61.864162 -0.79677886
64 64 -0
73.270615 61.874779 -0.2656267
72.449364 62.063046 0
71.750809 62.223183 0.22208041
73.309509 61.877701 -0.79592377
64 64 -0
73.252914 61.890602 -0.26504615
72.43647 62.076729 0
71.773224 62.227932 0.22266096
73.322075 61.886684 -0.79677886
64 64 -0
73.250389 61.902935 -0.26490116
74.042786 61.723297 0
71.770294 62.238472 0.22251597
73.304588 61.902466 -0.79506701
64 64 -0
73.303604 61.902687 -0.26635227
73.984604 61.749168 0
71.777481 62.246719 0.22266096
73.317139 61.911461 -0.79592377
64 64 -0
73.255432 61.925293 -0.26490116
74.017799 61.754402 0
71.769463 62.258392 0.22237097
73.314636 61.92384 -0.79549456
64 64 -0
73.268066 61.934219 -0.26519114
74.08654 61.751789 0
71.837494 62.253082 0.22425763
73.312126 61.936207 -0.79506701
64 64 -0
73.270554 61.945419 -0.26519114
73.936813 61.79776 0
71.824371 62.26593 0.22382207
73.314613 61.94746 -0.79506701
64 64 -0
73.26796 61.957741 -0.26504615
73.710732 61.860172 0
71.872139 62.26532 0.22512819
73.307068 61.960911 -0.79421186
64 64 -0
73.250114 61.973389 -0.2644656
73.55571 61.906437 0
71.899605 62.269272 0.22585376
73.309525 61.97216 -0.79421186
64 64 -0
73.242416 61.986778 -0.26417559
76.416275 61.295433 0
71.998177 62.257805 0.22861154
73.316978 61.982323 -0.79463947
64 64 -0
73.270233 61.992447 -0.26490116
76.429695 61.308239 0
72.020592 62.263069 0.22919209
73.319412 61.993584 -0.79463947
64 64 -0
73.252327 62.008026 -0.26432058
73.588669 61.935612 0
72.027756 62.271667 0.2293371
73.321831 62.004845 -0.79463947
64 64 -0
73.239479 62.022472 -0.26388502
73.611519 61.942844 0
72.04509 62.278107 0.22977266
73.297928 62.015835 -0.79250002
64 64 -0
73.17968 62.041069 -0.26214337
76.39196 61.355572 0
72.041031 62.284054 0.2296271
73.310356 62.02494 -0.79335511
64 64 -0
73.065125 62.076965 -0.25880557
76.349327 61.380268 0
72.068535 62.288376 0.23035322
73.312737 62.036194 -0.79335511
64 64 -0
72.965744 62.109364 -0.2559028
76.337204 61.398415 0
72.070595 62.298126 0.23035322
73.305061 62.049553 -0.79250002
64 64 -0
72.891739 62.136189 -0.25372609
76.294495 61.422932 0
72.087891 62.304684 0.23078822
73.302376 62.061848 -0.79207081
64 64 -0
72.878716 62.150116 -0.25329056
71.941109 62.345467 0
72.125549 62.307037 0.23180433
73.309753 62.072044 -0.79250002
64 64 -0
72.880951 62.160843 -0.25329056
71.825867 62.379341 0
72.117424 62.318962 0.23151433
73.312073 62.083294 -0.79250002
64 64 -0
72.893333 62.169483 -0.25358054
76.359818 61.455975 0
72.119446 62.328773 0.23151433
73.314384 62.094547 -0.79250002
64 64 -0
72.900642 62.179184 -0.25372609
64 64 0
72.095993 62.343796 0.23078822
73.301575 62.108871 -0.79121572
64 64 -0
72.897728 62.190979 -0.25358054
76.314934 61.49622 0
72.097984 62.353577 0.23078822
73.318962 62.117062 -0.79250002
64 64 -0
72.915199 62.198643 -0.2540161
76.307755 61.513161 0
72.074501 62.368511 0.23006266
73.306122 62.131355 -0.79121572
64 64 -0
72.917366 62.209419 -0.2540161
76.305634 61.529064 0
72.076469 62.378269 0.23006266
73.323486 62.139587 -0.79250002
64 64 -0
72.894043 62.225277 -0.25329056
76.313728 61.542912 0
72.063126 62.391079 0.2296271
73.310608 62.153851 -0.79121572
64 64 -0
72.911484 62.232994 -0.25372609
76.311569 61.558807 0
72.049789 62.403854 0.22919209
73.322899 62.16312 -0.79207081
64 64 -0
72.903404 62.245773 -0.25343555
76.304306 61.575695 0
72.036407 62.416595 0.22875655
73.315048 62.176357 -0.79121572
64 64 -0
72.920822 62.253536 -0.25387111
76.296997 61.592567 0
72.017914 62.430302 0.22817598
73.327309 62.185654 -0.79207081
64 64 -0
72.917831 62.265308 -0.25372609
76.289688 61.609413 0
72.024902 62.438999 0.22832099
73.324463 62.197899 -0.79164326
64 64 -0
72.919922 62.276085 -0.25372609
76.267021 61.629204 0
72.026787 62.448696 0.22832099
73.311501 62.212074 -0.79035896
64 64 -0
72.952606 62.280987 -0.25459668
73.652863 62.146526 0
72.013359 62.461334 0.22788599
73.328789 62.22044 -0.79164326
64 64 -0
73.000618 62.283039 -0.2559028
73.670425 62.15527 0
76.354103 61.64333 0.35124812
73.329865 62.226074 -0.79164326
64 64 -0
73.083344 62.272945 -0.25822502
73.717567 62.152359 0
76.345306 61.652737 0.35095757
73.321915 62.239254 -0.79078817
64 64 -0
73.095627 62.281998 -0.258515
73.724907 62.163136 0
76.343033 61.668617 0.35081255
73.318977 62.251469 -0.79035896
64 64 -0
73.118126 62.289154 -0.25909558
73.747581 62.171047 0
76.356049 61.681618 0.35110256
73.326149 62.261787 -0.79078817
64 64 -0
73.053772 62.31255 -0.25720888
73.765121 62.17997 0
76.348633 61.698452 0.35081255
73.333282 62.272121 -0.79121572
64 64 -0
73.035362 62.327274 -0.25662833
73.721252 62.200298 0
73.724953 62.199612 0.27621451
73.325256 62.285259 -0.79035896
64 64 -0
73.042488 62.337257 -0.25677335
76.293121 61.739525 0
73.70668 62.215122 0.27563393
73.31723 62.29837 -0.78950381
64 64 -0
73.095619 62.338844 -0.25822502
76.306091 61.75251 0
73.698608 62.228718 0.27534395
73.329369 62.3078 -0.79035896
64 64 -0
73.189651 62.333141 -0.26083726
73.471649 62.281994 0
73.705856 62.239513 0.27548894
73.331406 62.319073 -0.79035896
64 64 -0
73.258148 62.332272 -0.26272392
73.391777 62.308201 0
73.718216 62.249397 0.27577952
73.323334 62.332157 -0.78950381
64 64 -0
73.265266 62.342545 -0.26286891
73.38868 62.320469 0
73.745895 62.256565 0.27650505
73.325348 62.343422 -0.78950381
64 64 -0
73.262146 62.354649 -0.26272392
73.365082 62.336365 0
73.747993 62.268345 0.27650505
73.322289 62.355583 -0.78907627
64 64 -0
73.218079 62.373966 -0.26141781
76.380936 61.816051 0
73.709137 62.287346 0.27534395
73.324265 62.366848 -0.78907627
64 64 -0
73.179077 62.392281 -0.26025668
76.368202 61.833702 0
73.572998 62.323284 0.2714256
73.331291 62.377239 -0.78950381
64 64 -0
73.134941 62.411385 -0.25895056
76.406693 61.842407 0
73.339508 62.375809 0.26474947
73.318062 62.391136 -0.78821951
64 64 -0
73.116371 62.425961 -0.25837001
76.409286 61.857403 0
72.982994 62.44899 0.25458997
73.335182 62.399792 -0.78950381
64 64 -0
73.092659 62.441364 -0.25764444
73.528854 62.366592 0
72.820969 62.487938 0.24994607
73.321922 62.413658 -0.78821951
64 64 -0
73.109909 62.449738 -0.25808001
73.2948 62.418274 0
72.981598 62.471573 0.25444499
73.333961 62.42321 -0.78907627
64 64 -0
73.132278 62.457283 -0.25866058
73.214607 62.443375 0
73.270378 62.433952 0.26257223
73.320671 62.437038 -0.78779197
64 64 -0
73.139252 62.467461 -0.25880557
73.165138 62.46312 0
73.436279 62.417652 0.26721668
73.331749 62.440975 -0.78864872
64 64 -0
73.129913 62.474697 -0.258515
73.124992 62.475517 0
73.385963 62.431919 0.26576501
73.320282 62.466034 -0.78736442
64 64 -0
73.169472 62.490856 -0.25953114
73.262192 62.475597 0
72.292419 62.635204 0.23470712
73.327194 62.476471 -0.78779197
64 64 -0
73.166168 62.502773 -0.25938612
73.294838 62.481754 0
72.909492 62.544701 0.25212273
73.323967 62.488564 -0.78736442
64 64 -0
73.162842 62.514679 -0.25924113
73.317215 62.489655 0
72.854813 62.564613 0.25052607
73.335915 62.498199 -0.78821951
64 64 -0
73.164635 62.525753 -0.25924113
73.29335 62.505047 0
72.815514 62.581913 0.24936551
73.327591 62.511101 -0.78736442
64 64 -0
73.176659 62.535191 -0.25953114
73.331108 62.510536 0
72.863403 62.585194 0.25067163
73.314163 62.52478 -0.78608012
64 64 -0
73.168167 62.547905 -0.25924113
73.327766 62.522625 0
73.003677 62.573959 0.25458997
73.321007 62.53524 -0.78650767
64 64 -0
73.169914 62.558983 -0.25924113
73.339844 62.53228 0
73.133736 62.564671 0.25821832
73.337997 62.544132 -0.78779197
64 64 -0
73.166504 62.570869 -0.25909558
73.341606 62.543568 0
73.212494 62.563698 0.26039556
73.329605 62.556984 -0.78693688
64 64 -0
73.17337 62.581146 -0.25924113
73.30735 62.560425 0
73.255287 62.568478 0.26155612
73.326256 62.569038 -0.78650767
64 64 -0
73.16993 62.593025 -0.25909558
73.159889 62.594566 0
73.27243 62.577297 0.26199168
73.333069 62.579533 -0.78693688
64 64 -0
73.176773 62.603321 -0.25924113
73.11013 62.613464 0
73.320374 62.581467 0.2632978
73.339851 62.590046 -0.78736442
64 64 -0
73.214409 62.608982 -0.26025668
73.281631 62.598835 0
73.311813 62.594276 0.26300779
73.331383 62.602856 -0.78650767
64 64 -0
73.241776 62.616268 -0.26098225
73.360519 62.598492 0
73.395737 62.59322 0.26533002
73.333061 62.614132 -0.78650767
64 64 -0
73.248596 62.626671 -0.2611278
73.408539 62.602924 0
73.546486 62.582439 0.26953837
73.339828 62.624657 -0.78693688
64 64 -0
73.270813 62.634819 -0.26170835
73.559547 62.592304 0
73.563622 62.591705 0.26997393
73.331314 62.637428 -0.78608012
64 64 -0
73.298164 62.642269 -0.26243392
73.628197 62.594078 0
73.53447 62.607765 0.26910338
73.3228 62.650177 -0.78522497
64 64 -0
73.274086 62.657227 -0.26170835
76.473259 62.194027 0
73.458992 62.630455 0.26692614
73.338837 62.653614 -0.78650767
64 64 -0
73.290314 62.66061 -0.26214337
76.448593 62.205276 0
73.382675 62.647293 0.26474947
73.350632 62.663445 -0.78736442
64 64 -0
73.281647 62.673306 -0.26185337
76.430145 62.223267 0
73.312271 62.668926 0.26271722
73.326828 62.678345 -0.78522497
64 64 -0
73.278107 62.685249 -0.26170835
76.421959 62.23975 0
73.252144 62.688927 0.26097611
73.338577 62.688187 -0.78608012
64 64 -0
73.253937 62.700077 -0.26098225
73.54808 62.65876 0
73.197105 62.708061 0.25937945
73.330002 62.700886 -0.78522497
64 64 -0
73.286392 62.706959 -0.26185337
73.487823 62.678909 0
73.260429 62.710575 0.26112112
73.331558 62.712162 -0.78522497
64 64 -0
73.267357 62.721024 -0.26127282
73.453339 62.695354 0
73.225937 62.726738 0.26010498
73.343277 62.722046 -0.78608012
64 64 -0
73.258591 62.733631 -0.26098225
73.563202 62.691967 0
72.465462 62.842113 0.23862547
73.329544 62.735409 -0.78479576
64 64 -0
73.218918 62.750404 -0.25982112
73.869072 62.662277 0
72.235123 62.883755 0.23209433
73.336166 62.745995 -0.78522497
64 64 -0
73.194672 62.765003 -0.25909558
74.025429 62.653416 0
72.190109 62.899929 0.23078822
73.332573 62.757957 -0.78479576
64 64 -0
73.201324 62.775425 -0.25924113
74.011566 62.667591 0
72.181137 62.911198 0.23049821
73.339172 62.768562 -0.78522497
64 64 -0
73.213089 62.785187 -0.25953114
73.997681 62.681732 0
72.203056 62.918365 0.23107877
73.335548 62.780514 -0.78479576
64 64 -0
73.204254 62.797665 -0.25924113
74.0354 62.689095 0
64 64 0
73.321754 62.79377 -0.78351313
64 64 -0
73.221146 62.806789 -0.25967613
76.45266 62.388634 0
72.226265 62.935524 0.23165934
73.328293 62.804382 -0.78394067
64 64 -0
73.232903 62.816608 -0.2599667
64 64 0
72.212074 62.947449 0.23122378
73.334816 62.81501 -0.78436822
64 64 -0
73.239471 62.82711 -0.26011169
64 64 0
72.218491 62.956718 0.23136878
73.341331 62.825649 -0.78479576
64 64 -0
73.246033 62.837627 -0.26025668
76.355133 62.446766 0
72.204292 62.968594 0.23093377
73.342743 62.836937 -0.78479576
64 64 -0
73.247437 62.848801 -0.26025668
76.336334 62.464268 0
76.413506 62.454662 0.34936145
73.323761 62.850739 -0.78308392
64 64 -0
73.253975 62.859341 -0.2604017
76.358849 62.476627 0
76.405037 62.470936 0.34907091
73.339745 62.854496 -0.78436822
64 64 -0
73.254662 62.864933 -0.2604017
76.344261 62.485996 0
76.39048 62.480328 0.34863535
73.336029 62.866402 -0.78394067
64 64 -0
73.240562 62.877991 -0.2599667
76.335754 62.502167 0
76.387146 62.495926 0.34849033
73.332306 62.878296 -0.78351313
64 64 -0
73.247063 62.888538 -0.26011169
76.337555 62.517075 0
76.409599 62.508415 0.34907091
73.333649 62.889572 -0.78351313
64 64 -0
73.248398 62.899712 -0.26011169
76.33416 62.5326 0
76.401077 62.524639 0.3487809
73.34008 62.900249 -0.78394067
64 64 -0
73.244568 62.911495 -0.2599667
76.330757 62.548111 0
76.387367 62.541447 0.34834534
73.3414 62.911537 -0.78394067
64 64 -0
73.261345 62.920864 -0.2604017
76.306656 62.566025 0
72.373306 63.024338 0.23543268
73.332497 62.924004 -0.78308392
64 64 -0
73.257484 62.932652 -0.26025668
76.318733 62.5797 0
72.364151 63.035648 0.23514213
73.344002 62.934113 -0.78394067
64 64 -0
73.253609 62.944427 -0.26011169
73.559006 62.909588 0
72.365303 63.045757 0.23514213
73.329971 62.947132 -0.78265637
64 64 -0
73.249725 62.956188 -0.2599667
73.544815 62.92289 0
72.366455 63.055866 0.23514213
73.331238 62.958408 -0.78265637
64 64 -0
73.250977 62.967365 -0.2599667
76.416901 62.613972 0
72.393425 63.063091 0.23586823
73.337593 62.96912 -0.78308392
64 64 -0
73.2677 62.976837 -0.2604017
76.428909 62.627834 0
72.389374 63.073803 0.23572268
73.343948 62.979843 -0.78351313
64 64 -0
73.289597 62.985779 -0.26098225
76.404686 62.645679 0
72.281998 63.095787 0.2326749
73.329857 62.99279 -0.78222883
64 64 -0
73.285652 62.997562 -0.26083726
76.437378 62.657314 0
72.159103 63.119179 0.22919209
73.341263 63.002975 -0.78308392
64 64 -0
73.28685 63.008781 -0.26083726
76.418289 62.674553 0
72.165321 63.128487 0.2293371
73.327164 63.015877 -0.78180122
64 64 -0
73.277718 63.021095 -0.26054725
76.409515 62.690655 0
72.285225 63.125813 0.2326749
73.333443 63.026615 -0.78222883
64 64 -0
73.278893 63.032307 -0.26054725
76.411087 62.70565 0
72.860001 63.075993 0.24878496
73.334618 63.037895 -0.78222883
64 64 -0
73.29039 63.042454 -0.26083726
76.423012 62.719578 0
73.135071 63.05846 0.25647664
73.340874 63.048656 -0.78265637
64 64 -0
73.286369 63.054207 -0.26069224
76.403831 62.736698 0
76.455276 62.731461 0.34965146
73.326706 63.061481 -0.78137368
64 64 -0
73.297836 63.064388 -0.26098225
76.400162 62.752213 0
76.446465 62.747551 0.34936145
73.332375 63.066608 -0.78180122
64 64 -0
73.293236 63.070522 -0.26083726
76.411278 62.758667 0
76.45755 62.754036 0.34965146
73.343704 63.076874 -0.78265637
64 64 -0
73.289185 63.08226 -0.26069224
73.09269 63.101673 0
76.443527 62.770622 0.34921589
73.339706 63.088665 -0.78222883
64 64 -0
73.27993 63.094498 -0.2604017
73.109314 63.111145 0
72.690094 63.15205 0.24385048
73.330589 63.100933 -0.78137368
64 64 -0
73.296547 63.104214 -0.26083726
73.120735 63.121155 0
72.71698 63.160061 0.24457605
73.321442 63.113182 -0.78051692
64 64 -0
73.287285 63.116432 -0.26054725
73.095886 63.13464 0
72.723152 63.170101 0.24472106
73.327606 63.123966 -0.78094447
64 64 -0
73.288345 63.127655 -0.26054725
73.096924 63.145634 0
72.729317 63.180157 0.24486604
73.333786 63.134762 -0.78137368
64 64 -0
73.289391 63.138878 -0.26054725
73.097954 63.156624 0
72.735489 63.190224 0.24501161
73.324593 63.146976 -0.78051692
64 64 -0
73.295593 63.149632 -0.26069224
73.130074 63.164772 0
72.746803 63.199833 0.2453016
73.320511 63.158707 -0.78008938
64 64 -0
73.306961 63.159931 -0.26098225
73.182907 63.171127 0
72.742592 63.210869 0.2451566
73.327621 63.180782 -0.78051692
64 64 -0
73.298615 63.183331 -0.26069224
73.200447 63.191956 0
72.734116 63.23291 0.24486604
73.323494 63.192497 -0.78008938
64 64 -0
73.294426 63.195015 -0.26054725
73.071777 63.214298 0
72.719513 63.244808 0.24443105
73.334686 63.202892 -0.78094447
64 64 -0
73.285027 63.20713 -0.26025668
72.932693 63.237217 0
72.627205 63.263306 0.24181826
73.33564 63.214172 -0.78094447
64 64 -0
73.311859 63.216171 -0.26098225
72.99585 63.242775 0
72.462395 63.287678 0.23717435
73.331474 63.225876 -0.78051692
64 64 -0
73.323174 63.226566 -0.26127282
73.188675 63.23772 0
72.364845 63.306065 0.23441656
73.337517 63.236732 -0.78094447
64 64 -0
73.298203 63.239948 -0.26054725
73.246658 63.24416 0
72.308716 63.320831 0.23282045
73.333313 63.248428 -0.78051692
64 64 -0
73.283569 63.252434 -0.26011169
73.294258 63.251575 0
72.319878 63.330036 0.23311044
73.334221 63.259708 -0.78051692
64 64 -0
73.315544 63.261189 -0.26098225
73.305519 63.261982 0
72.331055 63.339268 0.233401
73.324875 63.271786 -0.77966183
64 64 -0
73.306076 63.273254 -0.26069224
73.321976 63.272011 0
72.35257 63.347717 0.23398156
73.335983 63.282265 -0.78051692
64 64 -0
73.301773 63.284897 -0.26054725
73.328033 63.282875 0
72.38961 63.355022 0.23499712
64 64 -0
73.336411 63.287907 -0.78051692
64 64 -0
73.3022 63.290516 -0.26054725
73.3181 63.289303 0
72.478081 63.353371 0.23746435
73.327034 63.299957 -0.77966183
64 64 -0
73.308228 63.301369 -0.26069224
73.324135 63.300175 0
72.520317 63.360504 0.23862547
64 64 -0
73.327873 63.311226 -0.77966183
64 64 -0
73.309067 63.312614 -0.26069224
73.335342 63.310677 0
72.64547 63.361614 0.24210882
64 64 -0
73.338928 63.321754 -0.78051692
64 64 -0
73.299515 63.324619 -0.2604017
73.351746 63.320824 0
72.713615 63.367168 0.24399549
64 64 -0
73.334625 63.333405 -0.78008938
64 64 -0
73.274406 63.337704 -0.25967613
73.321426 63.334347 0
72.79731 63.371777 0.24631771
64 64 -0
73.335426 63.344685 -0.78008938
64 64 -0
73.285583 63.348183 -0.2599667
73.182022 63.355453 0
72.834335 63.37986 0.24733327
64 64 -0
73.331093 63.356319 -0.77966183
64 64 -0
73.307098 63.357971 -0.26054725
73.063385 63.374786 0
72.850639 63.389462 0.24776883
64 64 -0
73.326729 63.367943 -0.77923262
64 64 -0
73.297485 63.369923 -0.26025668
76.439468 63.156994 0
72.851372 63.400154 0.24776883
64 64 -0
73.342857 63.378189 -0.78051692
64 64 -0
73.298241 63.381157 -0.26025668
76.409309 63.174103 0
72.872833 63.40947 0.2483494
64 64 -0
73.333366 63.390148 -0.77966183
73.346054 63.389317 -0.52197158
73.314545 63.391376 -0.26069224
76.347969 63.193169 0
72.878716 63.419853 0.2484944
64 64 -0
73.328957 63.401752 -0.77923262
64 64 -0
73.315277 63.40263 -0.26069224
76.348938 63.208088 0
72.87941 63.430584 0.2484944
64 64 -0
73.334816 63.412704 -0.77966183
73.368149 63.410606 -0.52312475
73.326355 63.413235 -0.26098225
76.344696 63.223339 0
72.89566 63.440334 0.24892995
64 64 -0
73.340637 63.423668 -0.78008938
73.348206 63.423199 -0.52197158
73.301125 63.426105 -0.26025668
73.462486 63.416149 0
72.885941 63.451721 0.24863939
64 64 -0
73.336205 63.435265 -0.77966183
73.369545 63.433247 -0.52312475
73.291451 63.437969 -0.2599667
73.463181 63.427582 0
72.964417 63.457752 0.25081661
64 64 -0
73.342003 63.446243 -0.78008938
64 64 -0
73.281738 63.449814 -0.25967613
73.48465 63.437786 0
73.12587 63.459053 0.25531554
64 64 -0
73.332405 63.458126 -0.77923262
73.355408 63.456791 -0.52226067
73.303146 63.459824 -0.26025668
73.516495 63.447437 0
73.359978 63.456524 0.26184666
64 64 -0
73.338188 63.469109 -0.77966183
73.345718 63.468681 -0.52168351
73.329727 63.469593 -0.26098225
73.532745 63.45805 0
73.438446 63.463409 0.26402333
64 64 -0
73.328568 63.480965 -0.77880508
73.356697 63.479401 -0.52226067
73.314812 63.481731 -0.26054725
73.543777 63.46899 0
73.371635 63.478569 0.26213667
64 64 -0
73.339142 63.486034 -0.77966183
73.362167 63.484768 -0.52254868
73.294365 63.488499 -0.2599667
73.492134 63.477615 0
72.681847 63.522209 0.24283437
64 64 -0
73.339752 63.497322 -0.77966183
73.35762 63.496361 -0.52226067
73.305344 63.499172 -0.26025668
73.445992 63.491604 0
72.443718 63.545547 0.23615824
64 64 -0
73.350601 63.508068 -0.78051692
73.353043 63.507938 -0.52197158
73.305946 63.510418 -0.26025668
73.405014 63.505203 0
72.44426 63.555748 0.23615824
64 64 -0
73.340942 63.519894 -0.77966183
73.35881 63.518974 -0.52226067
73.301346 63.521927 -0.26011169
73.322433 63.520844 0
72.53302 63.56142 0.23862547
64 64 -0
73.326126 63.531952 -0.77837753
73.35939 63.530281 -0.52226067
73.322678 63.532124 -0.26069224
73.198265 63.538368 0
73.405487 63.527969 0.26300779
64 64 -0
73.336929 63.542721 -0.77923262
73.365112 63.54134 -0.52254868
73.281708 63.545425 -0.25953114
73.172806 63.550758 0
73.56176 63.531708 0.2673617
64 64 -0
73.342621 63.553757 -0.77966183
73.355316 63.55315 -0.52197158
73.287437 63.556393 -0.25967613
73.188942 63.561096 0
73.557129 63.54351 0.26721668
64 64 -0
73.348274 63.564808 -0.78008938
73.366196 63.563972 -0.52254868
73.313919 63.566406 -0.2604017
73.236259 63.570023 0
73.516144 63.556992 0.26605558
64 64 -0
73.343674 63.576336 -0.77966183
73.356369 63.57576 -0.52197158
73.278107 63.579308 -0.25938612
73.335571 63.576702 0
73.438797 63.572021 0.26387835
64 64 -0
73.344177 63.587624 -0.77966183
73.356873 63.587067 -0.52197158
73.288986 63.590061 -0.25967613
73.398468 63.585228 0
73.38221 63.585945 0.26228222
64 64 -0
73.344666 63.598915 -0.77966183
73.362549 63.598148 -0.52226067
73.305054 63.600616 -0.26011169
73.40416 63.596363 0
73.263275 63.602409 0.25894389
64 64 -0
73.350266 63.609993 -0.78008938
73.368187 63.609245 -0.52254868
73.305534 63.611858 -0.26011169
75.98394 63.500141 0
73.030121 63.623348 0.2524133
64 64 -0
73.340462 63.621708 -0.77923262
73.353142 63.621193 -0.52168351
73.285225 63.623947 -0.25953114
75.948128 63.516098 0
72.791718 63.643932 0.24573717
64 64 -0
64 64 -0
73.356308 63.632389 -0.78051692
73.358757 63.632294 -0.52197158
73.31163 63.634144 -0.26025668
75.96431 63.529922 0
72.703865 63.658024 0.24326994
64 64 -0
73.341354 63.644283 -0.77923262
73.354034 63.643799 -0.52168351
73.301689 63.64579 -0.2599667
75.954475 63.544773 0
72.678291 63.669529 0.24254382
64 64 -0
64 64 -0
73.341774 63.655567 -0.77923262
73.359619 63.654911 -0.52197158
73.291718 63.657413 -0.25967613
75.960213 63.559029 0
72.657928 63.680782 0.24196382
64 64 -0
64 64 -0
73.357582 63.666309 -0.78051692
73.365219 63.666035 -0.52226067
73.29731 63.668457 -0.25982112
75.950325 63.573849 0
72.647919 63.691616 0.24167326
64 64 -0
64 64 -0
73.357979 63.677616 -0.78051692
73.360428 63.677532 -0.52197158
73.308098 63.679333 -0.26011169
75.945633 63.58847 0
72.663864 63.701527 0.24210882
64 64 -0
64 64 -0
73.342964 63.689434 -0.77923262
73.355644 63.689014 -0.52168351
73.29808 63.690926 -0.25982112
75.951317 63.60273 0
72.664223 63.711994 0.24210882
64 64 -0
64 64 -0
73.348473 63.700558 -0.77966183
73.361176 63.700153 -0.52197158
73.293259 63.702328 -0.25967613
75.983017 63.616173 0
72.669754 63.722298 0.24225381
64 64 -0
64 64 -0
73.353783 63.706047 -0.78008938
73.361359 63.705807 -0.52197158
73.314217 63.707291 -0.26025668
73.850357 63.690441 0
72.685509 63.727047 0.24268937
64 64 -0
64 64 -0
73.36438 63.717037 -0.78094447
73.36689 63.716961 -0.52226067
73.304184 63.718857 -0.2599667
76.009697 63.637104 0
72.727386 63.736286 0.24385048
64 64 -0
64 64 -0
73.344193 63.728951 -0.77923262
73.367226 63.728279 -0.52226067
73.30452 63.730099 -0.2599667
75.97892 63.652523 0
72.774445 63.745476 0.2451566
64 64 -0
64 64 -0
73.365036 63.73967 -0.78094447
73.352036 63.740032 -0.5213955
73.315216 63.741055 -0.26025668
75.984528 63.666851 0
73.003304 63.749725 0.25154218
64 64 -0
64 64 -0
73.355095 63.751259 -0.78008938
73.357506 63.751194 -0.52168351
73.310333 63.752449 -0.26011169
75.984924 63.681332 0
