# .PCD v0.7 - Point Cloud Data file format
VERSION 0.7
FIELDS x y z
SIZE 4 4 4
TYPE F F F
COUNT 1 1 1
WIDTH 1967
HEIGHT 1
VIEWPOINT 0 0 0 1 0 0 0
POINTS 1967
DATA ascii
75.809166 57.273624 -0.37955549
75.819733 57.267605 0
75.876678 57.235168 0.38172546
73.293579 58.72134 -0.89092672
73.331413 58.699848 -0.59807742
75.808235 57.293037 -0.37926492
75.818817 57.287025 0
75.875816 57.254654 0.38143545
73.295486 58.7351 -0.89049917
73.324303 58.718777 -0.59721226
75.820847 57.304749 -0.37940991
75.831444 57.298752 0
75.888474 57.266449 0.38158047
73.301834 58.746338 -0.89049917
73.330673 58.730049 -0.59721226
75.810829 57.329262 -0.37882936
75.83046 57.318176 0
75.896606 57.280819 0.38158047
73.303711 58.760098 -0.89007163
73.323509 58.748943 -0.59634709
75.82795 57.338432 -0.37911993
75.82946 57.337578 0
75.886597 57.305397 0.38099989
73.2966 58.778885 -0.88878733
73.334373 58.757675 -0.59663624
75.817863 57.362907 -0.37853935
75.83297 57.354424 0
75.885628 57.324852 0.38070992
73.308701 58.779488 -0.88964242
73.328506 58.768379 -0.59605908
75.826401 57.367508 -0.37868437
75.832451 57.364117 0
75.876053 57.339661 0.38027436
73.310524 58.793243 -0.88921487
73.330307 58.782177 -0.59577107
75.82534 57.386871 -0.37839437
75.817734 57.391129 0
75.884094 57.354015 0.38027436
64 64 -0
73.321289 58.801998 -0.88964242
73.336609 58.793457 -0.59577107
75.828773 57.403706 -0.37824881
75.834808 57.400337 0
75.896652 57.365852 0.38041934
73.318596 58.818249 -0.88878733
73.333862 58.809765 -0.59519506
75.82766 57.42305 -0.3779588
75.847321 57.412117 0
75.900116 57.382755 0.38027436
73.324852 58.829514 -0.88878733
73.344643 58.818539 -0.59548306
75.826515 57.442379 -0.3776688
75.841606 57.43401 0
75.89901 57.402184 0.37998378
73.313118 58.850719 -0.88707542
64 64 -0
75.829872 57.459198 -0.37752324
75.849533 57.448322 0
75.897888 57.421589 0.37969378
73.328323 58.857025 -0.88793057
73.35714 58.841137 -0.59548306
75.824127 57.481014 -0.37708825
75.862015 57.460125 0
75.901276 57.438477 0.37954879
73.316528 58.878193 -0.88621867
73.34523 58.862415 -0.59432989
75.845642 57.487804 -0.37752324
75.856216 57.481987 0
75.900078 57.457874 0.37925822
73.313721 58.894386 -0.88536358
64 64 -0
75.826172 57.517105 -0.37665269
75.859528 57.498817 0
75.912544 57.469753 0.3794038
73.319878 58.905643 -0.88536358
73.353088 58.887493 -0.59404188
75.829437 57.53389 -0.3765077
75.867371 57.513153 0
75.915855 57.486652 0.37925822
73.326027 58.916908 -0.88536358
64 64 -0
75.841797 57.545704 -0.37665269
75.866051 57.532486 0
75.905464 57.511002 0.37867767
73.32766 58.93063 -0.88493603
64 64 -0
75.858711 57.555058 -0.37694269
75.873856 57.546825 0
75.917877 57.522903 0.37882322
73.329269 58.944347 -0.88450849
64 64 -0
75.843651 57.581772 -0.37621713
75.877075 57.563656 0
75.91655 57.542267 0.37853268
73.335365 58.955624 -0.88450849
64 64 -0
75.851395 57.596085 -0.37621713
75.866531 57.58791 0
75.924339 57.556671 0.37853268
73.341454 58.966908 -0.88450849
64 64 -0
75.854553 57.612873 -0.37607214
75.86969 57.604721 0
75.927544 57.573547 0.37838766
73.330925 58.979851 -0.88322413
64 64 -0
75.849251 57.624966 -0.37578157
75.896461 57.599564 0
75.940575 57.575832 0.37867767
73.341507 58.988705 -0.88365173
64 64 -0
75.843216 57.646652 -0.37534657
75.881264 57.626244 0
75.92543 57.602547 0.37795213
73.338509 59.004837 -0.88279659
64 64 -0
75.864624 57.653618 -0.37578157
75.884369 57.643055 0
75.928574 57.619411 0.37780711
73.33094 59.023373 -0.88151228
64 64 -0
75.858536 57.675289 -0.37534657
75.887436 57.659878 0
75.936279 57.633827 0.37780711
73.327873 59.039478 -0.88065553
64 64 -0
75.866173 57.689621 -0.37534657
75.895088 57.674248 0
75.934776 57.653141 0.37751657
73.347473 59.043533 -0.88193983
64 64 -0
75.873787 57.703964 -0.37534657
75.902725 57.688622 0
75.933258 57.672432 0.37722656
73.335297 59.06443 -0.88022798
64 64 -0
75.872192 57.723179 -0.37505603
75.910339 57.703011 0
75.93631 57.689281 0.37708154
73.341255 59.075714 -0.88022798
64 64 -0
75.879768 57.73753 -0.37505603
75.89032 57.731964 0
75.948517 57.701286 0.37722656
73.351738 59.084618 -0.88065553
73.380287 59.069614 -0.59058237
75.868927 57.761559 -0.37447545
75.902489 57.743916 0
75.94693 57.720558 0.37693655
73.339485 59.105453 -0.87894368
73.390816 59.078556 -0.59087038
75.87645 57.775906 -0.37447545
75.910042 57.758305 0
75.954506 57.735001 0.37693655
64 64 -0
73.363594 59.107231 -0.88065553
64 64 -0
75.88858 57.787846 -0.374621
75.917572 57.772697 0
75.95285 57.754269 0.37664601
73.342186 59.132778 -0.87808853
64 64 -0
75.877647 57.811821 -0.37404045
75.925087 57.787102 0
75.951172 57.773514 0.37635601
73.366287 59.134605 -0.87980044
73.390228 59.122166 -0.58971721
75.875885 57.830975 -0.37374991
75.918724 57.808716 0
75.954063 57.790359 0.37621045
73.358475 59.153011 -0.87851608
73.38694 59.138271 -0.58914119
75.878716 57.847717 -0.37360489
75.916962 57.827908 0
75.956947 57.807198 0.37606543
73.350655 59.171383 -0.87723345
64 64 -0
75.89537 57.857307 -0.3738949
75.933655 57.83754 0
75.964424 57.821648 0.37606543
73.365601 59.17799 -0.87808853
73.38945 59.16571 -0.58856404
75.888931 57.878815 -0.37345991
75.917953 57.863873 0
75.958015 57.84325 0.37562987
73.35025 59.193039 -0.87637669
73.401581 59.166649 -0.58914119
75.874146 57.895504 -0.37287936
75.912415 57.875832 0
75.957115 57.852848 0.37548488
73.360611 59.202 -0.87680423
64 64 -0
75.881508 57.909859 -0.37287936
75.924431 57.887856 0
75.955292 57.872036 0.37519488
73.370987 59.210972 -0.87723345
73.39019 59.201157 -0.58769888
75.893478 57.921856 -0.37302434
75.9179 57.909378 0
75.962685 57.886486 0.37519488
73.358475 59.231621 -0.87552154
73.377548 59.221901 -0.58654571
75.910072 57.931515 -0.37331435
75.925247 57.923782 0
75.965424 57.903313 0.37504932
73.359634 59.245262 -0.87509239
64 64 -0
75.908134 57.950615 -0.37302434
75.937218 57.935841 0
75.963524 57.922478 0.37475932
73.369965 59.25425 -0.87552154
64 64 -0
73.866356 59.002838 -0.30887577
75.939896 57.952618 0
75.970856 57.936939 0.37475932
73.38485 59.260952 -0.87637669
64 64 -0
73.955894 58.972595 -0.31148854
75.919327 57.981121 0
75.959618 57.960777 0.37417877
73.372231 59.281528 -0.87466478
64 64 -0
74.013008 58.958927 -0.31308466
73.904358 59.01363 0
75.948341 57.984581 0.37359822
73.368759 59.297459 -0.8738097
64 64 -0
73.930855 59.01532 -0.31032744
73.975494 58.992916 0
73.958504 59.001442 0.31119129
73.379013 59.306488 -0.87423724
64 64 -0
73.918282 59.036625 -0.30974689
73.972229 59.009628 0
73.959892 59.0158 0.3110463
73.375488 59.322411 -0.87338048
64 64 -0
75.99353 58.016228 -0.37433046
73.954971 59.033295 0
73.919411 59.051037 0.3095952
73.390335 59.329166 -0.87423724
64 64 -0
75.963524 58.04924 -0.37316933
73.923683 59.063873 0
73.930038 59.060715 0.30974019
73.386765 59.345081 -0.87338048
64 64 -0
64 64 -0
73.864349 59.108246 0
73.940643 59.070408 0.30988517
73.39238 59.35643 -0.87338048
64 64 -0
64 64 -0
75.913818 58.109833 0
75.949715 58.092087 0.3722921
73.384178 59.374584 -0.87209785
64 64 -0
64 64 -0
64 64 0
75.970833 58.099636 0.37272766
73.394363 59.383663 -0.87252539
64 64 -0
75.922195 58.141502 -0.37099266
64 64 0
64 64 0
73.386101 59.401798 -0.87124109
73.414291 59.387985 -0.5842405
75.919922 58.160488 -0.37070212
64 64 0
64 64 0
73.393486 59.405212 -0.87166864
73.417076 59.393673 -0.5842405
75.923447 58.16769 -0.37070212
75.971359 58.14426 0
64 64 0
73.389809 59.421066 -0.87081349
73.408684 59.411861 -0.58337533
75.925819 58.18438 -0.3705571
75.959709 58.167854 0
76.009674 58.143486 0.37316266
73.396233 59.446007 -0.87038594
73.419746 59.434612 -0.58337533
75.925804 58.220016 -0.37012157
75.964394 58.201317 0
76.01445 58.177055 0.37287265
73.401726 59.457363 -0.87038594
73.425255 59.445995 -0.58337533
75.946823 58.227646 -0.3705571
75.957344 58.222565 0
76.0168 58.193836 0.37272766
73.407211 59.468727 -0.87038594
73.421417 59.461884 -0.58279818
75.939743 58.248856 -0.37012157
75.973686 58.232506 0
76.028488 58.206108 0.37287265
73.403412 59.484547 -0.86952919
73.426895 59.47327 -0.58279818
75.942001 58.265533 -0.36997655
75.980644 58.246975 0
76.021423 58.227394 0.37243709
73.408859 59.495911 -0.86952919
64 64 -0
75.920807 58.293427 -0.36910599
75.973495 58.2682 0
76.01432 58.248661 0.37200153
73.405037 59.511703 -0.8686741
73.433144 59.498291 -0.58251017
75.5009 58.511509 -0.35589871
75.989822 58.278187 0
76.030647 58.258701 0.3722921
73.419716 59.518661 -0.86952919
64 64 -0
75.05233 58.741962 -0.3418209
75.968513 58.306099 0
76.03289 58.275471 0.37214708
73.411224 59.53664 -0.86824656
64 64 -0
75.086861 58.741955 -0.34269202
75.975388 58.320564 0
76.035088 58.292248 0.37200153
73.421249 59.545822 -0.8686741
64 64 -0
75.788513 58.426628 -0.36417153
75.972839 58.339481 0
76.032593 58.311234 0.37171152
73.408043 59.565964 -0.86696219
64 64 -0
75.955063 58.365551 -0.36910599
75.989075 58.349518 0
76.020653 58.334637 0.37113097
64 64 -0
73.413399 59.577335 -0.86696219
64 64 -0
75.97126 58.375584 -0.369396
75.991188 58.366222 0
76.032188 58.346958 0.37127599
64 64 -0
73.418732 59.588715 -0.86696219
64 64 -0
75.963928 58.396667 -0.36896044
75.993279 58.382919 0
76.024902 58.368107 0.37084097
73.414742 59.604446 -0.86610544
64 64 -0
75.9189 58.435307 -0.36736432
75.995346 58.399616 0
76.036407 58.380447 0.37098598
73.431358 59.603626 -0.8673898
64 64 -0
75.955215 58.427143 -0.36837989
75.993996 58.409069 0
76.025665 58.394306 0.37055042
73.432014 59.617188 -0.86696219
64 64 -0
75.980797 58.432835 -0.36896044
75.981857 58.432339 0
76.02301 58.413219 0.37026042
73.427979 59.632904 -0.86610544
64 64 -0
75.959229 58.460415 -0.36808988
76.02636 58.429321 0
76.029755 58.42775 0.37026042
64 64 -0
73.419281 59.650753 -0.8648228
64 64 -0
75.961197 58.477047 -0.36794487
64 64 0
76.031746 58.444473 0.37011486
73.438507 59.655701 -0.86610544
64 64 -0
75.911217 58.517578 -0.36620322
64 64 0
76.03373 58.461185 0.36996987
73.434425 59.671387 -0.86525035
64 64 -0
75.950882 58.516811 -0.36721876
75.828865 58.572792 0
76.040413 58.475731 0.36996987
64 64 -0
73.430298 59.687065 -0.86439359
64 64 -0
76.000046 58.511795 -0.36852545
75.934814 58.54163 0
76.028175 58.498932 0.3693893
64 64 -0
73.43084 59.700592 -0.86396605
64 64 -0
76.011391 58.524143 -0.36867043
64 64 0
76.044281 58.509151 0.36967987
64 64 -0
73.45472 59.703491 -0.86567789
64 64 -0
76.00853 58.542965 -0.36837989
76.08065 58.510193 0
76.046158 58.525864 0.36953431
64 64 -0
73.445869 59.721279 -0.86439359
64 64 -0
76.038795 58.546753 -0.36910599
76.068314 58.533382 0
76.052765 58.540424 0.36953431
73.441681 59.736916 -0.8635385
64 64 -0
76.064323 58.55275 -0.36968654
76.079651 58.54583 0
76.054626 58.557129 0.3693893
64 64 -0
73.451508 59.746223 -0.86396605
64 64 -0
76.179886 58.51828 -0.37302434
76.0625 58.57111 0
76.061188 58.571697 0.3693893
73.442581 59.763954 -0.86268175
64 64 -0
76.20546 58.524494 -0.37360489
76.159286 58.545208 0
76.067741 58.586277 0.3693893
64 64 -0
73.443008 59.777458 -0.86225414
64 64 -0
76.212067 58.539246 -0.37360489
76.265648 58.515285 0
76.140701 58.571159 0.37142155
64 64 -0
73.452789 59.786785 -0.86268175
64 64 -0
76.270859 58.530739 -0.37520102
76.357834 58.491974 0
64 64 0
73.462578 59.79612 -0.8631109
64 64 -0
76.386696 58.49704 -0.37853935
76.345451 58.515362 0
76.324745 58.524563 0.37664601
64 64 -0
73.451035 59.808083 -0.8618266
64 64 -0
76.504036 58.453953 -0.38202271
76.348763 58.52282 0
76.394547 58.502514 0.37867767
64 64 -0
73.460785 59.817432 -0.86225414
64 64 -0
76.601021 58.429146 -0.38477993
76.512466 58.468296 0
76.424957 58.506981 0.3794038
64 64 -0
73.456444 59.833004 -0.86139905
64 64 -0
76.650543 58.425518 -0.38608605
76.562004 58.464531 0
76.483887 58.498955 0.38099989
64 64 -0
73.452057 59.848564 -0.8605423
64 64 -0
64 64 -0
76.554382 58.485996 0
64 64 0
64 64 -0
73.45237 59.862045 -0.86011475
64 64 -0
76.716347 58.433178 -0.38768274
76.637329 58.467773 0
76.644714 58.464539 0.38549882
64 64 -0
73.452667 59.875523 -0.85968721
64 64 -0
76.751633 58.436081 -0.38855329
76.701248 58.458069 0
76.694275 58.461109 0.38680547
64 64 -0
73.462341 59.884899 -0.86011475
64 64 -0
76.815536 58.426624 -0.39029497
76.703171 58.475491 0
76.796257 58.435009 0.38970771
64 64 -0
73.457893 59.900417 -0.85925961
64 64 -0
76.908081 58.404915 -0.3929072
76.724144 58.484642 0
64 64 0
64 64 -0
73.462845 59.91185 -0.85925961
64 64 -0
76.967316 58.397842 -0.39450386
76.812027 58.464928 0
76.909843 58.422668 0.39275551
64 64 -0
73.477196 59.919228 -0.86011475
64 64 -0
77.040894 58.384743 -0.39653555
76.938217 58.428955 0
76.954758 58.421829 0.39391661
64 64 -0
73.458534 59.940804 -0.8579753
64 64 -0
77.100204 58.377956 -0.39813221
77.102776 58.376854 0
77.004471 58.419044 0.39522272
64 64 -0
73.458717 59.954254 -0.85754776
64 64 -0
77.169098 58.367226 -0.4000189
64 64 0
77.073318 58.408195 0.39710942
64 64 -0
73.4636 59.965683 -0.85754776
64 64 -0
77.223694 58.362766 -0.40147001
77.202507 58.371796 0
77.161331 58.389351 0.39957663
64 64 -0
73.468468 59.977123 -0.85754776
64 64 -0
77.29747 58.350292 -0.40350223
77.266785 58.363331 0
77.211159 58.386963 0.40088332
64 64 -0
73.478043 59.986565 -0.8579753
64 64 -0
77.380836 58.33395 -0.40582392
77.335884 58.352982 0
77.246635 58.390774 0.40175387
64 64 -0
73.473419 60.002018 -0.85711855
64 64 -0
77.435562 58.32991 -0.40727559
77.385857 58.350887 0
77.205536 58.426987 0.40030277
64 64 -0
73.47583 60.007744 -0.85711855
64 64 -0
77.510803 58.30777 -0.40945226
77.46122 58.328659 0
77.319038 58.388565 0.40364054
73.480652 60.019196 -0.85711855
64 64 -0
77.565598 58.303974 -0.41090393
77.52565 58.320747 0
77.46476 58.346317 0.40784946
64 64 -0
73.47126 60.036594 -0.85583591
64 64 -0
77.663544 58.282261 -0.41366115
77.590126 58.312984 0
77.615395 58.30241 0.41220337
64 64 -0
73.476036 60.048042 -0.85583591
64 64 -0
77.718422 58.278767 -0.41511285
77.659431 58.303368 0
77.675034 58.29686 0.41380003
64 64 -0
73.480804 60.059494 -0.85583591
64 64 -0
77.821281 58.255463 -0.41801506
77.752808 58.28392 0
77.739487 58.289459 0.41554114
64 64 -0
73.466591 60.078812 -0.85412401
64 64 -0
77.871422 58.254269 -0.41932118
77.82222 58.274651 0
77.823196 58.274246 0.41786337
64 64 -0
73.476059 60.088295 -0.85455155
64 64 -0
77.940796 58.245258 -0.42120788
77.891663 58.265541 0
77.815689 58.296902 0.41742781
64 64 -0
73.480782 60.099747 -0.85455155
64 64 -0
78.034256 58.226513 -0.42382064
77.980408 58.248665 0
77.861015 58.297783 0.41858894
64 64 -0
73.475975 60.115105 -0.8536948
64 64 -0
78.094101 58.221798 -0.42541677
78.045143 58.241871 0
77.964066 58.275108 0.42149171
64 64 -0
73.471169 60.13044 -0.85283971
64 64 -0
78.178047 58.207382 -0.42773899
78.143623 58.221447 0
78.062386 58.254639 0.42424953
64 64 -0
73.480583 60.13995 -0.85326725
64 64 -0
78.223541 58.208839 -0.42890012
78.203629 58.216949 0
78.155945 58.236362 0.42686173
64 64 -0
73.489998 60.149479 -0.8536948
64 64 -0
78.259415 58.21431 -0.42977068
78.176842 58.247818 0
78.211044 58.233936 0.42831287
64 64 -0
73.475624 60.16864 -0.85198462
64 64 -0
78.251953 58.237385 -0.42933568
78.21756 58.251289 0
78.251732 58.237473 0.42932898
64 64 -0
73.48024 60.180092 -0.85198462
64 64 -0
80.37973 57.400059 -0.49319369
78.306564 58.235405 0
78.335808 58.223621 0.4316512
64 64 -0
73.49913 60.185818 -0.85326725
64 64 -0
80.474495 57.385002 -0.49580592
78.390808 58.221664 0
78.410286 58.213844 0.43368289
64 64 -0
73.489449 60.203014 -0.85198462
64 64 -0
80.583794 57.364372 -0.49885371
78.45092 58.217793 0
78.49929 58.198441 0.4361501
64 64 -0
73.484482 60.218288 -0.85112786
64 64 -0
80.654549 57.359394 -0.50074041
78.443405 58.241035 0
78.525597 58.208263 0.43673068
64 64 -0
73.491531 60.222122 -0.85155541
64 64 -0
80.726151 57.342556 -0.50277203
78.446884 58.249763 0
78.53392 58.215122 0.43687567
64 64 -0
73.491089 60.248844 -0.85070026
64 64 -0
80.867859 57.333328 -0.50654596
78.460739 58.284695 0
78.528519 58.2579 0.43629512
64 64 -0
73.486053 60.26408 -0.8498435
64 64 -0
80.904907 57.342293 -0.50741655
78.448257 58.309799 0
78.525787 58.279266 0.43600512
64 64 -0
73.495354 60.273663 -0.85027272
64 64 -0
76.578568 59.06369 -0.37737826
78.440582 58.33297 0
78.52301 58.300621 0.43571454
64 64 -0
73.499847 60.285141 -0.85027272
64 64 -0
76.560333 59.088356 -0.37665269
78.452263 58.348526 0
78.52021 58.321957 0.43542457
64 64 -0
73.489975 60.302216 -0.84898841
64 64 -0
76.48394 59.135609 -0.37418547
78.454239 58.367882 0
78.522224 58.341389 0.43527955
64 64 -0
73.499214 60.311829 -0.84941596
64 64 -0
76.504349 59.145054 -0.374621
78.44162 58.392887 0
78.514511 58.364586 0.43484399
64 64 -0
73.498886 60.325161 -0.84898841
64 64 -0
76.563507 59.139545 -0.37621713
78.453239 58.408463 0
78.506767 58.387756 0.43440846
64 64 -0
73.503319 60.336639 -0.84898841
64 64 -0
76.588768 59.147251 -0.37679768
78.435707 58.435291 0
78.518379 58.403419 0.43455344
64 64 -0
73.507736 60.348125 -0.84898841
64 64 -0
81.144958 57.414707 -0.51293153
78.432709 58.456467 0
78.50573 58.428421 0.4339729
64 64 -0
73.502541 60.363289 -0.84813166
64 64 -0
64 64 -0
78.4394 58.473911 0
78.502754 58.449665 0.43368289
64 64 -0
73.502136 60.376602 -0.84770411
64 64 -0
64 64 -0
78.363388 58.522888 0
78.524017 58.461636 0.43411845
64 64 -0
73.501717 60.389908 -0.84727657
64 64 -0
64 64 -0
77.03688 59.046753 0
78.516121 58.484726 0.43368289
64 64 -0
73.501274 60.403206 -0.84684896
64 64 -0
64 64 -0
77.003906 59.077251 0
78.508194 58.507793 0.43324733
64 64 -0
73.510406 60.41288 -0.84727657
64 64 -0
81.106628 57.547752 -0.51060933
77.078018 59.067253 0
78.490509 58.534496 0.43252176
64 64 -0
73.512573 60.418625 -0.84727657
73.535065 60.41016 -0.56780809
81.086212 57.567242 -0.50988376
77.007942 59.102661 0
78.445183 58.561558 0.43107066
64 64 -0
73.516899 60.430122 -0.84727657
73.534561 60.423496 -0.56752008
81.108566 57.582417 -0.51031929
77.038216 59.109245 0
80.52446 57.801517 0.49289644
64 64 -0
73.521202 60.441624 -0.84727657
73.538872 60.43502 -0.56752008
81.11631 57.603092 -0.51031929
80.203354 57.944294 0
80.468658 57.845139 0.49100977
64 64 -0
73.515862 60.456718 -0.84641981
73.557724 60.441132 -0.56838524
81.109413 57.629219 -0.50988376
80.24968 57.949348 0
77.641769 58.920414 0.40654334
64 64 -0
73.52977 60.464645 -0.84727657
73.547462 60.458084 -0.56752008
81.121964 57.648094 -0.51002878
80.217941 57.983471 0
77.560188 58.96944 0.40393054
64 64 -0
73.519585 60.481503 -0.84599221
73.546883 60.471413 -0.56723207
81.115021 57.674187 -0.50959378
64 64 0
77.493149 59.012852 0.40175387
64 64 -0
73.528641 60.491238 -0.84641981
73.55114 60.482952 -0.56723207
75.241554 59.860485 -0.33456421
64 64 0
77.586937 58.996838 0.40436611
64 64 -0
73.523247 60.506287 -0.84556466
64 64 -0
75.168488 59.90271 -0.33224195
80.234756 58.04409 0
77.578331 59.018631 0.40393054
64 64 -0
73.527458 60.517796 -0.84556466
64 64 -0
75.227127 59.896584 -0.33383864
80.261497 58.056564 0
77.603867 59.027905 0.40451109
64 64 -0
73.536484 60.527554 -0.84599221
64 64 -0
75.295547 59.887039 -0.33572531
80.2491 58.08334 0
81.135391 57.76062 0.50929654
64 64 -0
73.521362 60.546082 -0.84428036
64 64 -0
75.432426 59.852837 -0.33964422
80.25135 58.104752 0
81.221085 57.752975 0.51161873
64 64 -0
73.525528 60.55759 -0.84428036
64 64 -0
75.500961 59.843697 -0.34153089
80.22908 58.13501 0
64 64 0
64 64 -0
73.534531 60.56736 -0.84470958
64 64 -0
75.549973 59.841751 -0.34283701
80.211678 58.163437 0
64 64 0
64 64 -0
73.528992 60.582352 -0.84385282
64 64 -0
81.605804 57.685539 -0.52236491
64 64 0
64 64 0
64 64 -0
73.547623 60.588684 -0.84513712
64 64 -0
81.760231 57.654366 -0.5267188
64 64 0
81.437035 57.76984 0.51713377
64 64 -0
73.537224 60.605389 -0.84385282
64 64 -0
81.860916 57.642715 -0.52947658
80.242546 58.218746 0
81.532669 57.759548 0.51974601
64 64 -0
73.541321 60.616917 -0.84385282
64 64 -0
81.853882 57.669514 -0.52904105
80.27404 58.229683 0
81.60878 57.75642 0.52177823
64 64 -0
73.538528 60.624393 -0.84342527
64 64 -0
81.882195 57.671635 -0.52976662
80.277527 58.239513 0
81.637039 57.758392 0.52250379
64 64 -0
73.542603 60.635921 -0.84342527
64 64 -0
81.875137 57.698425 -0.52933162
80.274643 58.262653 0
81.649467 57.777985 0.52264875
64 64 -0
73.546654 60.647453 -0.84342527
64 64 -0
76.106903 59.74836 -0.35836595
76.04361 59.770584 0
64 64 0
64 64 -0
73.54586 60.660683 -0.84299767
64 64 -0
76.156174 59.747547 -0.35967207
81.079422 58.025307 0
76.116707 59.761356 0.35850427
64 64 -0
73.545029 60.673916 -0.84256852
64 64 -0
82.732086 57.472565 -0.55400395
81.106293 58.039097 0
82.535583 57.541042 0.5481922
64 64 -0
73.549034 60.685452 -0.84256852
64 64 -0
82.779236 57.481571 -0.55516505
81.103653 58.063179 0
82.587555 57.548107 0.54949832
64 64 -0
73.548187 60.698669 -0.84214091
64 64 -0
82.841118 57.485592 -0.55676115
81.130493 58.077049 0
82.624802 57.560387 0.55036891
64 64 -0
73.55217 60.710205 -0.84214091
64 64 -0
64 64 -0
64 64 0
82.632568 57.582893 0.55036891
64 64 -0
73.565857 60.718414 -0.84299767
64 64 -0
83.009193 57.478863 -0.56126064
81.149673 58.116776 0
82.620644 57.61216 0.54978836
64 64 -0
73.560089 60.733299 -0.84214091
64 64 -0
83.080986 57.479996 -0.56314731
81.117371 58.150967 0
76.579857 59.701443 0.37127599
64 64 -0
73.559174 60.746506 -0.84171337
64 64 -0
83.103592 57.498035 -0.5635823
76.655495 59.692665 0
76.565361 59.723343 0.37069541
64 64 -0
73.543648 60.764652 -0.84000152
64 64 -0
64 64 -0
76.749413 59.677883 0
76.66404 59.706825 0.3734532
64 64 -0
73.567009 60.769619 -0.84171337
64 64 -0
82.981407 57.590767 -0.55951893
82.963013 57.596977 0
83.074738 57.559254 0.56227005
64 64 -0
73.570908 60.781181 -0.84171337
64 64 -0
82.979279 57.617023 -0.55922836
82.990471 57.613258 0
83.048019 57.593903 0.56125391
64 64 -0
73.555313 60.799271 -0.84000152
64 64 -0
82.913071 57.664715 -0.55705172
64 64 0
83.016327 57.630131 0.56009281
64 64 -0
73.559174 60.810818 -0.84000152
73.581345 60.803421 -0.5629074
82.925636 57.685928 -0.55719674
64 64 0
77.167732 59.606911 0.38767603
64 64 -0
73.572754 60.819134 -0.84085661
73.585205 60.814999 -0.5629074
82.938179 57.707165 -0.55734169
82.964096 57.698555 0
77.212486 59.609718 0.38883716
64 64 -0
73.564941 60.828148 -0.84000152
73.592033 60.819164 -0.56319541
82.93705 57.720242 -0.55719674
82.962959 57.711651 0
83.050278 57.682693 0.5605284
64 64 -0
73.578506 60.836491 -0.84085661
73.590958 60.832378 -0.5629074
82.993965 57.726833 -0.55864781
82.960648 57.737835 0
83.09243 57.694313 0.56154394
64 64 -0
73.567703 60.852875 -0.83957398
73.59478 60.843971 -0.5629074
87.14814 56.385834 -0.68055886
82.963264 57.762375 0
83.154343 57.699524 0.56314063
64 64 -0
73.571503 60.864437 -0.83957398
64 64 -0
87.142502 56.418667 -0.68012327
82.965851 57.786911 0
83.161942 57.722672 0.56314063
64 64 -0
73.580162 60.874416 -0.84000152
64 64 -0
87.181297 56.436958 -0.68099439
82.874374 57.842121 0
83.727776 57.563694 0.57954067
64 64 -0
73.579048 60.887577 -0.83957398
64 64 -0
87.175591 56.469795 -0.68055886
84.535103 57.327744 0
84.061722 57.481552 0.58911902
64 64 -0
73.587685 60.897575 -0.84000152
64 64 -0
87.174789 56.500999 -0.68026888
84.533249 57.355762 0
84.089355 57.499397 0.58969957
64 64 -0
73.581642 60.912315 -0.83914477
64 64 -0
87.183838 56.529007 -0.68026888
84.526398 57.385368 0
84.097198 57.523678 0.58969957
64 64 -0
73.590271 60.922321 -0.83957398
64 64 -0
87.177994 56.56179 -0.67983329
84.489777 57.424488 0
84.105011 57.547966 0.58969957
64 64 -0
73.593979 60.93391 -0.83957398
64 64 -0
87.20182 56.585056 -0.68026888
84.522491 57.44133 0
84.112793 57.572262 0.58969957
64 64 -0
73.587883 60.948624 -0.83871722
64 64 -0
87.200851 56.616253 -0.67997831
84.55024 57.459816 0
84.090836 57.606022 0.58882904
64 64 -0
73.586678 60.961761 -0.83828962
64 64 -0
87.18499 56.652138 -0.67925274
64 64 0
84.1035 57.628735 0.58897406
64 64 -0
73.585449 60.974888 -0.83786207
64 64 -0
87.188904 56.681721 -0.67910773
84.531235 57.520466 0
84.10128 57.656155 0.58868402
64 64 -0
73.603775 60.981861 -0.83914477
64 64 -0
87.202682 56.708191 -0.67925274
84.519188 57.551521 0
84.113884 57.678894 0.58882904
64 64 -0
73.597626 60.996532 -0.83828962
64 64 -0
87.196587 56.740891 -0.67881715
84.526962 57.576317 0
84.106628 57.707859 0.58839345
64 64 -0
73.59816 61.015453 -0.83786207
64 64 -0
87.199791 56.786026 -0.67852718
84.444153 57.642895 0
84.122955 57.742771 0.58853847
73.591934 61.030094 -0.83700532
64 64 -0
87.213455 56.812531 -0.67867219
86.395805 57.065693 0
84.120575 57.770161 0.58824849
73.600418 61.040176 -0.83743286
64 64 -0
87.241989 56.834457 -0.67925274
86.344498 57.111153 0
84.142998 57.789883 0.58868402
73.603989 61.051777 -0.83743286
64 64 -0
87.359917 56.828999 -0.68244553
86.34285 57.141216 0
84.120667 57.82338 0.5878129
64 64 -0
73.597733 61.066383 -0.83657777
64 64 -0
87.552444 56.801025 -0.68781555
86.301353 57.18343 0
84.147995 57.841618 0.58839345
73.606178 61.076488 -0.83700532
64 64 -0
87.799751 56.756866 -0.69478166
79.617462 59.247036 0
84.145485 57.868992 0.58810347
73.619537 61.085117 -0.83786207
64 64 -0
88.032288 56.717812 -0.70131284
79.583344 59.277985 0
84.152878 57.893337 0.58810347
73.61322 61.099712 -0.83700532
64 64 -0
88.210228 56.69582 -0.70624727
79.569107 59.30283 0
84.145309 57.922195 0.58766794
73.606888 61.114281 -0.83615023
64 64 -0
88.388252 56.674252 -0.71118176
79.54985 59.329132 0
84.172554 57.940563 0.58824849
73.620193 61.122952 -0.83700532
64 64 -0
78.270309 59.732273 -0.41598341
79.575432 59.341957 0
84.179855 57.964943 0.58824849
73.618752 61.13604 -0.83657777
64 64 -0
78.235611 59.761383 -0.41482228
79.586029 59.359299 0
84.172188 57.993782 0.5878129
73.617287 61.149124 -0.83615023
64 64 -0
78.205833 59.788929 -0.41380617
79.566681 59.385529 0
84.154526 58.025543 0.58708733
73.61087 61.163654 -0.83529347
64 64 -0
78.151123 59.823742 -0.41206506
79.582214 59.401398 0
84.16671 58.048431 0.58723235
73.614288 61.17527 -0.83529347
64 64 -0
78.121246 59.851101 -0.41104892
79.592773 59.418758 0
84.163925 58.075729 0.58694237
73.607849 61.18977 -0.83443832
64 64 -0
78.091331 59.87838 -0.41003281
79.603287 59.436142 0
84.18103 58.097183 0.58723235
73.611237 61.201382 -0.83443832
64 64 -0
78.121246 59.888145 -0.41075838
79.628777 59.449181 0
84.19313 58.120121 0.58737737
73.624466 61.21014 -0.83529347
64 64 -0
78.16613 59.893639 -0.4119195
79.589279 59.481106 0
84.170288 58.153202 0.58650678
73.631096 61.214523 -0.83572268
64 64 -0
78.20356 59.89209 -0.41293561
79.577003 59.494865 0
84.178802 58.163948 0.5866518
73.629501 61.227589 -0.83529347
64 64 -0
78.233482 59.902065 -0.41366115
79.522415 59.530972 0
84.195831 58.185455 0.58694237
73.622986 61.24205 -0.83443832
64 64 -0
78.223427 59.923565 -0.41322562
79.502785 59.5569 0
84.20285 58.209862 0.58694237
73.631241 61.252274 -0.83486593
64 64 -0
78.213364 59.945026 -0.4127906
79.558189 59.561359 0
84.194832 58.238556 0.58650678
73.629623 61.265316 -0.83443832
64 64 -0
78.248245 59.95369 -0.41366115
79.613617 59.565937 0
84.206772 58.261543 0.5866518
73.642792 61.274162 -0.83529347
64 64 -0
78.26313 59.968079 -0.41395172
79.684074 59.566402 0
84.223701 58.283134 0.58694237
73.631264 61.289982 -0.83401078
64 64 -0
78.292999 59.978275 -0.41467729
79.699432 59.582539 0
84.235596 58.306168 0.58708733
73.634529 61.30162 -0.83401078
64 64 -0
78.322868 59.988544 -0.41540283
79.71479 59.598701 0
84.257477 58.326416 0.58752292
73.642731 61.31189 -0.83443832
64 64 -0
78.362755 59.996082 -0.41641894
79.735123 59.613506 0
82.557343 58.826752 0.53803271
73.636063 61.32629 -0.83358157
64 64 -0
78.44268 59.992603 -0.41859564
79.705322 59.642258 0
82.713806 58.807495 0.54238665
73.63929 61.337936 -0.83358157
64 64 -0
78.512627 59.992073 -0.42048231
79.710571 59.66124 0
82.755135 58.820427 0.54340273
73.63755 61.350945 -0.83315402
64 64 -0
78.507446 60.012363 -0.4201923
79.535126 59.729889 0
82.78643 58.836208 0.5441283
73.650658 61.359879 -0.83401078
64 64 -0
78.492203 60.035381 -0.41961175
79.173798 59.848919 0
82.762589 58.867138 0.54325777
73.638977 61.375587 -0.83272648
64 64 -0
78.461884 60.062454 -0.41859564
79.188843 59.864525 0
82.833961 58.872063 0.54514444
73.647087 61.385895 -0.83315402
64 64 -0
78.481682 60.075851 -0.41903117
79.163689 59.891045 0
84.229492 58.518349 0.58534569
73.635368 61.401566 -0.83186972
64 64 -0
78.501465 60.089291 -0.41946673
79.128441 59.920212 0
84.246147 58.540085 0.58563626
73.648422 61.410545 -0.83272648
64 64 -0
78.50618 60.106815 -0.41946673
87.764442 57.622078 0
84.252731 58.564552 0.58563626
73.649986 61.416374 -0.83272648
64 64 -0
78.608917 60.088707 -0.42236897
87.733109 57.645855 0
84.250977 58.57814 0.5854907
73.658058 61.42672 -0.83315402
64 64 -0
89.168732 57.294071 -0.72743684
83.858162 58.709015 0
79.642807 59.83215 0.45211461
73.661163 61.438389 -0.83315402
64 64 -0
78.417412 60.177292 -0.41656396
79.080162 60.001568 0
79.672943 59.844395 0.45284018
73.659286 61.451374 -0.83272648
64 64 -0
78.406937 60.198696 -0.4161284
79.115166 60.011826 0
79.622696 59.877914 0.45124406
73.662361 61.463047 -0.83272648
64 64 -0
78.416542 60.214787 -0.41627339
79.215637 60.004978 0
79.637703 59.894157 0.45153406
73.665421 61.474724 -0.83272648
64 64 -0
78.446259 60.225636 -0.41699952
83.853294 58.812946 0
82.473335 59.173489 0.53324324
73.673431 61.485115 -0.83315402
64 64 -0
78.465889 60.239178 -0.41743451
83.844437 58.84087 0
82.509338 59.187965 0.53411436
73.67646 61.496803 -0.83315402
64 64 -0
78.460365 60.259258 -0.41714451
83.815369 58.873978 0
79.86882 59.894909 0.45777464
73.674515 61.509777 -0.83272648
64 64 -0
78.495064 60.268963 -0.41801506
83.806427 58.901817 0
79.425865 60.029377 0.44485793
73.677513 61.521469 -0.83272648
64 64 -0
78.514671 60.282612 -0.41845062
83.767197 58.937374 0
78.98764 60.161476 0.4320862
73.675529 61.534431 -0.83229893
64 64 -0
78.51915 60.300152 -0.41845062
79.047501 60.165516 0
77.985138 60.436234 0.40305999
73.678505 61.546124 -0.83229893
64 64 -0
78.51355 60.320251 -0.41816062
78.991577 60.199051 0
64 64 0
73.681458 61.557819 -0.83229893
64 64 -0
78.528053 60.335251 -0.41845062
78.849808 60.254086 0
64 64 0
73.674438 61.572021 -0.83144218
64 64 -0
74.313721 61.411579 -0.29697517
78.808891 60.283436 0
77.972763 60.493275 0.40233442
73.667412 61.586197 -0.83058703
64 64 -0
74.246262 61.441666 -0.29494348
78.671974 60.336636 0
77.961861 60.513939 0.40189886
73.675293 61.596645 -0.83101463
64 64 -0
74.269516 61.449039 -0.29552406
74.236359 61.457275 0
77.961021 60.532063 0.40175387
73.678192 61.608337 -0.83101463
64 64 -0
74.277634 61.460205 -0.29566905
74.249542 61.467148 0
74.30262 61.454029 0.29638791
73.67466 61.61541 -0.83058703
64 64 -0
74.284203 61.465172 -0.29581404
74.251068 61.473339 0
74.283974 61.465229 0.29580736
73.68251 61.625881 -0.83101463
64 64 -0
74.282219 61.478836 -0.29566905
74.238945 61.489449 0
74.297134 61.475178 0.2960979
73.675392 61.640018 -0.83015788
64 64 -0
78.576584 60.444538 -0.41903117
74.317825 61.483318 0
74.29007 61.490089 0.29580736
73.688225 61.649288 -0.83101463
64 64 -0
78.601067 60.457253 -0.41961175
74.290497 61.503155 0
74.303207 61.500069 0.2960979
73.686066 61.662197 -0.83058703
64 64 -0
78.625542 60.47002 -0.4201923
74.364357 61.498489 0
74.336517 61.505207 0.29696846
73.65892 61.681099 -0.82801843
64 64 -0
64 64 -0
78.208603 60.588818 0
77.942352 60.652737 0.40044776
73.656731 61.693962 -0.82759088
64 64 -0
78.6492 60.501755 -0.42062786
64 64 0
77.996925 60.657516 0.40189886
73.649529 61.708004 -0.82673573
64 64 -0
78.678696 60.513454 -0.42135343
64 64 0
77.985779 60.678036 0.4014633
73.65728 61.718483 -0.82716334
73.709091 61.706245 -0.55598837
78.718285 60.522831 -0.42236897
78.241135 60.635559 0
77.9645 60.700912 0.40073776
73.635048 61.736027 -0.82502389
73.686684 61.723892 -0.55454719
78.737656 60.537052 -0.42280453
78.001991 60.709911 0
77.953316 60.721348 0.40030277
73.622772 61.751175 -0.82373959
73.65921 61.742661 -0.552818
78.741829 60.554859 -0.42280453
77.504196 60.844093 0
77.947136 60.740578 0.4000122
73.620483 61.763966 -0.82331204
73.646812 61.757847 -0.55195284
78.725739 60.577381 -0.42222399
77.132858 60.947605 0
78.001678 60.74567 0.4014633
73.625862 61.78722 -0.82331204
73.632034 61.785801 -0.55079967
78.627609 60.637428 -0.41917619
76.90686 61.03299 0
78.065216 60.766708 0.40305999
73.608505 61.803429 -0.82160014
73.659912 61.791679 -0.55224085
78.636719 60.653946 -0.41932118
76.849548 61.062508 0
78.05899 60.786022 0.40276998
73.651207 61.805939 -0.82502389
73.657532 61.804497 -0.55195284
78.772522 60.641678 -0.42309508
76.832787 61.082649 0
77.976715 60.822594 0.40030277
73.628799 61.823265 -0.82288283
73.645035 61.819592 -0.55108768
79.055351 60.596508 -0.43107733
76.815994 61.102749 0
77.909576 60.85553 0.39827052
73.645142 61.825695 -0.82416713
73.631226 61.828831 -0.55022365
79.143585 60.586178 -0.43354458
76.792358 61.116215 0
77.89119 60.868504 0.39768997
73.612709 61.845207 -0.8211726
73.63385 61.840469 -0.55022365
79.046272 60.627213 -0.4306418
76.760277 61.139645 0
77.945686 60.873924 0.39914164
73.650368 61.849007 -0.82416713
73.66169 61.846485 -0.55166483
78.984406 60.660095 -0.4287551
76.636719 61.183372 0
77.995102 60.8806 0.40044776
73.632912 61.865112 -0.82245529
73.654175 61.860401 -0.55108768
78.92247 60.692818 -0.42686844
78.860718 60.706505 0
78.186584 60.855911 0.40581778
73.625465 61.878963 -0.82160014
73.666862 61.869839 -0.55166483
78.92646 60.710854 -0.42686844
78.803688 60.737904 0
78.667404 60.767937 0.41946006
73.658104 61.884003 -0.82416713
73.669434 61.881523 -0.55166483
78.935493 60.727779 -0.42701343
76.71804 61.2136 0
79.752533 60.548775 0.45037293
73.660652 61.895676 -0.82416713
73.646713 61.898712 -0.55022365
78.949585 60.743618 -0.42730343
76.751907 61.222324 0
80.051193 60.503658 0.45879075
73.6381 61.912781 -0.82202768
73.649246 61.91037 -0.55022365
78.943359 60.763882 -0.42701343
76.755249 61.237736 0
78.455544 60.869522 0.41307393
73.640617 61.924431 -0.82202768
73.646698 61.923122 -0.54993451
78.957405 60.779755 -0.42730343
76.743309 61.256439 0
78.367874 60.906677 0.41046169
73.64312 61.936081 -0.82202768
73.634033 61.938023 -0.54907048
78.951134 60.800003 -0.42701343
76.766975 61.267479 0
78.05146 60.992561 0.40131831
73.675728 61.941326 -0.82459468
73.671921 61.942135 -0.55108768
78.934654 60.822395 -0.42643288
76.836441 61.268829 0
77.953445 61.031166 0.39841607
73.658112 61.957268 -0.82288283
73.649101 61.959171 -0.5496465
78.923225 60.843674 -0.42599732
76.916122 61.268185 0
64 64 0
73.675652 61.965767 -0.82416713
73.671814 61.966576 -0.55079967
78.982979 60.849945 -0.42759401
76.949966 61.277367 0
77.919891 61.073448 0.39725497
73.652985 61.982712 -0.82202768
73.674263 61.978264 -0.55079967
79.164803 60.830845 -0.43267345
79.05735 60.853302 0
77.969193 61.080704 0.39856109
73.660431 61.993332 -0.82245529
73.681755 61.988903 -0.55108768
79.428108 60.795269 -0.44007516
79.035667 60.876789 0
78.171143 61.056366 0.40422112
73.652802 62.00708 -0.82160014
73.648735 62.007923 -0.54907048
79.599922 60.77924 -0.44486463
86.246902 59.406902 0
78.388443 61.029362 0.41031668
73.655205 62.018745 -0.82160014
73.686592 62.012306 -0.55108768
79.680168 60.782421 -0.44704184
78.354874 61.054371 0
78.478561 61.028992 0.41278392
73.681549 62.019436 -0.82373959
73.68779 62.018158 -0.55108768
79.733017 60.781479 -0.44849297
78.300552 61.07452 0
78.526169 61.028366 0.41409004
73.688957 62.030113 -0.82416713
73.669899 62.033989 -0.54993451
89.086617 58.899578 -0.71495509
64 64 0
78.621407 61.027287 0.41670227
73.666176 62.046906 -0.82202768
73.677353 62.044647 -0.55022365
89.082581 58.93195 -0.71466511
78.001488 61.170937 0
78.696312 61.030544 0.41873449
73.65847 62.060608 -0.8211726
73.67971 62.056343 -0.55022365
86.388359 59.504478 -0.63774478
77.775276 61.233963 0
78.669312 61.054443 0.41786337
73.665833 62.071274 -0.82160014
73.676964 62.069054 -0.54993451
86.424362 59.525429 -0.63861591
77.579536 61.290333 0
78.784973 61.049801 0.42105618
73.64801 62.086948 -0.81988829
73.689445 62.078735 -0.55051166
86.429756 59.552528 -0.63861591
77.256058 61.371529 0
77.009544 61.42041 0.37040541
73.680534 62.092655 -0.82245529
73.671463 62.094444 -0.54935849
86.353531 59.595711 -0.63629371
77.192841 61.400627 0
77.150307 61.409008 0.37432376
73.7836 62.084625 -0.83101463
73.688988 62.103149 -0.55022365
86.414948 59.611736 -0.63789034
77.344101 61.387573 0
77.219727 61.411922 0.37621045
73.71666 62.109921 -0.55166483
86.455925 59.631882 -0.63890594
77.541389 61.365932 0
77.212646 61.429878 0.37592044
73.759567 62.113808 -0.55397117
86.502007 59.651131 -0.64006704
77.549667 61.38131 0
77.241257 61.440918 0.37664601
78.181335 61.277 -0.80477172
86.532761 59.673424 -0.64079261
77.36882 61.433014 0
77.244339 61.456917 0.37664601
78.204941 61.29026 -0.80592489
88.089767 59.404633 -0.68491274
76.656158 61.585709 0
77.242302 61.473896 0.37650099
78.233635 61.302608 -0.80736721
88.217842 59.410519 -0.6883961
76.413597 61.647522 0
77.250443 61.488934 0.37664601
78.221626 61.322681 -0.80650204
88.289757 59.427288 -0.69028276
76.395973 61.666374 0
77.258568 61.503983 0.376791
78.250267 61.335114 -0.80794322
88.356567 59.445175 -0.69202447
76.378319 61.685181 0
77.25647 61.520962 0.37664601
76.365768 61.702988 0
77.264565 61.536034 0.376791
76.414597 61.709435 0
77.272659 61.551117 0.37693655
76.555573 61.699104 0
77.275604 61.567154 0.37693655
77.196976 61.589806 0
77.266838 61.577045 0.37664601
77.450806 61.560238 0
82.807343 60.588646 0.53382385
77.515213 61.565418 0
78.668869 61.357605 0.41626728
77.554016 61.575336 0
78.574852 61.392719 0.41350946
77.510818 61.599907 0
78.235184 61.47123 0.40378556
77.406067 61.63522 0
78.181946 61.49836 0.40218943
77.306381 61.66938 0
80.319443 61.14164 0.4627091
92.011597 59.128632 -0.79405206
77.145088 61.713997 0
80.266579 61.171154 0.46111298
91.966263 59.171322 -0.79260093
77.101685 61.737854 0
80.269989 61.190811 0.46111298
91.987427 59.202484 -0.79303592
77.207008 61.736095 0
77.73288 61.645954 0.38912717
91.931747 59.246765 -0.79129481
77.363663 61.725861 0
77.853554 61.642494 0.3924655
91.896477 59.287445 -0.79013371
77.510101 61.717735 0
77.861511 61.658371 0.39261049
91.886765 59.323734 -0.78969818
77.584709 61.722012 0
77.854095 61.676842 0.39232051
91.882156 59.359138 -0.78940815
77.638786 61.729885 0
77.826118 61.698704 0.39144939
91.862091 59.397068 -0.78868204
77.641518 61.746365 0
80.320679 61.303757 0.46198356
91.841995 59.43494 -0.78795648
77.628838 61.765373 0
80.277771 61.331047 0.46067744
91.816727 59.473595 -0.78708595
77.559593 61.793549 0
80.280991 61.350716 0.46067744
91.809181 59.492065 -0.78679538
77.488998 61.8134 0
80.118423 61.387165 0.45603296
91.804359 59.527317 -0.7865054
77.435104 61.838795 0
79.567474 61.495777 0.44035903
91.768684 59.567471 -0.78534424
77.417145 61.858311 0
79.437065 61.535885 0.43658566
91.774017 59.601028 -0.78534424
77.409447 61.876152 0
98.364113 58.557259 0.9716872
91.774185 59.635395 -0.78519928
77.350304 61.902054 0
86.51712 60.461525 0.63657755
91.779442 59.668961 -0.78519928
79.533287 61.578236 0
86.454628 60.499142 0.63469088
91.805199 59.699348 -0.78577983
79.654518 61.578705 0
86.494781 60.520718 0.63570642
91.748726 59.776722 -0.78389317
79.783821 61.597748 0
77.769424 61.904331 0.38898215
91.738388 59.812584 -0.78345758
79.730087 61.625366 0
77.874725 61.905457 0.39188495
91.717728 59.849949 -0.78273201
79.691765 61.650543 0
77.861816 61.92453 0.39144939
91.676468 59.890312 -0.78142589
79.710045 61.66721 0
77.72554 61.961891 0.38753104
64 64 -0
79.723145 61.684677 0
64 64 0
64 64 -0
79.664124 61.712704 0
64 64 0
64 64 -0
79.486595 61.757736 0
64 64 0
64 64 -0
79.391418 61.790501 0
77.390579 62.077728 0.37780711
64 64 -0
79.31163 61.820831 0
77.367172 62.097569 0.37708154
79.278168 61.844425 0
77.354019 62.115902 0.37664601
79.650558 61.801529 0
77.334572 62.126862 0.37606543
79.859421 61.791729 0
77.321381 62.145126 0.37562987
105.99197 58.204735 0
77.318466 62.161934 0.37548488
106.00411 58.254768 0
77.310387 62.179436 0.37519488
106.13479 58.28875 0
77.271378 62.201103 0.37403378
106.21904 58.329273 0
77.247795 62.2206 0.37330821
106.5509 58.337032 0
77.239624 62.23798 0.37301764
106.73315 58.365318 0
77.272667 62.249901 0.37388876
106.77605 58.412239 0
77.300537 62.262573 0.37461433
106.8344 58.457249 0
77.333534 62.274647 0.37548488
100.53249 59.317589 0
77.340759 62.2901 0.37562987
79.812645 61.992691 0
77.358292 62.304256 0.37606543
87.760307 61.012959 -0.66880327
79.778923 62.016342 0
77.360329 62.320396 0.37606543
87.79483 61.037819 -0.6696738
79.776123 62.036057 0
77.352043 62.337826 0.37577543
87.782936 61.068478 -0.66923881
79.768166 62.056393 0
77.348869 62.354599 0.37562987
64 64 -0
100.86493 59.501186 0
77.299271 62.377022 0.37417877
64 64 -0
100.75667 59.559464 0
77.280586 62.395588 0.37359822
87.771042 61.142815 -0.66865826
100.83684 59.572357 0
77.26091 62.40609 0.37301764
87.712555 61.178905 -0.66691661
100.91969 59.607647 0
77.262833 62.422115 0.37301764
87.67981 61.211815 -0.66590047
101.35916 59.601135 0
77.290527 62.435104 0.37374321
87.672852 61.241631 -0.66561049
101.57642 59.621582 0
77.359512 62.443344 0.37562987
87.68132 61.269642 -0.66575545
101.68509 59.655067 0
77.413017 62.453537 0.37708154
87.674286 61.299435 -0.66546547
77.613235 62.447117 0
77.425194 62.468567 0.37737155
87.703346 61.32513 -0.66619104
77.573723 62.468235 0
77.43219 62.484207 0.37751657
87.732384 61.350891 -0.66691661
77.47728 62.495609 0
77.418533 62.502167 0.37708154
87.761391 61.376717 -0.66764212
64 64 0
77.420334 62.518379 0.37708154
87.785202 61.403175 -0.66822273
64 64 0
77.463448 62.530087 0.37824267
87.778 61.433029 -0.66793269
64 64 0
77.496201 62.543011 0.37911323
87.744911 61.465626 -0.66691661
64 64 0
77.513458 62.557663 0.37954879
87.613586 61.508495 -0.66314322
77.351547 62.591259 0
77.530685 62.572357 0.37998378
87.564888 61.542419 -0.66169155
64 64 0
77.578934 62.583855 0.38129047
87.521317 61.575691 -0.66038543
77.297974 62.629398 0
77.756386 62.58215 0.38622493
87.524231 61.604115 -0.66038543
77.289253 62.646523 0
78.678329 62.505047 0.41205835
87.542625 61.630978 -0.66082102
77.301247 62.661537 0
78.669777 62.523827 0.41176781
87.560989 61.657883 -0.66125655
77.333923 62.674522 0
78.619843 62.546692 0.41031668
87.583084 61.670074 -0.6618371
77.314003 62.684624 0
78.532806 62.564213 0.40784946
87.642769 61.693024 -0.66343325
77.325928 62.699703 0
78.544861 62.580765 0.40813944
87.671394 61.719101 -0.66415882
77.332687 62.715305 0
78.681076 62.585381 0.41191337
87.710358 61.744259 -0.6651749
77.277229 62.736839 0
78.90522 62.581955 0.41815394
87.73893 61.770481 -0.66590047
77.278748 62.752884 0
79.015572 62.589764 0.42120174
87.731262 61.800125 -0.66561049
77.254333 62.771332 0
78.996567 62.609825 0.42062116
87.754608 61.826904 -0.66619104
77.219521 62.790665 0
78.910263 62.635994 0.41815394
87.726151 61.858414 -0.66531992
77.226173 62.806171 0
78.75663 62.668026 0.41380003
87.713203 61.888466 -0.66488492
77.237961 62.821232 0
78.473541 62.711208 0.40581778
87.746796 61.914394 -0.66575545
77.23938 62.837227 0
78.356018 62.739155 0.40247944
77.266693 62.850979 0
78.310936 62.76054 0.40117332
77.299202 62.864353 0
78.312424 62.777832 0.40117332
88.223099 61.961018 0
78.308716 62.795563 0.40102831
64 64 -0
88.17366 61.994591 0
78.253189 62.817577 0.39943165
88.087875 62.03101 0
78.228714 62.836918 0.39870608
64 64 -0
88.05394 62.063042 0
78.235283 62.853695 0.3988511
64 64 -0
88.056259 62.092106 0
78.241829 62.870487 0.39899608
64 64 -0
88.063736 62.12077 0
78.217285 62.889717 0.39827052
64 64 -0
87.937355 62.174282 0
78.157089 62.920231 0.39652884
64 64 -0
87.87207 62.208271 0
78.236122 62.931503 0.39870608
64 64 -0
87.827507 62.240566 0
78.372147 62.938755 0.40247944
64 64 -0
87.762138 62.274261 0
78.508179 62.946335 0.40625277
64 64 -0
93.339478 61.904839 -0.82148218
87.748627 62.304089 0
78.582016 62.958683 0.40828502
64 64 -0
93.274597 61.945023 -0.81959552
87.761032 62.332054 0
78.593628 62.975578 0.408575
64 64 -0
93.282242 61.980038 -0.81974047
87.820152 62.356827 0
78.620773 62.991425 0.40930057
64 64 -0
93.320961 62.012962 -0.82075661
87.837708 62.384552 0
78.627159 63.008739 0.40944555
64 64 -0
93.349258 62.046665 -0.82148218
87.844826 62.413013 0
78.623169 63.02676 0.40930057
64 64 -0
87.678581 62.452812 -0.66270769
87.851913 62.441486 0
78.707306 63.039005 0.41162279
64 64 -0
87.716736 62.479095 -0.66372377
87.853783 62.470306 0
78.832924 63.048798 0.41510615
64 64 -0
87.718559 62.507755 -0.66372377
87.871201 62.49815 0
79.02594 63.054649 0.4204756
64 64 -0
87.668465 62.539616 -0.6622721
87.898972 62.525394 0
79.146378 63.065441 0.42381397
64 64 -0
93.370895 62.223389 -0.82177216
87.911133 62.553642 0
79.199364 63.080608 0.42526507
64 64 -0
87.55262 62.603889 -0.65893435
97.940384 61.988144 0
79.247147 63.096207 0.42657119
64 64 -0
87.523148 62.634159 -0.65806323
97.942795 62.029156 0
98.562759 61.993156 0.96689773
64 64 -0
64 64 -0
97.954376 62.049065 0
98.584717 62.012844 0.96747828
64 64 -0
64 64 -0
97.961899 62.089802 0
98.587097 62.054634 0.96747828
64 64 -0
64 64 -0
97.969376 62.13055 0
98.589417 62.096428 0.96747828
64 64 -0
87.590988 62.730297 -0.65980488
97.987213 62.170761 0
98.602066 62.137669 0.96776825
64 64 -0
87.623657 62.757168 -0.660676
98.010185 62.210735 0
98.619865 62.178658 0.96820384
64 64 -0
87.666656 62.783577 -0.6618371
93.791656 62.468765 0
98.590912 62.222092 0.96733326
64 64 -0
87.68367 62.811394 -0.6622721
93.793488 62.504761 0
98.624161 62.262325 0.96820384
64 64 -0
87.638382 62.8423 -0.66096598
93.800461 62.540508 0
98.662582 62.302383 0.96921992
64 64 -0
87.691681 62.868382 -0.66241765
93.864594 62.57354 0
98.690552 62.343029 0.96994549
64 64 -0
87.770882 62.893387 -0.66459435
93.892288 62.608414 0
98.749641 62.38229 0.97154218
64 64 -0
87.808548 62.920464 -0.66561049
93.774353 62.649956 0
93.985947 62.640362 0.83831054
64 64 -0
87.835793 62.948086 -0.666336
93.75518 62.686852 0
93.987564 62.676598 0.83831054
64 64 -0
64 64 -0
87.774734 62.979561 -0.66459435
93.741135 62.723476 0
93.968369 62.713722 0.83772999
64 64 -0
64 64 -0
87.599426 63.015652 -0.65965986
93.810257 62.756592 0
93.975113 62.749718 0.83787555
64 64 -0
87.735596 63.0387 -0.66343325
93.738937 62.795563 0
93.976601 62.785938 0.83787555
64 64 -0
88.022331 63.05616 -0.67141551
94.026413 62.820259 0
93.998817 62.821342 0.83845609
64 64 -0
64 64 -0
88.215591 63.077869 -0.67678553
94.241043 62.848423 0
94.020996 62.8568 0.83903664
64 64 -0
64 64 -0
88.25824 63.105598 -0.67794663
94.247627 62.884769 0
102.40921 62.583851 1.0734248
64 64 -0
64 64 -0
88.228134 63.136021 -0.67707551
94.285355 62.920021 0
102.46801 62.628227 1.0750209
64 64 -0
64 64 -0
88.124794 63.154301 -0.6741733
81.474625 63.387424 0
81.253632 63.395172 0.48215696
64 64 -0
64 64 -0
88.006332 63.187496 -0.67083496
81.475357 63.408539 0
81.264725 63.415668 0.48244697
64 64 -0
64 64 -0
87.861877 63.221249 -0.66677159
81.444832 63.430676 0
81.291405 63.43568 0.48317307
64 64 -0
64 64 -0
87.795288 63.252205 -0.66488492
81.403885 63.45306 0
64 64 0
64 64 -0
64 64 -0
87.816948 63.280327 -0.66546547
81.43576 63.473148 0
81.261543 63.478413 0.48230195
64 64 -0
64 64 -0
87.786621 63.310009 -0.66459435
81.431168 63.494366 0
81.262161 63.499268 0.48230195
64 64 -0
64 64 -0
87.886147 63.33601 -0.66735214
81.410973 63.516006 0
81.278343 63.519695 0.48273751
64 64 -0
64 64 -0
87.886932 63.364872 -0.66735214
81.395935 63.53746 0
81.263321 63.540985 0.48230195
64 64 -0
64 64 -0
87.695465 63.398613 -0.66198212
81.422485 63.557819 0
81.289833 63.561188 0.48302752
64 64 -0
64 64 -0
87.467575 63.43277 -0.65559596
81.412613 63.579124 0
81.279968 63.582329 0.48273751
64 64 -0
64 64 -0
87.379929 63.463154 -0.65312874
81.397491 63.600521 0
81.285652 63.603088 0.48288253
64 64 -0
64 64 -0
87.655922 63.485416 -0.66082102
81.356339 63.622448 0
81.301712 63.623638 0.48331806
64 64 -0
64 64 -0
87.82798 63.510475 -0.66561049
81.351578 63.643528 0
81.338531 63.643795 0.4843342
64 64 -0
64 64 -0
87.953239 63.536858 -0.66909325
81.341583 63.664696 0
81.328545 63.664948 0.48404363
64 64 -0
64 64 -0
88.000565 63.564953 -0.6703999
81.440857 63.683857 0
81.334129 63.685791 0.48418865
64 64 -0
64 64 -0
