# .PCD v0.7 - Point Cloud Data file format
VERSION 0.7
FIELDS x y z
SIZE 4 4 4
TYPE F F F
COUNT 1 1 1
WIDTH 1712
HEIGHT 1
VIEWPOINT 0 0 0 1 0 0 0
POINTS 1712
DATA ascii
84.664772 82.374352 0.77227587
83.921188 81.756325 -0.74528801
84.489449 82.262833 0
84.758934 82.503036 0.77662975
83.988838 81.860016 -0.74862576
84.494537 82.311859 0
85.139565 82.888191 0.79172313
84.021431 81.932686 -0.75065744
84.472397 82.336609 0
85.259956 83.042007 0.79709315
84.069359 82.019371 -0.75327027
84.446358 82.357864 0
85.356812 83.175316 0.80159265
84.194351 82.175713 -0.75878525
84.439636 82.396484 0
85.426315 83.284531 0.80507541
84.237961 82.259277 -0.76125252
84.436714 82.438599 0
85.53418 83.428764 0.8100099
84.277542 82.339478 -0.76357418
84.561104 82.59594 0
85.614761 83.548889 0.81392878
84.282318 82.388405 -0.76459026
84.897217 82.945885 0
85.668114 83.644791 0.81683099
84.244705 82.398918 -0.76400971
85.036087 83.118149 0
85.740501 83.758339 0.82045937
84.222046 82.40065 -0.76357418
85.113068 83.211411 0
85.778526 83.81694 0.82234603
84.207489 82.432083 -0.76386476
85.193672 83.331619 0
85.827522 83.909782 0.82510382
79.751785 78.402756 -0.59609187
79.623734 78.285675 0
85.987534 84.104462 0.83206999
79.734375 78.421783 -0.59609187
79.575768 78.276405 0
86.051338 84.211777 0.83540833
79.724594 78.447823 -0.59638244
79.566177 78.302269 0
86.149345 84.350906 0.84005225
79.691833 78.452728 -0.59580189
79.533569 78.306961 0
86.224121 84.469193 0.84382558
79.670547 78.468155 -0.59565687
79.508614 78.318649 0
86.325371 84.612366 0.84861505
79.645416 78.480011 -0.5953663
79.521866 78.365662 0
86.430122 84.759338 0.85354948
79.631729 78.502457 -0.59551185
79.493042 78.373787 0
86.504066 84.878311 0.85732281
79.595154 78.503624 -0.59478575
79.456612 78.374771 0
86.585381 85.004593 0.86138678
79.556267 78.537727 -0.59464073
79.47126 78.458282 0
86.743378 85.254257 0.86936897
79.527313 78.545845 -0.5942052
79.62851 78.640648 0
86.858002 85.413177 0.87473899
79.50972 78.564598 -0.5942052
79.637367 78.684464 0
86.953323 85.554611 0.87938291
79.492111 78.583328 -0.5942052
79.593079 78.678375 0
87.055916 85.70343 0.8843174
79.47448 78.602036 -0.5942052
79.579117 78.700775 0
87.165749 85.859673 0.8895424
79.44928 78.613586 -0.59391516
79.56134 78.719589 0
87.256348 85.998352 0.8940413
79.424065 78.625092 -0.59362465
79.573761 78.767029 0
87.308937 86.101517 0.89708912
79.402618 78.640137 -0.59347963
79.518188 78.749985 0
87.425346 86.265717 0.9026041
79.384918 78.658737 -0.59347963
79.658615 78.919518 0
87.481194 86.372864 0.90579695
79.370949 78.680901 -0.59362465
79.828766 79.118172 0
87.589432 86.530441 0.91102195
79.339546 78.66864 -0.59275407
79.891098 79.196068 0
79.508392 78.830101 0.59927851
79.310555 78.676376 -0.59231853
79.865219 79.208061 0
79.509216 78.866806 0.60000408
79.304054 78.705673 -0.59275407
87.138779 86.234062 0
79.472504 78.867538 0.59927851
79.282532 78.720551 -0.59260905
87.194382 86.341446 0
87.785873 86.911194 0.922342
79.261002 78.735397 -0.59246409
87.275932 86.474289 0
79.27578 78.749672 0.59303796
79.243187 78.75383 -0.59246409
87.405838 86.654434 0
79.172058 78.684982 0.58969957
79.232803 78.779465 -0.59275407
87.542816 86.842171 0
79.102097 78.652649 0.58766794
79.222389 78.805115 -0.59304464
87.586082 86.939545 0
79.062035 78.649155 0.58679736
79.204491 78.823494 -0.59304464
87.576981 86.986191 0
79.036873 78.66008 0.58650678
79.246017 78.899963 -0.5953663
87.575249 87.040131 0
79.078613 78.736359 0.58882904
79.328239 79.016571 -0.59928519
87.603165 87.123238 0
79.109055 78.801842 0.59071571
79.402779 79.126106 -0.60291356
87.642044 87.217377 0
79.050369 78.780029 0.58911902
79.443733 79.203026 -0.60523522
81.957611 81.677719 0
78.93251 78.699776 0.58520067
79.477142 79.272789 -0.60726744
81.969574 81.732307 0
78.885147 78.688606 0.58403957
79.573204 79.404762 -0.6117664
81.948135 81.754005 0
78.834137 78.673691 0.58273345
79.440193 79.31015 -0.60726744
81.911888 81.761017 0
78.768425 78.644043 0.58084679
79.274246 79.182243 -0.60146189
81.879349 81.771652 0
78.735977 78.647217 0.58026624
81.269531 81.207047 -0.68084943
81.809929 81.745491 0
78.806625 78.753052 0.58374959
81.292839 81.271957 -0.68259054
81.755325 81.733879 0
78.954231 78.936172 0.59028018
81.341736 81.362701 -0.68534833
81.730209 81.75164 0
78.928841 78.946884 0.58999014
81.408783 81.472 -0.68883169
81.723434 81.787804 0
78.888748 78.942818 0.58911902
81.511848 81.596695 -0.69333059
81.742065 81.828018 0
78.872398 78.94445 0.58882904
81.596756 81.724792 -0.69753945
81.969856 82.100609 0
78.861641 78.96978 0.58911902
81.703308 81.875267 -0.70261896
82.21167 82.388565 0
78.825264 78.969269 0.58839345
81.743782 81.959488 -0.70508617
82.266258 82.488312 0
78.810814 78.99086 0.58853847
81.773132 82.03273 -0.70711786
82.229294 82.495544 0
78.836464 79.053162 0.59028018
81.75499 82.057907 -0.70726341
81.980698 82.28746 0
78.858345 79.111847 0.5918768
81.656738 82.001434 -0.70421559
81.568611 81.911591 0
78.850983 79.140907 0.5923118
81.500496 81.885323 -0.69884557
81.434113 81.817482 0
78.810875 79.136559 0.59144127
81.424423 81.85067 -0.69666839
81.390755 81.816177 0
78.738136 79.098671 0.58926457
81.399216 81.867996 -0.69652337
81.383743 81.852097 0
78.640114 79.034554 0.58607125
81.33416 81.844269 -0.69478166
81.521729 82.037361 0
78.596596 79.026146 0.58505571
81.247498 81.798035 -0.69216943
81.662903 82.226707 0
78.607361 79.073631 0.58621681
81.189865 81.781502 -0.69071835
81.655342 82.263 0
78.589142 79.09127 0.58621681
81.16114 81.794769 -0.69042778
81.66217 82.314301 0
78.599739 79.138794 0.58737737
81.121613 81.796776 -0.68970221
81.69416 82.391891 0
78.657097 79.235069 0.59042513
81.071312 81.787453 -0.68854111
81.736786 82.48085 0
78.692657 79.309013 0.59260237
80.995911 81.75177 -0.68636441
81.72525 82.51355 0
78.645401 79.29673 0.59144127
80.960091 81.757263 -0.68578386
81.72802 82.561287 0
78.569473 79.25428 0.58911902
80.956543 81.796555 -0.68650943
81.831253 82.714592 0
78.511612 79.230499 0.58752292
80.924278 81.805725 -0.6860739
82.03093 82.970009 0
78.47171 79.225418 0.5866518
80.877716 81.799759 -0.68505776
82.09037 83.078659 0
78.481903 79.273056 0.5878129
80.781212 81.719406 -0.681575
82.032318 83.040459 0
78.501266 79.311989 0.58897406
80.724091 81.701889 -0.68012327
81.855606 82.899551 0
78.457764 79.303055 0.58795792
80.670616 81.688049 -0.67881715
81.74707 82.830208 0
78.432144 79.312958 0.58766794
80.599396 81.655182 -0.67678553
81.720749 82.847847 0
78.420738 79.337952 0.58795792
80.371857 81.455383 -0.66836768
81.690834 82.861649 0
78.384422 79.336411 0.58723235
80.247787 81.365105 -0.66415882
81.575577 82.784195 0
78.348137 79.334816 0.58650678
80.219711 81.377136 -0.66386878
81.510246 82.759758 0
78.357964 79.38253 0.58766794
80.1987 81.396713 -0.66386878
81.455643 82.74662 0
78.357071 79.418884 0.58839345
80.177673 81.416275 -0.66386878
81.411736 82.744827 0
78.352577 79.451447 0.58897406
80.181343 81.462502 -0.66488492
81.374924 82.75058 0
78.340965 79.47641 0.58926457
80.174339 81.497299 -0.66546547
81.334587 82.752457 0
78.3293 79.501358 0.58955461
80.234024 81.64724 -0.6696738
81.324455 82.832588 0
78.277725 79.520638 0.58897406
78.438316 79.733322 -0.59638244
81.357994 82.914871 0
78.280037 79.560844 0.58984458
80.928223 82.491356 -0.70015168
81.419464 83.027954 0
78.254211 79.570427 0.58955461
80.902367 82.507965 -0.70000672
81.505272 83.168137 0
78.207352 79.556946 0.58839345
80.897491 82.547577 -0.70073229
81.562714 83.277756 0
78.139557 79.520325 0.58636183
80.889046 82.583359 -0.70131284
81.560417 83.322083 0
78.103317 79.518166 0.58563626
80.863098 82.599915 -0.70116782
85.857941 88.109207 0
78.06012 79.508247 0.58462012
84.068428 86.189201 -0.83556002
85.818314 88.124016 0
78.07972 79.567627 0.58621681
84.048561 86.221146 -0.83585
85.80658 88.169678 0
78.130508 79.661781 0.58911902
84.056465 86.283989 -0.83730167
85.770401 88.188278 0
78.118538 79.686577 0.58940959
84.074265 86.330879 -0.83860779
85.752312 88.197556 0
78.112526 79.698967 0.58955461
78.215134 79.851585 -0.59464073
85.723061 88.223824 0
78.072739 79.692795 0.58868402
84.124184 86.495514 -0.84296173
85.679893 88.234543 0
78.008728 79.659439 0.58679736
84.069305 86.4888 -0.84180057
85.681778 88.29567 0
77.975952 79.660851 0.58621681
83.986832 86.450928 -0.83947837
81.361046 83.501419 0
77.950104 79.669952 0.58592623
83.907936 86.416786 -0.83730167
81.340919 83.526268 0
77.93116 79.686798 0.58592623
83.87738 86.43692 -0.83715612
81.320763 83.551102 0
77.956985 79.754181 0.5878129
83.894989 86.511543 -0.83904278
86.336151 89.273766 0
77.937943 79.771034 0.5878129
83.936508 86.613525 -0.84194559
86.377884 89.382721 0
77.963554 79.838539 0.58969957
84.008698 86.750771 -0.84615451
101.41602 106.54366 0
78.085114 80.015396 0.5956502
84.039452 86.841339 -0.84862173
101.39547 106.62404 0
78.151436 80.130066 0.59927851
78.012299 80.010452 -0.5942052
101.33365 106.65744 0
78.094284 80.104126 0.59768182
84.011536 86.921013 -0.84978282
101.29236 106.71429 0
78.023552 80.062439 0.59550518
83.994072 86.95694 -0.85021842
101.23387 106.75146 0
78.041672 80.122467 0.59710127
87.316612 90.83725 -0.99288285
101.18219 106.79642 0
78.046043 80.166885 0.59811741
87.301186 90.885033 -0.99360842
101.1066 106.8138 0
78.009483 80.164215 0.59739184
87.272095 90.917114 -0.99375397
101.04802 106.85072 0
77.979736 80.169334 0.59695631
87.24633 90.953079 -0.99404395
100.99962 106.89938 0
77.909286 80.127197 0.59477961
87.217133 90.985077 -0.99418896
100.94775 106.94406 0
77.801659 80.04155 0.59100568
87.228508 91.064377 -0.99607563
100.8755 106.96498 0
77.636734 79.888657 0.58476514
100.8168 107.00161 0
77.489098 79.755119 0.5792501
77.810707 80.150497 -0.59347963
100.79419 107.0278 0
77.425537 79.700073 0.5769279
77.828293 80.210663 -0.59507632
100.74554 107.07618 0
77.409943 79.720245 0.57707345
77.791855 80.207581 -0.59435076
77.507309 79.873192 0
77.444809 79.799744 0.57939512
64 64 -0
77.49823 79.901413 0
77.476158 79.875412 0.58157235
77.692192 80.169464 -0.59173799
64 64 0
77.460327 79.895645 0.58171731
81.512299 84.731468 -0.75791413
64 64 0
77.394165 79.856331 0.57968569
81.497284 84.764542 -0.75834972
64 64 0
77.318069 79.804947 0.57721841
81.48555 84.801575 -0.75893027
77.411163 79.954506 0
77.275551 79.793175 0.57620233
64 64 -0
77.388535 79.966713 0
77.273148 79.829109 0.5769279
64 64 -0
77.372574 79.98687 0
77.284035 79.881027 0.57823455
64 64 -0
77.346581 79.995033 0
77.251518 79.881104 0.577654
77.285652 79.961182 -0.57998234
77.333893 80.019142 0
77.212364 79.873131 0.57678288
77.263039 79.973228 -0.57983738
77.30455 80.023224 0
77.176575 79.869095 0.57605731
77.240417 79.985245 -0.57969236
77.285179 80.039284 0
77.160706 79.889008 0.57620233
64 64 -0
77.21447 79.99321 -0.57940179
77.27243 80.063362 0
77.214317 79.993027 0.57939512
64 64 -0
77.214973 80.033234 -0.58027291
77.243073 80.067329 0
77.22142 80.041061 0.58055621
64 64 -0
77.205482 80.061218 -0.58070791
77.223648 80.083321 0
77.165733 80.012878 0.57896012
64 64 -0
77.176186 80.065125 -0.58027291
77.197617 80.091248 0
77.113411 79.988586 0.57750845
64 64 -0
77.196259 80.129303 -0.58201456
77.184746 80.115234 0
77.113838 80.028564 0.57837957
77.147171 80.108986 -0.58070791
77.158691 80.123093 0
77.09446 80.044395 0.57837957
77.111298 80.104713 -0.57998234
77.14576 80.147049 0
77.078339 80.064232 0.57852453
77.055801 80.07618 -0.57838625
77.11969 80.154846 0
77.045815 80.063889 0.57794398
77.0429 80.100014 -0.57867622
77.096886 80.166649 0
77.046021 80.103859 0.57881457
77.029907 80.103851 -0.57853127
77.090385 80.178596 0
77.082062 80.168304 0.58084679
77.026756 80.139801 -0.57925677
77.070824 80.194405 0
77.098404 80.228577 0.58244288
77.000732 80.147438 -0.5789668
77.034927 80.189919 0
85.017593 90.104706 0.93598479
76.968193 80.146927 -0.57838625
77.021873 80.21376 0
84.979523 90.121979 0.93569428
76.95517 80.170692 -0.57867622
76.999023 80.225433 0
84.954445 90.155426 0.93598479
76.932373 80.182281 -0.57853127
76.982651 80.245186 0
84.906593 90.160416 0.93525869
76.916054 80.20195 -0.57867622
76.953278 80.24865 0
84.874969 90.185654 0.93525869
76.886757 80.205338 -0.57824069
76.946594 80.280579 0
77.391182 80.839661 0.60087466
76.883324 80.241272 -0.5789668
76.920448 80.288071 0
77.46772 80.977982 0.60522908
76.831161 80.256042 -0.57838625
76.871368 80.306984 0
64 64 0
76.805069 80.263351 -0.57809567
76.854874 80.326607 0
77.412514 81.034851 0.60551912
76.79184 80.287003 -0.57838625
76.835136 80.342133 0
77.385506 81.042877 0.60522908
76.765732 80.29425 -0.57809567
76.812172 80.353531 0
77.364899 81.059036 0.60522908
76.746033 80.309662 -0.57809567
76.792404 80.369003 0
77.344284 81.075172 0.60522908
76.723129 80.320961 -0.57795066
76.772614 80.384445 0
77.326828 81.095383 0.6053741
76.712967 80.348633 -0.57838625
76.749619 80.395767 0
77.306168 81.111473 0.6053741
76.69001 80.359863 -0.57824069
76.732986 80.415268 0
77.275917 81.115211 0.60493857
76.651161 80.350533 -0.57737011
76.706779 80.422409 0
77.258408 81.135345 0.60508353
76.631393 80.365807 -0.57737011
76.683731 80.433624 0
77.23452 81.147247 0.60493857
76.621124 80.393417 -0.5778057
76.667053 80.453072 0
77.213791 81.163223 0.60493857
76.594971 80.400406 -0.57751513
76.640816 80.460098 0
77.18988 81.175064 0.60479355
76.584625 80.427994 -0.57795066
76.624084 80.479492 0
77.17543 81.199226 0.60508353
76.581009 80.443832 -0.57824069
76.610962 80.482986 0
77.155579 81.194817 0.60464853
76.551682 80.44664 -0.5778057
76.594193 80.50235 0
77.134789 81.210701 0.60464853
76.522354 80.449387 -0.57737011
76.56163 80.500984 0
77.120277 81.234818 0.60493857
76.518181 80.485199 -0.57809567
76.544838 80.520309 0
77.093163 81.242386 0.60464853
76.482567 80.479599 -0.57737011
76.531151 80.543747 0
77.072319 81.258194 0.60464853
76.453239 80.482231 -0.57693458
76.511154 80.558876 0
77.060844 81.286407 0.60508353
76.43644 80.501411 -0.57707959
76.481735 80.561508 0
77.055595 81.322937 0.60580963
76.416496 80.516426 -0.57707959
76.47422 80.593216 0
77.028404 81.330383 0.60551912
76.390297 80.523109 -0.57678956
76.447922 80.59996 0
77.01992 81.362747 0.60609967
64 64 -0
76.427856 80.614983 0
76.992714 81.370148 0.60580963
64 64 -0
76.445122 80.680054 0
76.974823 81.389999 0.60595465
76.33963 80.580429 -0.57722515
76.602074 80.93306 0
76.956902 81.409828 0.60609967
76.328873 80.607834 -0.57766014
76.867027 81.332756 0
76.935852 81.425476 0.60609967
76.30571 80.618546 -0.57751513
76.88015 81.39431 0
76.914787 81.441086 0.60609967
76.285622 80.6334 -0.57751513
76.862213 81.41404 0
76.887535 81.448334 0.60580963
76.293251 80.685883 -0.57882124
76.838074 81.425385 0
76.86644 81.46389 0.60580963
76.426949 80.910103 -0.58607793
76.810837 81.432487 0
76.851486 81.487793 0.60609967
76.69223 81.314888 -0.59957522
76.795929 81.45636 0
76.827271 81.499115 0.60595465
76.741852 81.426704 -0.60291356
76.78096 81.480202 0
76.806122 81.514603 0.60595465
76.736092 81.463074 -0.60363913
76.759834 81.495628 0
76.778816 81.52166 0.60566407
64 64 -0
76.741745 81.515244 0
76.754578 81.53289 0.60551912
76.654175 81.439133 -0.60175246
76.726692 81.539062 0
76.739494 81.556709 0.60580963
76.640579 81.442551 -0.60160691
76.709976 81.538307 0
76.738029 81.577011 0.60624468
64 64 -0
76.694878 81.562096 0
76.707657 81.579773 0.60580963
64 64 -0
76.670609 81.573204 0
76.683357 81.590881 0.60566407
64 64 -0
76.652405 81.592728 0
76.653 81.593552 0.60522908
64 64 -0
76.619003 81.59108 0
76.640808 81.621483 0.60566407
64 64 -0
76.594711 81.602089 0
76.622543 81.640984 0.60580963
64 64 -0
76.582489 81.62999 0
76.592155 81.643524 0.6053741
76.516708 81.58271 -0.602768
76.555153 81.636703 0
76.576851 81.667191 0.60566407
76.480415 81.576637 -0.60204244
76.539856 81.660347 0
76.549484 81.673904 0.6053741
76.456169 81.587471 -0.60189742
76.521523 81.679749 0
76.525116 81.684822 0.60522908
76.428902 81.594009 -0.60160691
76.494141 81.686348 0
76.512726 81.712662 0.60566407
76.413628 81.617523 -0.60189742
76.472755 81.701431 0
76.488327 81.723526 0.60551912
76.389343 81.628258 -0.60175246
76.448372 81.712234 0
76.466896 81.738602 0.60551912
76.368042 81.643219 -0.60175246
76.426956 81.727264 0
76.442474 81.749405 0.6053741
76.355637 81.670914 -0.60218745
76.40255 81.738007 0
76.421021 81.76442 0.6053741
76.340225 81.694366 -0.60247803
76.384079 81.757248 0
76.393593 81.770889 0.60508353
76.304001 81.687935 -0.60175246
76.365585 81.776466 0
76.38102 81.798653 0.60551912
76.294472 81.719864 -0.60233301
76.350037 81.799957 0
76.359505 81.813599 0.60551912
76.264175 81.721886 -0.60189742
76.319633 81.802017 0
76.332062 81.819977 0.60522908
76.236847 81.728127 -0.60160691
76.304024 81.825455 0
76.313469 81.839142 0.6053741
76.212471 81.738625 -0.60146189
76.273628 81.827454 0
76.286003 81.845436 0.60508353
76.196915 81.761948 -0.60175246
76.252075 81.84227 0
76.267387 81.864563 0.60522908
76.18618 81.76931 -0.60175246
76.247177 81.858246 0
76.259521 81.876251 0.6053741
76.1735 81.796875 -0.60218745
76.228523 81.877327 0
76.229111 81.878181 0.60493857
76.146133 81.802994 -0.60189742
76.201057 81.883499 0
76.225082 81.918716 0.60580963
76.121689 81.81337 -0.60175246
76.173576 81.889618 0
76.185867 81.907684 0.60493857
76.105988 81.836594 -0.60204244
76.157799 81.912933 0
76.158394 81.913803 0.60464853
76.090263 81.859825 -0.60233301
76.139061 81.931915 0
76.151306 81.949997 0.6053741
76.041252 81.880356 -0.60204244
76.101517 81.969841 0
76.113693 81.987915 0.60566407
76.019638 81.894897 -0.60204244
76.073982 81.9758 0
76.086159 81.993927 0.6053741
75.989326 81.896446 -0.60160691
76.052254 81.990372 0
76.061516 82.004204 0.60522908
75.967697 81.910919 -0.60160691
76.021828 81.991936 0
76.033974 82.010109 0.60493857
75.957573 81.942665 -0.60218745
76.017403 82.032448 0
76.017975 82.033295 0.60522908
75.938766 81.961441 -0.60233301
75.989838 82.038277 0
75.99617 82.047806 0.60522908
75.90844 81.96286 -0.60189742
75.965164 82.048416 0
75.982964 82.075272 0.60566407
75.886726 81.977234 -0.60189742
75.940475 82.058525 0
75.958252 82.085403 0.60551912
75.862137 81.987251 -0.60175246
75.915787 82.068596 0
75.933533 82.095505 0.6053741
75.834679 81.992874 -0.60146189
75.902519 82.096016 0
75.905937 82.101219 0.60508353
75.832886 82.037582 -0.60247803
75.880646 82.110382 0
75.88121 82.111252 0.60493857
64 64 -0
75.844505 82.102951 0
75.873543 82.147331 0.60566407
75.783577 82.057419 -0.60218745
75.828316 82.125977 0
75.845932 82.152969 0.6053741
75.764587 82.076004 -0.60233301
75.809242 82.144615 0
75.835327 82.184692 0.60595465
75.75367 82.083115 -0.60233301
75.801109 82.156105 0
75.818672 82.183121 0.60566407
64 64 -0
75.784836 82.179092 0
75.796692 82.197388 0.60566407
75.712753 82.115822 -0.60247803
75.726112 82.13649 0
75.771873 82.207268 0.60551912
75.688042 82.125595 -0.60233301
75.69574 82.137527 0
75.755508 82.230225 0.60580963
75.663315 82.135323 -0.60218745
75.69915 82.191048 0
75.725029 82.231293 0.6053741
75.641388 82.149406 -0.60218745
75.677162 82.20517 0
75.714218 82.262947 0.60595465
75.622261 82.167847 -0.60233301
75.643936 82.201729 0
75.686539 82.268326 0.60566407
75.608681 82.195007 -0.602768
75.621933 82.215782 0
75.664452 82.282433 0.60566407
75.575523 82.191483 -0.60218745
75.597122 82.225426 0
75.650726 82.309669 0.60609967
75.556328 82.209854 -0.60233301
75.569504 82.230629 0
75.631378 82.328117 0.60624468
75.528755 82.215019 -0.60204244
75.561386 82.266579 0
75.609222 82.342155 0.60624468
75.509506 82.233322 -0.60218745
75.525421 82.25853 0
75.578735 82.343002 0.60580963
75.487465 82.247223 -0.60218745
75.514442 82.29007 0
75.556564 82.356979 0.60580963
75.465408 82.261086 -0.60218745
75.484024 82.290733 0
75.531601 82.366516 0.60566407
75.440582 82.270523 -0.60204244
75.478493 82.331078 0
75.512169 82.38485 0.60580963
75.421249 82.288742 -0.60218745
75.439789 82.318436 0
75.498199 82.411957 0.60624468
75.40464 82.311356 -0.60247803
75.439659 82.367592 0
75.470451 82.417023 0.60595465
75.382507 82.325127 -0.60247803
75.414719 82.376984 0
75.450928 82.43528 0.60609967
75.352142 82.325607 -0.60204244
75.384277 82.37748 0
75.428642 82.449104 0.60609967
75.335457 82.34816 -0.60233301
75.362061 82.39122 0
75.400887 82.454071 0.60580963
75.316002 82.366264 -0.60247803
75.339828 82.404938 0
75.386749 82.481094 0.60624468
75.291084 82.375504 -0.60233301
75.323044 82.427505 0
75.36441 82.494835 0.60624468
75.277252 82.377876 -0.60218745
75.311905 82.434341 0
75.350517 82.497269 0.60609967
75.265892 82.409225 -0.602768
75.297775 82.461319 0
75.325455 82.506546 0.60595465
75.240936 82.418388 -0.60262299
75.270035 82.466064 0
75.308495 82.529083 0.60624468
75.215973 82.427521 -0.60247803
75.247711 82.479668 0
75.296906 82.560486 0.60682523
75.199089 82.449936 -0.602768
75.228073 82.497696 0
75.274467 82.574127 0.60682523
75.179482 82.467911 -0.60291356
75.20842 82.515709 0
75.243942 82.574394 0.60638964
75.151787 82.472504 -0.60262299
75.180649 82.520317 0
75.232231 82.605759 0.60697019
75.126778 82.481514 -0.60247803
75.163635 82.54274 0
75.204384 82.61042 0.60668021
75.109787 82.503845 -0.602768
75.133186 82.542824 0
75.176537 82.615028 0.60638964
75.090096 82.521729 -0.60291356
75.118797 82.569664 0
75.167389 82.650826 0.60711575
75.067703 82.535118 -0.60291356
75.093674 82.578606 0
75.142174 82.659828 0.60697019
75.045303 82.548477 -0.60291356
75.052582 82.560707 0
75.111649 82.659897 0.6065352
75.020218 82.557327 -0.602768
75.038116 82.587463 0
75.091743 82.677773 0.60668021
75.000443 82.575119 -0.60291356
75.005035 82.58287 0
75.061226 82.677742 0.60624468
74.977997 82.588394 -0.60291356
74.990517 82.609604 0
75.049217 82.708992 0.60682523
74.960793 82.610596 -0.60320354
74.978592 82.640808 0
75.023972 82.717857 0.60668021
74.933044 82.614868 -0.60291356
74.963966 82.667526 0
75.006599 82.74012 0.60697019
74.907906 82.623566 -0.602768
74.944031 82.685249 0
74.986588 82.757904 0.60711575
74.888023 82.641235 -0.60291356
74.929321 82.711945 0
74.974396 82.789108 0.60769635
74.875954 82.67234 -0.60349411
74.893616 82.702652 0
74.941223 82.784393 0.60711575
74.845551 82.671982 -0.60305858
74.871002 82.715805 0
74.934174 82.824554 0.60798633
74.828186 82.694061 -0.60334855
74.85099 82.733429 0
74.906212 82.828773 0.60769635
74.819504 82.705109 -0.60349411
74.839668 82.739975 0
74.889626 82.826355 0.60740578
74.794289 82.713654 -0.60334855
74.811813 82.744034 0
74.866875 82.839493 0.60740578
74.776855 82.735703 -0.60363913
74.799538 82.775131 0
74.851875 82.866135 0.60784131
74.754211 82.748711 -0.60363913
74.782028 82.797211 0
74.826492 82.874725 0.60769635
74.723801 82.748154 -0.60320354
74.759308 82.810226 0
74.806252 82.892303 0.60784131
74.68103 82.778526 -0.60334855
74.706093 82.822594 0
74.757996 82.913849 0.60769635
74.663467 82.800468 -0.60363913
74.701324 82.86721 0
74.735138 82.926834 0.60769635
74.640739 82.813339 -0.60363913
74.668266 82.862007 0
74.707138 82.930733 0.60740578
74.628212 82.844292 -0.60421968
74.653137 82.888489 0
74.686806 82.948181 0.6075508
74.605438 82.857117 -0.60421968
74.627754 82.896797 0
74.666458 82.965622 0.60769635
74.575012 82.856316 -0.60378414
74.612549 82.923248 0
74.656242 83.001152 0.60842186
74.554756 82.873611 -0.6039291
74.576981 82.913345 0
74.623131 82.995872 0.60784131
74.531944 82.886353 -0.6039291
74.569321 82.953384 0
74.600166 83.008698 0.60784131
74.51165 82.903618 -0.60407466
74.533768 82.943398 0
74.58477 83.035118 0.6082769
74.493835 82.925385 -0.60436469
74.520966 82.974319 0
74.564285 83.052437 0.60842186
74.468445 82.93351 -0.60421968
74.495514 82.982468 0
74.536217 83.056084 0.60813135
74.448067 82.950691 -0.60436469
74.470062 82.990585 0
74.515701 83.073364 0.6082769
74.422661 82.958755 -0.60421968
74.449615 83.007774 0
74.495148 83.090607 0.60842186
74.39975 82.971329 -0.60421968
74.426636 83.020386 0
74.464577 83.0896 0.60798633
74.381798 82.992996 -0.60450965
74.411133 83.046661 0
74.451477 83.120468 0.60856688
74.356354 83.000969 -0.60436469
74.38562 83.054657 0
74.433334 83.142197 0.60885692
74.333389 83.013466 -0.60436469
74.367561 83.076355 0
74.402756 83.141106 0.60842186
74.315353 83.035065 -0.60465467
74.354424 83.10717 0
74.387039 83.167358 0.60885692
74.292343 83.047516 -0.60465467
74.32885 83.115074 0
74.363876 83.179893 0.60885692
74.275909 83.044594 -0.60436469
74.309891 83.107582 0
74.349823 83.18158 0.6087119
74.257805 83.066139 -0.60465467
74.286797 83.120026 0
74.331566 83.203239 0.60900247
74.239677 83.087692 -0.60494524
74.261215 83.127838 0
74.308357 83.215706 0.60900247
74.216606 83.100052 -0.60494524
74.247917 83.158585 0
74.287575 83.232727 0.60914743
74.19352 83.112381 -0.60494524
74.224762 83.170952 0
74.259438 83.235962 0.60885692
74.172859 83.129265 -0.60509026
74.196709 83.17411 0
74.238632 83.252945 0.60900247
74.147308 83.136955 -0.60494524
74.180847 83.200218 0
74.217789 83.26989 0.60914743
74.124176 83.1492 -0.60494524
74.147911 83.194099 0
74.19693 83.286812 0.60929245
74.110725 83.17981 -0.60552579
74.12471 83.206345 0
74.173615 83.299118 0.60929245
74.082703 83.182808 -0.60523522
74.11602 83.246201 0
74.152702 83.315994 0.60943747
74.059517 83.194977 -0.60523522
74.087929 83.249199 0
74.131775 83.332863 0.60958302
74.043533 83.22094 -0.60567081
74.069481 83.270592 0
74.110817 83.349693 0.60972798
74.025108 83.242287 -0.60596132
74.046188 83.282745 0
74.087425 83.361893 0.60972798
73.992271 83.235939 -0.60538077
74.030083 83.308731 0
74.064026 83.374069 0.60972798
73.971405 83.252609 -0.60552579
74.004356 83.316223 0
74.04538 83.395439 0.61001801
73.955292 83.278503 -0.60596132
73.978607 83.323654 0
74.02433 83.412193 0.61016357
73.934372 83.295135 -0.60610634
73.962402 83.349586 0
73.993729 83.410423 0.60972798
73.906296 83.297867 -0.60581577
73.934265 83.352356 0
73.975006 83.431725 0.61001801
73.892441 83.328323 -0.60639638
73.917984 83.378235 0
73.953896 83.448402 0.61016357
73.866722 83.33564 -0.60625136
73.887474 83.376312 0
73.930389 83.460419 0.61016357
73.852776 83.366074 -0.60683191
73.871124 83.402145 0
73.906868 83.472397 0.61016357
73.822311 83.364059 -0.60639638
73.847672 83.414062 0
73.880974 83.479706 0.61001801
73.805946 83.389832 -0.60683191
73.824211 83.425941 0
73.85743 83.491638 0.61001801
73.791893 83.391113 -0.60668689
73.819511 83.445816 0
73.852684 83.511505 0.61045355
73.77079 83.40757 -0.60683191
73.791336 83.44838 0
73.836113 83.537331 0.61088914
73.751991 83.428642 -0.60712188
73.772491 83.46949 0
73.814827 83.553841 0.6110341
73.726181 83.435768 -0.60697693
73.746635 83.476639 0
73.784218 83.551735 0.61059856
73.709656 83.461464 -0.60741246
73.730057 83.502357 0
73.765228 83.572853 0.61088914
73.681496 83.463867 -0.60712188
73.708809 83.518776 0
73.74157 83.584641 0.61088914
73.662598 83.484871 -0.60741246
73.685219 83.530487 0
73.720207 83.601044 0.6110341
73.648254 83.515167 -0.60799301
73.661613 83.542175 0
73.698814 83.617432 0.61117911
73.617775 83.512817 -0.60755748
73.635681 83.549156 0
73.672813 83.624481 0.6110341
73.596481 83.529083 -0.60770249
73.614357 83.565468 0
73.651382 83.640816 0.61117911
73.570587 83.536011 -0.60755748
73.590706 83.577072 0
73.632217 83.661804 0.61146969
73.551544 83.556908 -0.60784805
73.576187 83.607353 0
73.610733 83.678093 0.6116147
73.530182 83.573097 -0.60799301
73.554764 83.623589 0
73.584679 83.685028 0.61146969
73.508789 83.589272 -0.60813802
73.52877 83.63044 0
73.567688 83.710602 0.61190468
73.489647 83.610107 -0.6084286
73.507309 83.646622 0
73.534813 83.703453 0.61132467
73.465942 83.621567 -0.6084286
73.490356 83.672165 0
73.517769 83.728989 0.61175966
73.439972 83.628288 -0.60828304
73.466576 83.683617 0
73.500679 83.754532 0.61219525
73.420746 83.649063 -0.60857356
73.433784 83.67627 0
73.472305 83.756615 0.61190468
73.401474 83.6698 -0.60886359
73.412247 83.692337 0
73.455154 83.78212 0.61234021
73.37323 83.671768 -0.60857356
73.395164 83.717804 0
73.426781 83.784149 0.61205024
73.356148 83.697174 -0.60900915
73.369087 83.724426 0
73.409546 83.809601 0.61248523
73.320427 83.714096 -0.60900915
73.340004 83.755493 0
73.373627 83.826622 0.61248523
73.303246 83.739433 -0.60944414
73.311691 83.757355 0
73.34745 83.833237 0.61234021
73.272758 83.736565 -0.60900915
73.294441 83.782715 0
73.327904 83.853928 0.61263078
73.259926 83.771278 -0.60973471
73.270531 83.79393 0
73.303909 83.865189 0.61263078
73.236031 83.782455 -0.60973471
73.246613 83.805115 0
73.290886 83.899956 0.61335635
73.21431 83.798309 -0.60987967
73.227066 83.825722 0
73.262444 83.901733 0.61306578
73.183815 83.79528 -0.60944414
73.205292 83.841576 0
73.244957 83.927063 0.61350137
73.164261 83.815804 -0.60973471
73.183495 83.857399 0
73.218689 83.933502 0.61335635
73.142487 83.831573 -0.60987967
73.1595 83.868484 0
73.201126 83.958794 0.61379188
73.120682 83.847328 -0.61002469
73.131142 83.870087 0
73.174828 83.965157 0.61364633
73.098854 83.863052 -0.61016971
73.115799 83.900032 0
73.15287 83.980972 0.61379188
73.081329 83.888222 -0.61060524
73.096062 83.920494 0
73.128723 83.992012 0.61379188
73.055138 83.894455 -0.61046028
73.06768 83.922005 0
73.106705 84.007751 0.6139369
73.037537 83.919586 -0.61089581
73.0522 83.951904 0
73.084671 84.023468 0.61408192
73.017738 83.939949 -0.61118579
73.02594 83.958076 0
73.058327 84.029701 0.6139369
72.987228 83.936615 -0.61075026
73.001816 83.968964 0
73.0448 84.064316 0.61466247
72.969528 83.961685 -0.61118579
72.981949 83.989334 0
73.022675 84.079971 0.61480749
72.941154 83.963028 -0.61089581
72.959915 84.004913 0
73.000526 84.095596 0.61495245
72.923378 83.988037 -0.61133081
72.935738 84.015732 0
72.969894 84.092232 0.61451745
72.90345 84.008316 -0.61162138
72.915779 84.036026 0
72.937157 84.084061 0.6139369
72.877159 84.014313 -0.61147636
72.887344 84.037262 0
72.917091 84.10434 0.61422694
72.85717 84.034523 -0.6117664
72.873642 84.071785 0
72.892792 84.115097 0.61422694
72.826668 84.030937 -0.61133081
72.84938 84.082489 0
72.868484 84.125832 0.61422694
72.810814 84.060623 -0.61191136
72.833481 84.112236 0
72.848343 84.146057 0.61451745
72.802872 84.07547 -0.61220193
72.817154 84.10804 0
72.82782 84.132362 0.6139369
72.77861 84.08609 -0.61220193
72.79702 84.128212 0
72.809723 84.157288 0.6143719
72.754333 84.09668 -0.61220193
72.762299 84.114975 0
72.793663 84.186974 0.61495245
72.730042 84.107246 -0.61220193
72.708969 84.058716 0
72.769264 84.197586 0.61495245
72.703674 84.113014 -0.61205691
72.585503 83.839928 0
72.74279 84.2034 0.61480749
72.685539 84.137817 -0.61249191
72.507935 83.726028 0
72.718376 84.213951 0.61480749
72.657097 84.138763 -0.61220193
72.434769 83.621552 0
72.698051 84.234024 0.615098
72.634804 84.153976 -0.61234695
72.345459 83.47863 0
72.681786 84.263626 0.61567861
72.60228 84.145279 -0.6117664
72.274902 83.378616 0
72.649132 84.25499 0.615098
72.551483 84.093498 -0.60987967
72.194412 83.254501 0
72.63279 84.284554 0.61567861
72.464294 83.955521 -0.60538077
72.158951 83.235641 0
72.610298 84.299744 0.61582357
72.379471 83.822136 -0.60102689
72.133667 83.240677 0
72.581711 84.300552 0.61553305
72.290947 83.678993 -0.59638244
72.108398 83.245697 0
72.563232 84.325279 0.61596859
72.20681 83.545258 -0.5920285
72.089172 83.265091 0
72.534645 84.326035 0.61567861
72.116982 83.396957 -0.58723903
72.069901 83.284447 0
72.510086 84.336334 0.61567861
72.053535 83.310822 -0.58433628
72.046593 83.294182 0
74.933823 90.217194 0.79331982
72.008255 83.267761 -0.58274013
72.009293 83.270241 0
74.900139 90.225594 0.7931748
71.986961 83.282227 -0.58288515
71.995964 83.303963 0
74.876396 90.25795 0.79375535
71.96167 83.287064 -0.58274013
71.990509 83.356903 0
74.838715 90.256653 0.79331982
71.940338 83.301468 -0.58288515
71.96711 83.366547 0
74.810936 90.279358 0.79361039
71.924896 83.330284 -0.5834657
71.953575 83.400238 0
74.781143 90.297203 0.79375535
71.899567 83.335037 -0.58332068
71.932091 83.414642 0
74.755257 90.324646 0.79419094
71.878159 83.34938 -0.5834657
71.90863 83.424217 0
74.721481 90.332794 0.79404539
71.837189 83.315544 -0.58215958
71.889069 83.443413 0
74.689651 90.345734 0.79404539
71.837219 83.349167 -0.58303016
71.875366 83.443336 0
74.677643 90.361832 0.79433596
71.831337 83.401993 -0.58433628
71.855766 83.462502 0
74.64772 90.379524 0.79448092
71.798195 83.387337 -0.58361071
71.836121 83.481628 0
74.621658 90.406837 0.79491651
71.784431 83.42086 -0.58433628
71.810638 83.486252 0
74.591675 90.424477 0.79506147
71.77253 83.459221 -0.5852074
71.794815 83.515015 0
74.555878 90.427589 0.79477096
71.747086 83.463753 -0.58506185
71.773148 83.529251 0
74.531631 90.459641 0.79535151
71.725479 83.477943 -0.5852074
71.757225 83.557983 0
74.499649 90.472351 0.79535151
71.707664 83.501755 -0.5856424
71.714462 83.518944 0
74.473389 90.499519 0.79578704
71.672668 83.482048 -0.58477181
71.704216 83.562134 0
74.44136 90.512154 0.79578704
71.664314 83.530006 -0.58593291
71.676773 83.561752 0
74.411217 90.529587 0.79593205
71.642601 83.544083 -0.58607793
71.664497 83.60009 0
74.377258 90.537308 0.79578704
71.615211 83.543633 -0.58578795
71.638924 83.604492 0
74.352737 90.569199 0.79636759
71.597229 83.567337 -0.58622295
71.626534 83.64283 0
74.320625 90.581688 0.79636759
71.577332 83.586212 -0.58651352
71.584015 83.603477 0
74.294121 90.608688 0.79680318
71.555527 83.600189 -0.58665848
71.575294 83.651474 0
74.263832 90.625946 0.79694819
71.517426 83.642654 -0.58738405
71.542671 83.708618 0
74.205032 90.665237 0.79738373
71.488136 83.637177 -0.58694905
71.518852 83.717712 0
74.170944 90.672684 0.79723817
71.460709 83.636482 -0.58665848
64 64 0
74.13871 90.684952 0.79723817
71.457214 83.698952 -0.58825517
71.454597 83.692024 0
74.12854 90.755508 0.79897982
64 64 -0
71.422401 83.678764 -0.58738405
71.428963 83.696152 0
74.087036 90.743416 0.79825431
71.404106 83.702316 -0.58781964
71.412476 83.724602 0
74.043747 90.72641 0.79738373
71.383934 83.72097 -0.58810961
71.412369 83.796906 0
74.015091 90.748245 0.7976737
71.3601 83.729881 -0.58810961
71.472122 84.030167 0
73.995476 90.794418 0.79868984
71.351807 83.744072 -0.58840019
73.953636 90.731567 0
73.977478 90.795586 0.79854482
71.333374 83.767563 -0.58883572
73.921333 90.743576 0
73.952324 90.82711 0.79912537
71.295067 83.737411 -0.58767462
73.892624 90.76532 0
73.912689 90.819618 0.79854482
71.287369 83.7901 -0.58898073
73.865662 90.791893 0
73.891052 90.860825 0.79941541
71.290298 83.872063 -0.59115738
73.826118 90.784264 0
73.867538 90.897148 0.80014098
71.32872 84.051697 -0.59623742
73.799103 90.810768 0
73.8386 90.918823 0.80043149
73.235405 89.36348 -0.75385082
73.772049 90.837265 0
73.804283 90.925797 0.80028594
73.215385 89.403915 -0.75472134
73.750259 90.878403 0
73.775291 90.947403 0.80057651
73.186447 89.419922 -0.75486636
73.714241 90.880386 0
73.737419 90.944527 0.80014098
73.157486 89.435883 -0.75501138
73.685272 90.901886 0
73.713654 90.980713 0.80086648
73.123238 89.437157 -0.75472134
73.654526 90.918488 0
73.688065 91.012001 0.80144709
73.11348 89.506889 -0.75646305
73.627243 90.944824 0
73.655418 91.023689 0.80144709
73.075676 89.498299 -0.7558825
73.591187 90.94664 0
73.619278 91.025551 0.80115706
73.048332 89.519028 -0.75617248
73.563843 90.972931 0
73.586617 91.037155 0.80115706
73.017487 89.529945 -0.75617248
73.522568 90.959915 0
73.548744 91.034012 0.80072153
72.984909 89.535927 -0.75602746
73.491722 90.976318 0
73.509171 91.025925 0.80014098
72.959213 89.561478 -0.75646305
73.48494 91.06144 0
73.467918 91.012878 0.79941541
72.930031 89.577194 -0.75660801
73.455666 91.082718 0
73.428421 91.004669 0.79883486
72.909355 89.617401 -0.75747859
73.405838 91.044952 0
73.397491 91.02095 0.79897982
72.869888 89.6036 -0.75675303
73.383377 91.085815 0
73.373337 91.056831 0.79970539
72.84404 89.629044 -0.75718862
73.350639 91.09713 0
73.333862 91.048508 0.79912537
72.821503 89.664276 -0.75791413
73.31958 91.113327 0
73.30455 91.06958 0.79941541
72.792175 89.679832 -0.75805914
73.2649 91.060562 0
73.280251 91.105385 0.80014098
72.764496 89.700287 -0.75834972
73.227158 91.056946 0
73.245811 91.111664 0.79999596
72.752312 89.715408 -0.75863969
73.197388 91.023102 0
73.234459 91.132011 0.80043149
72.711227 89.696442 -0.75776917
73.17308 91.058838 0
73.201668 91.14315 0.80043149
70.89135 84.409218 -0.60160691
73.150375 91.099495 0
73.175514 91.173943 0.8010121
70.874969 84.442177 -0.60233301
73.117622 91.110535 0
73.14267 91.185013 0.8010121
72.636177 89.782059 -0.7593658
73.084862 91.121529 0
73.099915 91.166458 0.80014098
72.600082 89.777679 -0.75893027
73.050438 91.127556 0
73.04734 91.118279 0.79839927
72.575485 89.807785 -0.75951082
73.024216 91.158234 0
72.978516 91.020699 0.79520649
72.541031 89.808243 -0.75922024
72.986488 91.154282 0
72.909943 90.922997 0.7920137
72.514717 89.833359 -0.75965583
72.966705 91.204666 0
72.833488 90.800491 0.78809536
72.480263 89.833763 -0.7593658
72.924088 91.185806 0
72.773544 90.727211 0.78562814
72.452263 89.853859 -0.75965583
72.899315 91.221298 0
72.684723 90.564903 0.7805481
72.421021 89.864059 -0.75965583
72.853531 91.192459 0
72.622055 90.481499 0.77779084
72.389763 89.874214 -0.75965583
72.811035 91.173416 0
72.543564 90.348541 0.77358198
72.363281 89.89917 -0.76009136
72.752602 91.104797 0
72.489365 90.289619 0.7715503
72.333572 89.9142 -0.76023638
72.672043 90.966705 0
72.440094 90.24543 0.76995361
72.303841 89.929199 -0.7603814
72.595009 90.838387 0
72.398865 90.225922 0.76908308
70.571976 84.607056 -0.60407466
72.542015 90.784294 0
72.371902 90.250893 0.76951808
70.540779 84.595169 -0.60349411
72.473404 90.680489 0
72.341759 90.265961 0.76966363
70.51902 84.612953 -0.60378414
72.403496 90.571602 0
72.311577 90.280968 0.76980859
70.495667 84.625771 -0.6039291
72.344803 90.497345 0
72.28138 90.295944 0.76995361
70.472305 84.63858 -0.60407466
72.273849 90.38327 0
72.240273 90.276184 0.76908308
70.448906 84.651337 -0.60421968
70.474892 84.734543 0
72.211609 90.296036 0.76937306
70.436432 84.655228 -0.60421968
70.459267 84.728516 0
72.21582 90.365494 0.77125973
70.417625 84.682846 -0.60480022
70.423416 84.701508 0
72.200897 90.43 0.77285641
70.400299 84.715408 -0.60552579
72.136078 90.333488 0
71.061394 86.855118 0.66807103
70.373741 84.718163 -0.60538077
72.105789 90.348267 0
71.053635 86.9282 0.6699577
70.35479 84.745728 -0.60596132
72.07547 90.363014 0
72.109596 90.474449 0.77329141
64 64 -0
72.04512 90.377731 0
72.079124 90.489212 0.77343696
70.322754 84.820679 -0.60770249
72.011734 90.382454 0
72.047112 90.498955 0.77343696
70.315636 84.887993 -0.60944414
71.978348 90.387138 0
72.01358 90.50367 0.77329141
70.296387 84.915512 -0.61002469
71.946457 90.396759 0
71.975563 90.493446 0.7727114
70.247307 84.935646 -0.61016971
71.89901 90.470734 0
71.929344 90.57238 0.77445251
70.222008 84.943176 -0.61016971
71.868507 90.485268 0
71.888351 90.552063 0.77358198
70.196693 84.950684 -0.61016971
71.836494 90.494751 0
71.859207 90.571533 0.77387196
70.175781 84.973114 -0.61060524
71.808884 90.519165 0
71.831497 90.59597 0.77430755
70.150436 84.98056 -0.61060524
71.776833 90.52858 0
70.625473 86.601036 0.65776652
70.125084 84.987976 -0.61060524
71.749153 90.552956 0
70.577782 86.539192 0.65573484
70.098267 84.990379 -0.61046028
71.715607 90.557304 0
70.5317 86.482246 0.65384817
71.357864 89.440636 -0.73962742
71.686401 90.576599 0
70.44677 86.290436 0.64804262
71.33287 89.469482 -0.74020797
71.668694 90.635895 0
70.437088 86.358139 0.64978427
71.304955 89.488327 -0.74049854
71.633629 90.635124 0
70.547516 86.845474 0.66371709
71.271301 89.487129 -0.74020797
71.602867 90.64933 0
70.522751 86.86335 0.66400713
71.251854 89.535889 -0.74136907
71.570663 90.658493 0
70.468155 86.776245 0.66124988
68.87648 81.250809 -0.99907142
71.220993 89.544632 -0.74136907
71.546944 90.697685 0
70.377014 86.559006 0.65471876
68.858437 81.266632 -0.99964744
71.207016 89.613373 -0.74311078
71.516083 90.711792 0
70.308929 86.421623 0.65050983
68.829201 81.242615 -0.99791825
71.222313 89.787201 -0.74790025
71.482399 90.715851 0
70.389755 86.81456 0.66168541
68.804192 81.233482 -0.99705309
71.372559 90.446663 -0.7667675
71.455704 90.744926 0
70.391487 86.927383 0.66473323
68.784081 81.201508 -0.99503589
71.381645 90.541229 -0.76937973
71.447914 90.779503 0
70.388771 86.971283 0.66589379
68.761909 81.202278 -0.99474674
71.350952 90.55513 -0.76952475
71.414162 90.78347 0
71.435463 90.860413 0.77837145
68.731506 81.173126 -0.99272954
71.334045 90.61911 -0.77112144
71.383179 90.797424 0
71.401619 90.864357 0.7782259
68.71212 81.183815 -0.99301755
71.308746 90.653008 -0.77184701
71.353546 90.816376 0
69.413559 83.74176 0.57170343
68.687263 81.174515 -0.99215239
71.279274 90.671837 -0.77213699
71.323875 90.835274 0
69.392433 83.758301 0.57199341
68.661087 81.160202 -0.99099922
71.244316 90.670593 -0.77184701
71.292809 90.849121 0
69.36174 83.739731 0.57126784
68.634949 81.145844 -0.98984605
71.214798 90.689346 -0.77213699
71.257645 90.84787 0
71.293388 90.980087 0.7805481
68.615578 81.156441 -0.99013519
71.18119 90.693031 -0.77199197
71.231964 90.881752 0
71.248634 90.94371 0.77924198
68.584137 81.122032 -0.98782885
71.136841 90.656517 -0.77068585
71.199478 90.890472 0
71.218765 90.962502 0.77953255
68.562111 81.122543 -0.98753971
71.097939 90.640015 -0.76996028
71.170998 90.914246 0
70.095779 86.878723 0.66124988
68.540092 81.123047 -0.9872517
71.052422 90.598328 -0.76850861
71.141136 90.932938 0
70.06147 86.860954 0.66052431
68.515442 81.11351 -0.98638654
71.011002 90.571671 -0.76749307
71.108589 90.941544 0
70.012634 86.787865 0.65820205
68.490822 81.103958 -0.98552251
70.960411 90.509766 -0.76546139
71.081322 90.970253 0
69.722473 85.794891 0.62932086
68.471458 81.114372 -0.98581052
70.906036 90.432663 -0.76299363
71.05925 91.019081 0
69.655411 85.645912 0.62482136
68.433853 81.054688 -0.982063
70.857094 90.375603 -0.76110697
71.026596 91.027588 0
69.604408 85.557175 0.62206417
68.414543 81.065033 -0.98235101
70.804405 90.303391 -0.75878525
70.991333 91.025993 0
69.562737 85.503555 0.62032247
68.393913 81.070358 -0.98235101
70.746704 90.210938 -0.7558825
70.967751 91.069687 0
69.514732 85.424713 0.61785525
68.37072 81.065643 -0.98177499
70.700844 90.163681 -0.75428581
70.933746 91.073051 0
69.473366 85.370941 0.6161136
68.34243 81.040817 -0.98004466
70.670517 90.176811 -0.75443137
70.89846 91.071335 0
69.42701 85.296989 0.61379188
66.214912 72.735977 -0.99825591
68.324387 81.056091 -0.98062181
69.895584 87.253166 -0.66996437
69.452301 85.504799 0
69.380836 85.222931 0.61146969
66.201866 72.728798 -0.99713117
68.289856 81.006126 -0.97745031
69.856041 87.214928 -0.66865826
69.423775 85.501289 0
69.338669 85.16391 0.60958302
66.190086 72.726532 -0.99656886
68.269302 81.011299 -0.97745031
69.826721 87.216949 -0.66851324
69.414261 85.573448 0
69.301704 85.124985 0.6082769
66.178307 72.724228 -0.99600434
68.24498 81.001381 -0.97658515
69.803696 87.244125 -0.66909325
69.379356 85.544617 0
69.267365 85.096077 0.60726076
66.166534 72.721924 -0.99544203
68.221947 80.996468 -0.97600913
69.783127 87.281387 -0.66996437
69.339523 85.495552 0
69.243118 85.107468 0.60740578
65.736275 71.026062 -0.99839115
66.153564 72.714676 -0.99431729
68.187752 80.946312 -0.97283763
69.758736 87.303497 -0.6703999
69.296059 85.431236 0
64 64 0
65.733231 71.031998 -0.99908531
66.144646 72.701172 -0.9926281
68.183708 80.973969 -0.97427994
69.31311 85.556145 -0.62003917
69.260696 85.343475 0
69.2061 85.121979 0.6075508
65.724731 71.034088 -0.99908531
66.129288 72.684013 -0.99037659
68.153336 80.938812 -0.9719736
69.299438 85.613014 -0.6214903
69.220024 85.289154 0
69.178101 85.118164 0.60726076
65.717422 71.041039 -0.99977684
66.116386 72.676712 -0.98925191
68.121841 80.898598 -0.96937925
69.288094 85.679985 -0.62323195
69.178268 85.229713 0
69.156273 85.139557 0.60769635
65.70536 71.028473 -0.99769968
66.105904 72.679268 -0.98925191
68.101418 80.903564 -0.96937925
69.25209 85.645958 -0.62207085
69.137878 85.175255 0
69.13073 85.145775 0.60769635
65.695694 71.025658 -0.99700814
66.091835 72.666977 -0.98756272
68.083412 80.918556 -0.96995527
69.206421 85.571457 -0.61974865
69.108635 85.166283 0
69.108826 85.167099 0.60813135
65.68486 71.017952 -0.9956252
66.078987 72.659607 -0.98643583
68.059341 80.908386 -0.9690901
69.164589 85.512047 -0.61786193
69.08062 85.162308 0
69.086891 85.188423 0.60856688
65.675209 71.015091 -0.99493104
66.06852 72.662109 -0.98643583
68.034103 80.89315 -0.96793693
69.1241 85.457611 -0.61612028
69.055046 85.168434 0
69.062492 85.1996 0.6087119
65.664413 71.007355 -0.99354804
66.056885 72.659668 -0.98587352
68.008911 80.877884 -0.96678376
69.078957 85.382889 -0.61379802
69.028267 85.169464 0
69.029671 85.175377 0.60784131
65.655945 71.009361 -0.99354804
66.042908 72.647308 -0.98418432
67.992081 80.89782 -0.96764892
69.035194 85.313164 -0.61162138
69.007469 85.195786 0
69.01722 85.237061 0.60943747
65.65551 71.045532 -0.99839115
66.022003 72.605247 -0.97911888
66.741928 75.669128 -0.99919713
67.964561 80.872421 -0.96591973
64 64 -0
68.98423 85.211945 0
68.991554 85.243103 0.60943747
65.635574 70.99868 -0.99147087
66.008133 72.59285 -0.97743183
66.726662 75.667442 -0.99876958
67.942993 80.872154 -0.96563059
64 64 -0
68.960968 85.228104 0
68.970612 85.269363 0.61001801
65.629395 71.010429 -0.9928565
66.001198 72.610107 -0.97911888
66.711395 75.66571 -0.99834037
67.915581 80.84668 -0.9639014
68.939079 85.250282 -0.60929912
68.928246 85.203651 0
68.951973 85.305733 0.61088914
65.625443 71.031952 -0.9956252
65.985069 72.587769 -0.97630501
66.694984 75.658981 -0.99748522
67.894058 80.846367 -0.96361339
68.909889 85.241043 -0.60886359
68.926064 85.31102 0
68.929733 85.326897 0.61132467
65.616943 71.033913 -0.9956252
65.976974 72.600075 -0.97743183
66.669395 75.612206 -0.99320638
67.869064 80.830894 -0.96246022
68.885384 85.252037 -0.60900915
68.895645 85.296661 0
68.901627 85.322701 0.6110341
65.605087 71.021179 -0.99354804
65.959785 72.572723 -0.97405344
66.655365 75.615417 -0.99320638
67.845261 80.820419 -0.96159506
68.859703 85.257919 -0.60900915
68.869911 85.302559 0
68.872391 85.3134 0.61059856
65.598824 71.03289 -0.99493104
65.951675 72.585007 -0.97518033
66.635635 75.593575 -0.99106532
67.815758 80.784698 -0.95928872
68.837463 85.278969 -0.60944414
68.845322 85.313499 0
68.851242 85.339546 0.61117911
65.587013 71.020149 -0.9928565
65.936821 72.567535 -0.97292876
66.619362 75.586746 -0.99021024
67.79776 80.7994 -0.95986587
68.817482 85.310135 -0.61016971
68.818413 85.31427 0
68.830032 85.365669 0.61175966
65.575226 71.00737 -0.9907794
65.922012 72.550034 -0.97067726
66.598602 75.55986 -0.98764324
67.76725 80.75856 -0.95727152
68.788315 85.300751 -0.60973471
68.800652 85.355629 0
68.809914 85.396835 0.61248523
65.559097 70.974983 -0.9859336
65.911674 72.552353 -0.97067726
66.584633 75.562988 -0.98764324
67.741348 80.737839 -0.9558292
68.771637 85.347092 -0.61089581
68.778244 85.376633 0
68.786324 85.412781 0.6127758
65.555023 70.99646 -0.98870224
65.902443 72.559608 -0.97123957
66.559517 75.515976 -0.98336273
67.720001 80.737305 -0.95554119
68.746971 85.35791 -0.61104083
68.751282 85.377319 0
68.760445 85.418549 0.6127758
65.547646 71.003227 -0.98939371
65.884422 72.527161 -0.96729887
66.550034 75.539108 -0.98507458
67.703125 80.756943 -0.95640635
68.723396 85.373764 -0.61133081
68.729942 85.403374 0
68.73793 85.439514 0.61321133
65.547798 71.044296 -0.99493104
65.875214 72.534409 -0.96786338
66.532784 75.527138 -0.98379028
67.679543 80.746246 -0.95554119
68.699806 85.389618 -0.61162138
68.69738 85.378578 0
68.714249 85.455368 0.61350137
65.523315 71.01371 -0.99008787
65.851341 72.524017 -0.96617419
66.492935 75.47805 -0.9790839
67.631378 80.719719 -0.95352399
68.648102 85.400917 -0.61162138
68.651222 85.415298 0
68.661285 85.461624 0.61335635
65.507431 70.981209 -0.98524207
65.838898 72.516304 -0.9650473
66.479065 75.481049 -0.9790839
67.608994 80.713974 -0.95294684
68.629913 85.442062 -0.61263692
68.635231 85.46669 0
68.664963 85.604385 0.6172747
65.504265 70.987015 -0.9859336
65.833748 72.51741 -0.9650473
66.466728 75.457458 -0.97694445
67.592361 80.685814 -0.95121765
68.62133 85.465179 -0.61321747
68.621162 85.464401 0
68.866287 86.602936 0.6457209
65.495819 70.988831 -0.9859336
