# .PCD v0.7 - Point Cloud Data file format
VERSION 0.7
FIELDS x y z
SIZE 4 4 4
TYPE F F F
COUNT 1 1 1
WIDTH 1990
HEIGHT 1
VIEWPOINT 0 0 0 1 0 0 0
POINTS 1990
DATA ascii
60.85445 63.296886 -0.090017147
64 64 0
64 64 0
64 64 -0
64 64 -0
60.28384 63.164623 -0.42189214
60.404278 63.191696 -0.30720899
60.544701 63.223263 -0.19737147
60.829952 63.287388 -0.090742707
64 64 0
64 64 0
64 64 -0
64 64 -0
60.265026 63.155651 -0.4241437
60.400234 63.186218 -0.30763817
60.570862 63.224792 -0.19593029
60.830818 63.283558 -0.090742707
64 64 0
64 64 0
64 64 -0
64 64 -0
60.266048 63.151138 -0.4241437
60.361168 63.172764 -0.31106192
60.576843 63.221794 -0.19564226
60.826622 63.27858 -0.090887703
64 64 0
64 64 0
64 64 -0
64 64 -0
60.261612 63.147755 -0.42470604
60.361668 63.170567 -0.31106192
60.552101 63.213978 -0.19708346
60.857449 63.283588 -0.090017147
64 64 0
64 64 0
64 64 -0
64 64 -0
60.267593 63.144375 -0.4241437
60.352676 63.163879 -0.31191704
60.593388 63.219059 -0.19477712
60.853256 63.278633 -0.090162151
64 64 0
64 64 0
64 64 -0
64 64 -0
60.253769 63.13644 -0.4258329
60.353687 63.15947 -0.31191704
60.594334 63.214943 -0.19477712
60.838936 63.271328 -0.090597704
64 64 0
64 64 0
64 64 -0
64 64 -0
60.259762 63.13306 -0.42527053
60.329704 63.149269 -0.31405646
60.605354 63.213165 -0.19420108
60.855011 63.27103 -0.090162151
64 64 0
64 64 0
64 64 -0
64 64 -0
60.236069 63.122772 -0.42808443
60.320724 63.142502 -0.31491321
60.671818 63.224331 -0.19045246
60.845779 63.264874 -0.09045215
64 64 0
64 64 0
64 64 -0
64 64 -0
60.247036 63.120548 -0.42695758
60.316769 63.136887 -0.31534076
60.572025 63.196705 -0.1962183
60.821358 63.255131 -0.091178261
64 64 0
64 64 0
64 64 -0
64 64 -0
60.257988 63.118343 -0.4258329
60.317814 63.132439 -0.31534076
60.673702 63.21629 -0.19045246
60.796974 63.245335 -0.091903821
64 64 0
64 64 0
64 64 -0
64 64 -0
60.259052 63.113823 -0.4258329
60.298882 63.123257 -0.31705263
60.664574 63.209885 -0.19102959
60.818115 63.246254 -0.091323264
64 64 0
64 64 0
64 64 -0
64 64 -0
60.270023 63.11166 -0.42470604
60.304932 63.119972 -0.31662509
60.645401 63.201061 -0.19218276
60.813976 63.241207 -0.09146826
64 64 0
64 64 0
64 64 -0
64 64 -0
60.2365 63.098869 -0.42864677
60.291035 63.111927 -0.31790775
60.606125 63.18737 -0.19448909
60.824993 63.239777 -0.091178261
64 64 0
64 64 0
64 64 -0
64 64 -0
60.262291 63.100266 -0.4258329
60.29211 63.107445 -0.31790775
60.662434 63.19659 -0.1913176
60.795609 63.228645 -0.092048824
64 64 0
64 64 0
64 64 -0
64 64 -0
60.27327 63.098145 -0.42470604
60.273232 63.098137 -0.31961963
60.638275 63.186474 -0.19275878
60.766247 63.217442 -0.092919379
64 64 0
64 64 0
64 64 -0
64 64 -0
60.249676 63.087635 -0.42751992
60.274323 63.093632 -0.31961963
60.639259 63.182411 -0.19275878
60.797482 63.220905 -0.092048824
64 64 0
64 64 0
64 64 -0
64 64 -0
60.260647 63.085518 -0.42639524
60.265438 63.086689 -0.32047638
60.640251 63.178352 -0.19275878
60.742893 63.203453 -0.093645498
64 64 0
64 64 0
64 64 -0
64 64 -0
60.256824 63.079788 -0.42695758
60.256584 63.079727 -0.32133147
60.575947 63.158241 -0.19650631
60.733772 63.197041 -0.093935497
64 64 0
64 64 0
64 64 -0
64 64 -0
60.25301 63.074047 -0.42751992
60.277634 63.080132 -0.31961963
60.617119 63.164028 -0.19420108
60.734745 63.193096 -0.093935497
64 64 0
64 64 0
64 64 -0
64 64 -0
60.254131 63.069523 -0.42751992
60.253838 63.06945 -0.32175905
60.618134 63.159939 -0.19420108
60.680241 63.175365 -0.095532171
64 64 0
64 64 0
64 64 -0
64 64 -0
60.255257 63.064995 -0.42751992
60.240017 63.061192 -0.32304335
60.624184 63.157112 -0.19391195
60.630825 63.158768 -0.096983284
64 64 0
64 64 0
64 64 -0
64 64 -0
60.266239 63.062943 -0.42639524
60.241154 63.056648 -0.32304335
60.575024 63.140438 -0.19679543
60.621754 63.152168 -0.097273842
64 64 0
64 64 0
64 64 -0
64 64 -0
60.256958 63.058208 -0.42751992
60.236752 63.053127 -0.32347092
60.575542 63.138371 -0.19679543
60.617233 63.148857 -0.097418845
64 64 0
64 64 0
64 64 -0
64 64 -0
60.272865 63.057423 -0.4258329
60.252815 63.052353 -0.32218823
60.571575 63.132965 -0.19708346
60.577957 63.134579 -0.098579958
64 64 0
56.250534 62.040192 0.22324152
64 64 -0
64 64 -0
60.254307 63.047913 -0.42808443
60.258953 63.049095 -0.32175905
60.547562 63.122452 -0.19852464
60.59412 63.134285 -0.098144397
64 64 0
56.192467 62.015465 0.2249832
64 64 -0
64 64 -0
60.245621 63.040874 -0.42920911
60.255119 63.043301 -0.32218823
60.533585 63.114441 -0.19938979
60.575027 63.125027 -0.098724961
64 64 0
56.17976 62.002174 0.22541875
64 64 -0
64 64 -0
60.251701 63.037601 -0.42864677
60.251308 63.037498 -0.3226158
60.569736 63.119259 -0.19737147
60.566029 63.118305 -0.09901496
64 64 0
56.066422 61.963001 0.22875655
64 64 -0
64 64 -0
60.243034 63.030533 -0.42977145
60.262424 63.035538 -0.32175905
60.585835 63.118992 -0.19650631
60.572124 63.115456 -0.098869957
64 64 0
56.104118 61.962509 0.22774042
64 64 -0
64 64 -0
60.268799 63.032372 -0.42695758
60.238731 63.024574 -0.3239001
60.561848 63.108372 -0.1979486
60.563126 63.108704 -0.099160515
64 64 0
64 64 0
64 64 -0
64 64 -0
60.265057 63.026585 -0.42751992
60.239914 63.020031 -0.3239001
60.537907 63.097694 -0.19938979
60.559181 63.103241 -0.099305518
64 64 0
64 64 0
64 64 -0
64 64 -0
60.261307 63.020782 -0.42808443
60.246078 63.016792 -0.32347092
60.513981 63.08696 -0.20083098
60.570332 63.101719 -0.09901496
64 64 0
64 64 0
64 64 -0
64 64 -0
60.242836 63.011089 -0.43033597
60.257191 63.01487 -0.3226158
60.555107 63.093285 -0.19852464
60.571419 63.097576 -0.09901496
64 64 0
64 64 0
64 64 -0
64 64 -0
60.278427 63.015648 -0.42639524
60.337799 63.031353 -0.31576833
60.556206 63.089123 -0.19852464
60.552414 63.08812 -0.099595517
64 64 0
64 64 0
64 64 -0
64 64 -0
60.279617 63.011154 -0.42639524
60.38858 63.040115 -0.31148946
60.567299 63.087616 -0.1979486
60.55352 63.083954 -0.099595517
64 64 0
64 64 0
64 64 -0
64 64 -0
60.280815 63.006657 -0.42639524
60.449268 63.051651 -0.30635387
60.533432 63.074127 -0.19996582
60.564663 63.08247 -0.099305518
64 64 0
64 64 0
64 64 -0
64 64 -0
60.296749 63.006119 -0.42470604
60.44051 63.044701 -0.30720899
60.544537 63.07262 -0.19938979
60.555744 63.075626 -0.099595517
64 64 0
64 64 0
64 64 -0
64 64 -0
60.317577 63.006935 -0.42245451
60.466446 63.047081 -0.30506954
60.535683 63.065754 -0.19996582
60.576935 63.076878 -0.09901496
64 64 0
64 64 0
64 64 -0
64 64 -0
60.328583 63.005142 -0.4213298
60.502274 63.052208 -0.302075
60.566761 63.069683 -0.19823661
60.552956 63.065945 -0.099741071
64 64 0
64 64 0
64 64 -0
64 64 -0
60.354298 63.007381 -0.41851592
60.508389 63.049335 -0.30164582
60.557915 63.06282 -0.19881265
60.559116 63.063148 -0.099595517
53.079788 61.026745 0
64 64 0
64 64 -0
64 64 -0
60.374508 63.010532 -0.41626438
60.523808 63.051277 -0.30036315
60.558479 63.060741 -0.19881265
60.554657 63.059696 -0.099741071
53.056465 61.013294 0
64 64 0
64 64 -0
64 64 -0
60.434517 63.022278 -0.40950978
60.53487 63.049797 -0.2995064
60.569588 63.059319 -0.19823661
60.555794 63.055534 -0.099741071
53.070133 61.002827 0
64 64 0
64 64 -0
64 64 -0
60.474895 63.02877 -0.40500668
60.501369 63.036064 -0.30250257
60.535812 63.045551 -0.20025495
60.551933 63.049995 -0.099886075
53.103859 60.997917 0
64 64 0
64 64 -0
64 64 -0
60.500553 63.031288 -0.4021928
60.532234 63.040058 -0.29993394
60.566887 63.049652 -0.19852464
60.553085 63.04583 -0.099886075
64 64 0
64 64 0
64 64 -0
64 64 -0
60.570263 63.04612 -0.39431348
60.548222 63.039993 -0.29865128
60.558064 63.042728 -0.19910178
60.559242 63.043056 -0.099741071
64 64 0
64 64 0
64 64 -0
64 64 -0
60.600792 63.050186 -0.39093509
60.56422 63.039967 -0.29736695
60.564217 63.039967 -0.19881265
60.5504 63.036106 -0.10003107
64 64 0
53.573769 61.086681 0.30233848
61.097862 63.181511 -0.49712729
64 64 -0
60.607983 63.043354 -0.39037275
60.556679 63.028885 -0.29822206
60.531693 63.021835 -0.20083098
60.552738 63.027771 -0.10003107
64 64 0
53.600845 61.067135 0.30175793
61.0513 63.164532 -0.50527537
64 64 -0
60.609142 63.039253 -0.39037275
60.577595 63.030315 -0.29651186
60.54282 63.020462 -0.20025495
60.563908 63.026436 -0.099741071
64 64 0
53.609394 61.055988 0.30161294
61.118866 63.179913 -0.49386743
64 64 -0
60.615189 63.036549 -0.38981041
60.583721 63.027592 -0.29608265
60.568897 63.023373 -0.19881265
60.570099 63.023712 -0.099595517
53.164688 60.91584 0
53.622963 61.046284 0.30132237
61.115108 63.175076 -0.4946816
64 64 -0
60.606594 63.029667 -0.39093509
60.589828 63.024876 -0.2956551
60.57008 63.019226 -0.19881265
60.561275 63.016708 -0.099886075
53.178421 60.905609 0
53.626541 61.033745 0.30132237
61.120853 63.172955 -0.49386743
64 64 -0
60.627304 63.031181 -0.38868356
60.581131 63.017918 -0.29651186
60.566284 63.013649 -0.19910178
60.547478 63.008251 -0.10032163
53.187187 60.893978 0
53.595161 61.011169 0.30233848
61.055374 63.150291 -0.50527537
64 64 -0
60.628479 63.027103 -0.38868356
60.587269 63.015213 -0.29608265
60.577427 63.012375 -0.19852464
60.533714 62.99976 -0.10075663
53.205936 60.885239 0
53.41404 60.94529 0.3077085
64 64 -0
64 64 -0
60.629654 63.023033 -0.38868356
60.583515 63.009659 -0.29651186
60.603458 63.015438 -0.19708346
60.564865 63.00425 -0.099886075
53.199718 60.869305 0
52.689037 60.721272 0.32889748
61.157097 63.172199 -0.48816189
64 64 -0
60.63084 63.018959 -0.38868356
60.574863 63.002663 -0.29736695
60.609615 63.012779 -0.19679543
60.551094 62.995739 -0.10032163
53.213493 60.859161 0
52.568272 60.671284 0.33252582
61.124886 63.15905 -0.49386743
64 64 -0
60.632027 63.014889 -0.38868356
60.576073 62.998524 -0.29736695
60.600887 63.005783 -0.19737147
60.562298 62.994495 -0.10003107
53.2173 60.84613 0
52.572304 60.657475 0.33252582
61.059513 63.13607 -0.50527537
64 64 -0
60.633221 63.010822 -0.38868356
60.587128 62.99728 -0.29651186
60.602093 63.001675 -0.19737147
60.563515 62.990341 -0.10003107
53.216129 60.831638 0
52.566368 60.640736 0.33281639
61.013142 63.118523 -0.5134266
64 64 -0
60.62466 63.003876 -0.38981041
60.588341 62.993156 -0.29651186
60.618191 63.001965 -0.19650631
60.574696 62.989128 -0.099741071
53.219963 60.818611 0
52.565453 60.625454 0.33296138
61.037388 63.123734 -0.50934941
64 64 -0
60.639885 63.006161 -0.38812122
60.598808 62.994011 -0.2956551
60.56918 62.985249 -0.19938979
60.560371 62.982643 -0.10017607
53.226875 60.813576 0
52.557537 60.615601 0.33325139
61.07634 63.131409 -0.50283283
64 64 -0
60.636223 63.000656 -0.38868356
60.624626 62.997211 -0.29351565
60.595196 62.988468 -0.1979486
60.561604 62.978485 -0.10017607
53.245705 60.805008 0
52.626392 60.621017 0.33136472
61.015816 63.109505 -0.5134266
64 64 -0
60.637432 62.996593 -0.38868356
60.625843 62.993134 -0.29351565
60.591469 62.982876 -0.19823661
60.567814 62.975819 -0.10003107
53.249573 60.792015 0
52.680275 60.622131 0.32991359
61.064255 63.120094 -0.50527537
64 64 -0
60.643509 62.993988 -0.38812122
60.631973 62.990528 -0.29308811
60.587749 62.977276 -0.19852464
60.55909 62.968685 -0.10032163
53.258438 60.780521 0
52.684364 60.608459 0.32991359
61.079506 63.120819 -0.50283283
64 64 -0
60.630127 62.985535 -0.38981041
60.64304 62.989422 -0.29223135
60.608803 62.979118 -0.19737147
60.560337 62.964527 -0.10032163
53.25238 60.764545 0
52.698433 60.597786 0.32962304
61.023811 63.100128 -0.5126093
64 64 -0
60.64109 62.984409 -0.38868356
60.629513 62.980907 -0.29351565
60.610039 62.975021 -0.19737147
60.541714 62.954361 -0.10090163
53.261272 60.753067 0
52.70752 60.585636 0.32947803
61.057995 63.106583 -0.50690687
64 64 -0
60.627731 62.975922 -0.39037275
60.625839 62.975346 -0.29394323
60.62117 62.973927 -0.19679543
60.557884 62.954708 -0.10046663
53.260231 60.738583 0
52.721592 60.575012 0.32918805
61.077988 63.108795 -0.50364703
64 64 -0
60.643555 62.976295 -0.38868356
60.622173 62.969772 -0.29437077
60.607582 62.965324 -0.19765948
60.554184 62.949036 -0.10061163
53.26915 60.727127 0
52.695923 60.552292 0.3300586
61.060162 63.099476 -0.50690687
64 64 -0
60.644794 62.97224 -0.38868356
60.638134 62.9702 -0.29308811
60.559364 62.946072 -0.20054296
60.570366 62.94944 -0.10017607
53.283077 60.717213 0
52.705059 60.540157 0.32991359
61.051811 63.093018 -0.50853527
64 64 -0
60.646042 62.968185 -0.38868356
60.624672 62.961613 -0.29437077
60.624912 62.961685 -0.19679543
60.536865 62.934601 -0.10119219
53.287052 60.704266 0
52.719193 60.529572 0.32962304
61.095413 63.102589 -0.50120133
64 64 -0
60.632717 62.959633 -0.39037275
60.625931 62.957535 -0.29437077
60.586628 62.945393 -0.19910178
60.523254 62.925812 -0.10162774
53.281086 60.688248 0
52.718414 60.514404 0.3297686
61.002075 63.069782 -0.51750064
64 64 -0
60.63398 62.955566 -0.39037275
60.627193 62.953461 -0.29437077
60.60273 62.945869 -0.19823661
60.524551 62.921612 -0.10162774
53.304981 60.681469 0
52.722633 60.500774 0.3297686
61.069283 63.08675 -0.50608957
64 64 -0
60.625549 62.948479 -0.39149746
60.638252 62.952438 -0.29351565
60.613895 62.944847 -0.19765948
60.501057 62.909683 -0.1023533
53.304031 60.667004 0
52.716957 60.484062 0.3300586
61.0751 63.084686 -0.50527537
64 64 -0
60.636513 62.947433 -0.39037275
60.624817 62.943775 -0.29479998
60.600357 62.936119 -0.19852464
60.502377 62.905457 -0.1023533
53.308067 60.654079 0
52.72617 60.471981 0.32991359
61.099785 63.088562 -0.50120133
64 64 -0
60.652336 62.947945 -0.38868356
60.640797 62.944317 -0.29351565
60.621384 62.938217 -0.19737147
60.478916 62.893444 -0.10307886
53.331982 60.647408 0
52.750271 60.464596 0.32933304
61.082031 63.079105 -0.50446117
64 64 -0
60.643906 62.940838 -0.38981041
60.62249 62.934078 -0.29522753
60.627598 62.935692 -0.19708346
60.480255 62.889191 -0.10307886
53.301289 60.62355 0
52.744648 60.44788 0.32962304
61.059589 63.068115 -0.50853527
64 64 -0
60.635509 62.933716 -0.39093509
60.638466 62.93465 -0.29394323
60.609161 62.925365 -0.19823661
60.461784 62.878658 -0.10365942
53.384766 60.635788 0
52.753899 60.435848 0.32947803
61.056011 63.063065 -0.50934941
64 64 -0
60.636799 62.929649 -0.39093509
60.634869 62.929035 -0.29437077
60.605537 62.919701 -0.19852464
60.473057 62.877537 -0.10336886
60.188473 62.786968 0
52.743351 60.417534 0.32991359
61.131912 63.085312 -0.4963131
64 64 -0
64 64 -0
60.620838 62.922321 -0.2956551
60.620983 62.922367 -0.19765948
60.463821 62.872246 -0.10365942
60.273502 62.81155 0
52.70591 60.398102 0.33107471
61.071823 63.062248 -0.50690687
64 64 -0
60.600029 62.911156 -0.39543819
60.622143 62.91824 -0.2956551
60.602581 62.911976 -0.19881265
60.475098 62.871147 -0.10336886
60.22538 62.791176 0
52.546947 60.332153 0.33586419
61.096485 63.066277 -0.50283283
64 64 -0
60.615864 62.91172 -0.393749
60.638119 62.918877 -0.29437077
60.584198 62.901535 -0.19996582
60.45171 62.858929 -0.10409498
60.266483 62.799362 0
52.244678 60.219685 0.34486198
61.050583 63.047585 -0.5109809
64 64 -0
60.622013 62.909191 -0.39318666
60.639427 62.914814 -0.29437077
60.580593 62.895813 -0.20025495
60.458054 62.856243 -0.10394942
60.277832 62.79805 0
52.051437 60.141605 0.35066757
61.112862 63.063839 -0.50038713
64 64 -0
60.618504 62.903545 -0.393749
60.640743 62.910755 -0.29437077
60.596695 62.896473 -0.19938979
60.464375 62.853569 -0.10380442
60.244644 62.782318 0
52.006683 60.111145 0.35211867
61.109299 63.058823 -0.50120133
64 64 -0
60.629486 62.902603 -0.39262429
60.627411 62.901924 -0.2956551
60.539005 62.873142 -0.2028493
60.465763 62.849297 -0.10380442
60.28075 62.789059 0
51.98175 60.087006 0.35298923
61.068153 63.041508 -0.50853527
64 64 -0
60.640484 62.901691 -0.39149746
60.623863 62.896259 -0.29608265
60.550213 62.872181 -0.20227216
60.467155 62.845028 -0.10380442
60.292118 62.787804 0
51.942017 60.057949 0.35429591
61.059914 63.034878 -0.5101667
64 64 -0
60.622501 62.891293 -0.393749
60.605686 62.885773 -0.29779452
60.502419 62.851875 -0.20515564
60.47842 62.843998 -0.10351442
60.298527 62.784946 0
51.941856 60.041763 0.35444093
61.032921 63.022045 -0.51505494
64 64 -0
60.623844 62.887215 -0.393749
60.616779 62.884884 -0.2969394
60.444874 62.828224 -0.20861404
60.465027 62.834866 -0.10394942
60.314835 62.785362 0
51.872627 60.002796 0.3566176
61.118568 63.046413 -0.50038713
64 64 -0
60.668606 62.897503 -0.38868356
60.588894 62.871124 -0.2995064
60.47084 62.832054 -0.20717286
60.461491 62.82896 -0.10409498
60.306412 62.777637 0
51.882393 59.989777 0.35647258
61.133801 63.047611 -0.49794146
64 64 -0
60.72781 62.912708 -0.38192895
60.541531 62.850807 -0.30378687
60.452618 62.821266 -0.20832603
60.467854 62.826328 -0.10394942
60.372101 62.79451 0
51.828068 59.955475 0.35821426
60.980217 62.992523 -0.52483457
64 64 -0
60.729126 62.908752 -0.38192895
60.494228 62.830387 -0.30806574
60.429516 62.808796 -0.20976721
60.469273 62.82206 -0.10394942
60.398239 62.798363 0
51.79845 59.929253 0.35923037
61.131428 63.03912 -0.49875566
64 64 -0
60.744888 62.909641 -0.38024193
60.446968 62.809845 -0.31234458
60.411335 62.797909 -0.21092038
60.480545 62.821095 -0.10365942
60.394764 62.792358 0
51.763954 59.90131 0.3603915
61.071686 63.015171 -0.50934941
64 64 -0
60.760666 62.910568 -0.37855273
60.409481 62.792461 -0.31576833
60.422588 62.796871 -0.21034434
60.46719 62.811871 -0.10409498
60.361706 62.776394 0
51.768917 59.886528 0.3603915
61.119705 63.027443 -0.50120133
64 64 -0
60.786053 62.914783 -0.37573883
60.381744 62.778267 -0.31833693
60.438751 62.797516 -0.2094792
60.463711 62.805943 -0.10423998
60.412491 62.788647 0
51.714828 59.851807 0.36213261
60.966396 62.971592 -0.52809441
64 64 -0
60.835503 62.927219 -0.3701089
60.358917 62.765656 -0.32047638
60.420612 62.786568 -0.21063237
60.470074 62.803337 -0.10409498
60.418884 62.785984 0
51.724766 59.838634 0.36198762
61.065907 63.001373 -0.5109809
64 64 -0
60.822365 62.918484 -0.3717981
60.355556 62.759602 -0.32090393
60.441669 62.788914 -0.2094792
60.466606 62.797398 -0.10423998
60.420353 62.781658 0
51.656002 59.798687 0.36416483
61.029694 62.985043 -0.51750064
64 64 -0
60.833282 62.917927 -0.37067342
60.34248 62.750217 -0.32218823
60.403976 62.771233 -0.21178554
60.477905 62.796494 -0.10394942
60.407047 62.772282 0
51.666019 59.785458 0.36401927
61.105736 63.007118 -0.50446117
64 64 -0
60.873047 62.927292 -0.36617035
60.339138 62.744137 -0.3226158
60.439716 62.778641 -0.20976721
60.484276 62.793926 -0.10380442
60.38884 62.761185 0
51.64653 59.762123 0.36474541
61.087635 62.998943 -0.50772107
64 64 -0
60.840069 62.913845 -0.3701089
60.349617 62.745266 -0.32175905
60.425777 62.771442 -0.21063237
60.489914 62.793488 -0.10365942
60.38467 62.757313 0
51.580296 59.73101 0.36677706
61.074825 62.990585 -0.5101667
64 64 -0
60.865398 62.918316 -0.36729503
60.341423 62.737503 -0.3226158
60.41259 62.762062 -0.21149752
60.501209 62.792641 -0.10336886
60.405857 62.759739 0
51.585464 59.716007 0.36677706
61.005997 62.962784 -0.52238888
64 64 -0
60.885914 62.921185 -0.36504349
60.347797 62.73476 -0.32218823
60.399437 62.752651 -0.21236156
60.487934 62.78331 -0.10380442
60.431946 62.763912 0
51.546459 59.685703 0.36808318
61.072609 62.981895 -0.5109809
64 64 -0
60.896809 62.920757 -0.36391881
60.344482 62.728664 -0.3226158
60.410709 62.751698 -0.21178554
60.47958 62.77565 -0.10409498
60.423618 62.756187 0
51.52224 59.660419 0.36895373
61.055172 62.971844 -0.5142408
64 64 -0
60.912514 62.922035 -0.36222962
60.341179 62.722557 -0.32304335
60.417099 62.749065 -0.21149752
60.495785 62.776539 -0.10365942
60.415287 62.748432 0
44.315376 57.127304 0.58229792
61.009777 62.951939 -0.52238888
64 64 -0
60.913818 62.918304 -0.36222962
60.347565 62.719833 -0.3226158
60.408859 62.741318 -0.21207355
60.47765 62.765427 -0.10423998
60.416801 62.744102 0
44.328594 57.10524 0.5821529
60.978401 62.93684 -0.52809441
64 64 -0
60.895954 62.907829 -0.36448115
60.349113 62.715424 -0.3226158
60.449421 62.750713 -0.20976721
60.493855 62.76635 -0.10380442
60.413414 62.738045 0
44.336941 57.081478 0.5821529
60.933086 62.916729 -0.53624249
64 64 -0
60.964348 62.927773 -0.35660183
60.355507 62.712719 -0.32218823
60.416786 62.734364 -0.21178554
60.485538 62.758648 -0.10409498
60.429672 62.738914 0
44.345314 57.057724 0.5821529
60.962341 62.922932 -0.53135425
64 64 -0
60.951294 62.919014 -0.35828888
60.376419 62.715179 -0.32047638
60.467064 62.747318 -0.20890316
60.506634 62.761349 -0.10351442
60.431198 62.734604 0
44.348824 57.032246 0.58229792
60.9683 62.920918 -0.53054011
64 64 -0
60.966949 62.920437 -0.35660183
60.353794 62.702198 -0.3226158
60.434479 62.730915 -0.21092038
60.503242 62.75539 -0.10365942
60.388599 62.714584 0
44.357258 57.008507 0.58229792
61.011513 62.932228 -0.52320307
64 64 -0
60.968258 62.916775 -0.35660183
60.365044 62.701248 -0.32175905
60.460365 62.73531 -0.2094792
60.499859 62.749416 -0.10380442
60.419556 62.720726 0
44.385296 56.991772 0.58171731
60.966267 62.911926 -0.53135425
64 64 -0
60.983921 62.918259 -0.35491264
60.361771 62.695122 -0.32218823
60.500851 62.745003 -0.20717286
60.491577 62.741676 -0.10409498
60.440704 62.723431 0
44.379097 56.962811 0.5821529
61.037354 62.93338 -0.51912898
64 64 -0
60.970882 62.909451 -0.35660183
60.36335 62.690727 -0.32218823
60.448826 62.7215 -0.21034434
60.483334 62.733921 -0.10438498
60.412872 62.708553 0
44.480522 56.972557 0.57939512
60.97821 62.907963 -0.52972275
64 64 -0
60.98177 62.909248 -0.35547498
60.379425 62.69157 -0.32090393
60.474693 62.725998 -0.20890316
60.489746 62.731438 -0.10423998
60.453598 62.718372 0
27.759865 50.903263 1.076182
60.956303 62.895885 -0.53379679
64 64 -0
60.973526 62.902134 -0.35660183
60.395493 62.692448 -0.31961963
60.364403 62.681171 -0.21553306
60.496162 62.72897 -0.10409498
60.435577 62.706989 0
27.8148 50.873661 1.0750209
61.037903 62.917377 -0.51994318
64 64 -0
61.00005 62.903545 -0.35378796
60.379375 62.676693 -0.32133147
60.41618 62.690144 -0.21265069
60.509018 62.724075 -0.10380442
60.468033 62.709099 0
20.374058 48.055092 1.2972178
60.987495 62.896893 -0.52890861
64 64 -0
61.010265 62.905231 -0.3526611
60.380173 62.674507 -0.32133147
60.392689 62.679089 -0.21409187
60.470749 62.707672 -0.10496554
60.459049 62.703388 0
20.359283 48.019798 1.2979439
60.928516 62.871086 -0.53950238
64 64 -0
61.002041 62.898109 -0.35378796
60.401054 62.677216 -0.31961963
60.413708 62.68187 -0.21293871
60.482059 62.706989 -0.10467554
60.441078 62.691929 0
20.398136 47.974251 1.2973634
60.953068 62.875927 -0.53542829
64 64 -0
60.979542 62.885693 -0.35660183
60.417091 62.678196 -0.31833693
60.468693 62.697231 -0.20976721
60.469009 62.69735 -0.10511053
60.457294 62.693027 0
20.388287 47.910789 1.298234
60.9776 62.880829 -0.53135425
64 64 -0
60.999954 62.889103 -0.3543503
60.409073 62.670303 -0.31919205
60.48481 62.698349 -0.20890316
60.470589 62.693085 -0.10511053
60.473526 62.694172 0
20.383396 47.849083 1.2989595
61.034557 62.897842 -0.52157468
64 64 -0
61.015591 62.890793 -0.3526611
60.410683 62.665966 -0.31919205
60.428215 62.672485 -0.21236156
60.472168 62.68882 -0.10511053
60.475105 62.689911 0
20.427296 47.805443 1.298234
61.054417 62.901169 -0.51831484
64 64 -0
61.007404 62.883633 -0.35378796
60.412296 62.661633 -0.31919205
60.405575 62.659122 -0.21380386
60.464008 62.680923 -0.10540109
60.496197 62.692932 0
20.383602 47.729195 1.3001206
61.069641 62.902813 -0.51586914
64 64 -0
61.01828 62.883583 -0.3526611
60.433147 62.664497 -0.31748018
60.455654 62.672924 -0.21092038
60.470467 62.678471 -0.1052561
60.49778 62.688698 0
20.247551 47.618195 1.3047651
60.969177 62.861019 -0.53379679
64 64 -0
61.010109 62.876404 -0.35378796
60.439568 62.661995 -0.31705263
60.452423 62.666824 -0.2112084
60.481804 62.677868 -0.10496554
60.538345 62.699116 0
20.184681 47.534264 1.3072324
61.012177 62.873058 -0.52646291
64 64 -0
61.020988 62.876381 -0.3526611
60.436386 62.655884 -0.31748018
60.420151 62.649757 -0.21322672
60.468811 62.668114 -0.10540109
60.544785 62.69677 0
20.199753 47.4795 1.3073773
61.082874 62.895695 -0.5142408
64 64 -0
61.022346 62.872784 -0.3526611
60.457218 62.658848 -0.31576833
60.421783 62.645435 -0.21322672
60.489864 62.671207 -0.10482053
60.551228 62.694435 0
64 64 0
61.014908 62.865841 -0.52646291
64 64 -0
61.023712 62.869186 -0.3526611
60.46843 62.658211 -0.31491321
60.437935 62.646626 -0.21236156
60.472042 62.659584 -0.10540109
60.601471 62.708759 0
64 64 0
60.974716 62.846386 -0.53379679
64 64 -0
61.025082 62.865589 -0.3526611
60.465263 62.652119 -0.31534076
64 64 -0
60.493088 62.662727 -0.10482053
60.564129 62.689819 0
64 64 0
61.008415 62.855095 -0.52809441
64 64 -0
61.026455 62.861996 -0.3526611
60.490864 62.657021 -0.31320134
60.441216 62.63802 -0.21236156
60.499554 62.660347 -0.10467554
60.614315 62.704266 0
64 64 0
61.11594 62.892246 -0.50934941
64 64 -0
61.03257 62.860226 -0.35209876
60.478127 62.647266 -0.314484
60.476654 62.646698 -0.21034434
60.486637 62.650536 -0.10511053
60.601322 62.694584 0
64 64 0
60.997353 62.842533 -0.53054011
64 64 -0
61.029213 62.854813 -0.3526611
60.513283 62.655933 -0.31148946
60.492775 62.648026 -0.2094792
60.517353 62.657501 -0.10423998
60.63203 62.701706 0
64 64 0
60.984936 62.833557 -0.53298265
64 64 -0
61.021111 62.847553 -0.35378796
60.500538 62.64616 -0.31277379
60.465473 62.632595 -0.2112084
60.499592 62.645794 -0.10482053
60.614185 62.690128 0
64 64 0
60.972519 62.824547 -0.53542829
64 64 -0
61.03199 62.847637 -0.3526611
60.52132 62.649364 -0.31106192
60.428551 62.613346 -0.21351473
60.481853 62.634041 -0.10540109
60.635178 62.693573 0
64 64 0
61.033115 62.846012 -0.52483457
64 64 -0
61.032684 62.845844 -0.3526611
60.531719 62.65099 -0.31020516
60.492058 62.635567 -0.20976721
60.502052 62.63945 -0.10482053
60.650524 62.697201 0
64 64 0
61.006889 62.831646 -0.52972275
64 64 -0
61.038811 62.844105 -0.35209876
60.514221 62.639332 -0.31191704
60.464787 62.620037 -0.21149752
60.484333 62.627666 -0.10540109
60.64724 62.691257 0
64 64 0
61.104958 62.865894 -0.5126093
64 64 -0
61.040211 62.84053 -0.35209876
60.530212 62.640743 -0.31063271
60.442379 62.606335 -0.21293871
60.476326 62.619633 -0.1056911
60.658527 62.69101 0
64 64 0
61.041912 62.83707 -0.52402037
64 64 -0
61.022694 62.829517 -0.3543503
60.555744 62.645943 -0.30849329
60.468132 62.6115 -0.21149752
60.477997 62.615376 -0.1056911
60.684326 62.696491 0
64 64 0
60.951374 62.797222 -0.54031652
64 64 -0
61.0383 62.831516 -0.3526611
60.566925 62.645546 -0.30763817
60.517944 62.626221 -0.20861404
60.460335 62.603493 -0.10627165
60.681065 62.690578 0
64 64 0
61.067726 62.839031 -0.51994318
64 64 -0
61.039711 62.827938 -0.3526611
60.544701 62.63195 -0.30977759
60.476322 62.604877 -0.2112084
60.452351 62.595387 -0.10656221
60.677814 62.684654 0
64 64 0
61.124241 62.857384 -0.5101667
64 64 -0
61.045849 62.826237 -0.35209876
60.560673 62.633465 -0.30849329
60.487617 62.604439 -0.21063237
60.463718 62.594944 -0.10627165
60.679409 62.680641 0
64 64 0
61.033806 62.817303 -0.52646291
64 64 -0
61.033104 62.81702 -0.35378796
60.590931 62.640717 -0.30592629
60.474884 62.594444 -0.21149752
60.436447 62.579117 -0.10714277
60.681004 62.676628 0
64 64 0
61.09948 62.839424 -0.51505494
64 64 -0
61.062851 62.824768 -0.35040957
60.592579 62.636597 -0.30592629
60.466991 62.586346 -0.21207355
60.428528 62.570957 -0.10743277
60.69709 62.678417 0
64 64 0
60.999977 62.795403 -0.53298265
64 64 -0
61.026546 62.806072 -0.35491264
60.613285 62.640133 -0.30421445
60.449501 62.574368 -0.21322672
60.420601 62.562767 -0.10772333
64 64 0
64 64 0
61.006012 62.793621 -0.53216845
64 64 -0
61.037411 62.806274 -0.35378796
60.614929 62.636044 -0.30421445
60.484818 62.583614 -0.2112084
60.431992 62.562328 -0.10743277
64 64 0
64 64 0
60.993721 62.784447 -0.53461415
64 64 -0
61.048286 62.806507 -0.3526611
60.63562 62.639652 -0.30250257
60.438564 62.559975 -0.21409187
60.424084 62.554119 -0.10772333
64 64 0
64 64 0
61.150921 62.844002 -0.50690687
64 64 -0
61.040306 62.799118 -0.35378796
60.632515 62.633659 -0.30293012
60.435516 62.553726 -0.21437989
60.416214 62.545895 -0.10801332
64 64 0
64 64 0
61.092808 62.816326 -0.51750064
64 64 -0
61.027653 62.789799 -0.35547498
60.634167 62.629589 -0.30293012
60.475594 62.565029 -0.21207355
60.432415 62.547447 -0.10757777
64 64 0
64 64 0
61.121704 62.824036 -0.5126093
64 64 -0
61.038513 62.790051 -0.3543503
60.650089 62.631351 -0.30164582
60.467747 62.556854 -0.21265069
60.453419 62.550999 -0.10699721
64 64 0
64 64 0
60.99506 62.768055 -0.53542829
64 64 -0
61.011776 62.77491 -0.35772651
60.65649 62.62925 -0.30121824
60.450348 62.544739 -0.21380386
60.450348 62.544739 -0.10714277
64 64 0
64 64 0
61.119968 62.815197 -0.5134266
64 64 -0
61.027363 62.7771 -0.35603732
60.667637 62.629116 -0.30036315
60.456905 62.542423 -0.21351473
60.45211 62.540451 -0.10714277
64 64 0
64 64 0
61.093998 62.800407 -0.51831484
64 64 -0
61.042919 62.77932 -0.3543503
60.659813 62.621174 -0.30121824
60.42997 62.526295 -0.21524504
60.434662 62.528233 -0.10772333
64 64 0
64 64 0
61.117558 62.808094 -0.5142408
64 64 -0
61.020184 62.767826 -0.35716417
60.670128 62.623077 -0.30036315
60.416515 62.518208 -0.2161102
60.445164 62.530056 -0.10743277
64 64 0
64 64 0
61.091614 62.793247 -0.51912898
64 64 -0
61.049828 62.775909 -0.35378796
60.686024 62.624958 -0.29907882
60.4231 62.515865 -0.21582107
60.442146 62.523769 -0.10757777
64 64 0
64 64 0
61.07938 62.784035 -0.52157468
64 64 -0
61.027855 62.762581 -0.35660183
60.692421 62.622929 -0.29865128
60.443996 62.519501 -0.2146679
60.443935 62.519474 -0.10757777
64 64 0
64 64 0
61.058048 62.770981 -0.52564871
64 64 -0
61.029354 62.758991 -0.35660183
60.713039 62.62685 -0.2969394
60.426697 62.507229 -0.21582107
60.426544 62.507164 -0.10815833
64 64 0
64 64 0
61.036747 62.757874 -0.52972275
64 64 -0
61.030853 62.755402 -0.35660183
60.705238 62.618912 -0.29779452
60.40942 62.494911 -0.21697424
60.43314 62.504856 -0.10801332
64 64 0
64 64 0
60.947117 62.715961 -0.54602206
64 64 -0
61.004265 62.739998 -0.35997808
60.702183 62.612942 -0.29822206
60.439842 62.502605 -0.21524504
60.430164 62.498531 -0.10815833
64 64 0
64 64 0
60.994205 62.731491 -0.53787398
64 64 -0
61.00111 62.734406 -0.36054042
60.741684 62.624924 -0.29479998
60.389244 62.476185 -0.21841542
60.41761 62.488155 -0.10859388
64 64 0
64 64 0
61.08223 62.764484 -0.52238888
64 64 -0
61.002644 62.730782 -0.36054042
60.714989 62.608978 -0.29736695
60.414898 62.481907 -0.21697424
60.405079 62.477749 -0.10902944
64 64 0
64 64 0
61.097382 62.766762 -0.51994318
64 64 -0
60.96209 62.709278 -0.36560583
60.730854 62.611034 -0.29608265
60.431007 62.483639 -0.2161102
60.421276 62.479504 -0.10859388
64 64 0
64 64 0
61.089767 62.759373 -0.52157468
64 64 -0
60.940262 62.695641 -0.36842188
60.727798 62.605068 -0.29651186
60.370983 62.452957 -0.21985772
60.418339 62.473145 -0.10873888
64 64 0
64 64 0
61.04583 62.736423 -0.52972275
64 64 -0
60.904461 62.675957 -0.37292495
60.762535 62.61525 -0.29351565
60.39188 62.456711 -0.21870455
60.405846 62.462685 -0.10917445
64 64 0
64 64 0
60.874748 62.658779 -0.56068987
64 64 -0
60.836029 62.642159 -0.38136661
60.717037 62.591095 -0.29779452
60.384251 62.448277 -0.21928059
60.402935 62.456295 -0.10931944
64 64 0
64 64 0
60.948997 62.686275 -0.54765356
64 64 -0
60.791008 62.618244 -0.38699436
60.723454 62.589157 -0.29736695
60.405132 62.452091 -0.21812741
60.419128 62.458118 -0.10888389
64 64 0
64 64 0
61.091267 62.743362 -0.52238888
64 64 -0
60.722698 62.584133 -0.39543819
60.762867 62.60149 -0.29394323
60.397499 62.443642 -0.21870455
60.411446 62.449665 -0.10917445
64 64 0
64 64 0
60.793453 62.610104 -0.57617503
64 64 -0
60.654469 62.549858 -0.403882
60.750423 62.59145 -0.29522753
60.385155 62.433125 -0.2195686
60.39901 62.439129 -0.10961
64 64 0
64 64 0
60.935665 62.667343 -0.55091029
64 64 -0
60.595642 62.51947 -0.41119897
60.756828 62.589569 -0.29479998
60.420246 62.443192 -0.21755138
60.429504 62.44722 -0.10873888
64 64 0
64 64 0
60.910084 62.651779 -0.55580169
64 64 -0
60.504299 62.47472 -0.42245451
60.758537 62.585651 -0.29479998
60.417393 62.436802 -0.2178394
60.421844 62.438744 -0.10902944
64 64 0
64 64 0
60.662674 62.539021 -0.60062242
64 64 -0
60.510796 62.472534 -0.42189214
60.760246 62.581738 -0.29479998
60.386108 62.41795 -0.21985772
60.433266 62.438595 -0.10873888
64 64 0
64 64 0
60.550381 62.487381 -0.62099576
64 64 -0
60.488453 62.460224 -0.42470604
60.775215 62.585968 -0.29351565
60.424965 62.432384 -0.21755138
60.438965 62.438526 -0.10859388
60.78009 62.588104 0
64 64 0
60.511494 62.465302 -0.62832963
64 64 -0
60.494965 62.458027 -0.4241437
60.762825 62.575867 -0.29479998
60.407921 62.419735 -0.21870455
60.421825 62.425854 -0.10917445
64 64 0
64 64 0
60.545013 62.47506 -0.6226241
64 64 -0
60.482876 62.447636 -0.4258329
60.783333 62.58025 -0.29308811
60.447693 62.432106 -0.21639821
60.461765 62.438316 -0.10801332
64 64 0
64 64 0
60.433865 62.420853 -0.64299744
64 64 -0
60.466167 62.435158 -0.42808443
60.794449 62.580524 -0.29223135
60.378654 62.396404 -0.22072177
60.42564 62.41721 -0.10917445
64 64 0
64 64 0
60.444801 62.420555 -0.6413691
64 64 -0
60.481998 62.43708 -0.42639524
60.782089 62.570396 -0.29351565
60.42786 62.413029 -0.2178394
60.446552 62.421333 -0.10859388
64 64 0
64 64 0
60.532501 62.454498 -0.625884
64 64 -0
60.469959 62.42662 -0.42808443
60.79789 62.572784 -0.29223135
60.410881 62.400288 -0.21899256
60.43898 62.412811 -0.10888389
64 64 0
64 64 0
60.466679 62.420036 -0.63810927
64 64 -0
60.453308 62.414059 -0.43033597
60.813683 62.575203 -0.29094705
60.412815 62.395954 -0.21899256
60.436142 62.406384 -0.10902944
64 64 0
64 64 0
60.45055 62.407677 -0.6413691
64 64 -0
60.464508 62.41394 -0.42920911
60.80135 62.565048 -0.29223135
60.405327 62.38739 -0.2195686
60.433331 62.399952 -0.10917445
64 64 0
64 64 0
60.366844 62.364849 -0.65685111
64 64 -0
60.471058 62.411751 -0.42864677
60.817135 62.567509 -0.29094705
60.407276 62.383045 -0.2195686
60.416313 62.387112 -0.109755
64 64 0
64 64 0
60.397812 62.368309 -0.65196288
64 64 -0
60.474907 62.403229 -0.42864677
60.829948 62.564053 -0.29009193
60.411194 62.374371 -0.2195686
60.382347 62.361301 -0.11091612
64 64 0
64 64 0
60.390797 62.359871 -0.65359122
64 64 -0
60.481461 62.40107 -0.42808443
60.841026 62.564468 -0.28923681
60.389599 62.359325 -0.22101089
60.379604 62.354786 -0.11106112
64 64 0
64 64 0
60.473732 62.392414 -0.63892341
64 64 -0
60.464897 62.38839 -0.43033597
60.838097 62.558525 -0.28966436
60.37748 62.348534 -0.22187494
60.424149 62.369812 -0.109755
64 64 0
64 64 0
60.507149 62.40255 -0.63321787
64 64 -0
60.476101 62.388348 -0.42920911
60.853851 62.561115 -0.28838006
60.398293 62.352764 -0.22072177
60.430843 62.367649 -0.10961
64 64 0
64 64 0
60.396763 62.346798 -0.65359122
64 64 -0
60.487278 62.388329 -0.42808443
60.81826 62.540184 -0.29180381
60.376781 62.337631 -0.22216295
60.404488 62.350342 -0.11048056
64 64 0
64 64 0
60.466106 62.37344 -0.6413691
64 64 -0
60.470764 62.375584 -0.43033597
60.857338 62.553516 -0.28838006
60.421082 62.352718 -0.2195686
60.401764 62.343826 -0.11062556
64 64 0
64 64 0
60.468075 62.369171 -0.6413691
64 64 -0
60.468121 62.369194 -0.43089831
60.849758 62.54541 -0.28923681
60.385502 62.331047 -0.22187494
60.408482 62.341656 -0.11048056
64 64 0
64 64 0
60.523872 62.389839 -0.63158953
64 64 -0
60.474701 62.367062 -0.43033597
60.823574 62.52866 -0.29180381
60.392212 62.32885 -0.22158693
60.410488 62.337318 -0.11048056
64 64 0
64 64 0
60.445137 62.348148 -0.64625734
64 64 -0
60.449032 62.349957 -0.43371218
60.843979 62.533478 -0.29009193
60.384861 62.320137 -0.22216295
60.426643 62.339554 -0.110045
64 64 0
64 64 0
60.567127 62.402309 -0.6242556
64 64 -0
60.46846 62.356388 -0.43146065
60.844864 62.53157 -0.29009193
60.371799 62.311405 -0.22302811
60.42765 62.337395 -0.110045
64 64 0
64 64 0
60.376472 62.308247 -0.65929675
64 64 -0
60.461231 62.34782 -0.4325875
60.837345 62.523422 -0.29094705
60.36916 62.304836 -0.22331612
60.415527 62.326481 -0.11048056
64 64 0
64 64 0
64 64 -0
64 64 -0
60.46323 62.343544 -0.4325875
60.811226 62.506531 -0.29351565
60.357155 62.293865 -0.22418128
60.417553 62.322151 -0.11048056
64 64 0
64 64 0
60.461094 62.33733 -0.64462894
64 64 -0
60.474442 62.343597 -0.43146065
60.826981 62.509232 -0.29223135
60.377945 62.298264 -0.22302811
60.400768 62.308987 -0.11106112
64 64 0
64 64 0
64 64 -0
64 64 -0
60.458057 62.330673 -0.43371218
60.796268 62.490074 -0.29522753
60.356613 62.282864 -0.22446929
60.402813 62.304638 -0.11106112
64 64 0
64 64 0
60.353405 62.275963 -0.66500235
64 64 -0
60.478455 62.335083 -0.43146065
60.788822 62.481819 -0.29608265
60.368034 62.282879 -0.22389325
60.400173 62.298073 -0.11120611
64 64 0
64 64 0
60.422489 62.303333 -0.65277708
64 64 -0
60.46669 62.324295 -0.43314984
60.781372 62.473537 -0.2969394
60.356087 62.271839 -0.22475842
60.39283 62.289268 -0.11149667
64 64 0
64 64 0
60.43346 62.303253 -0.65114868
64 64 -0
60.473301 62.322208 -0.4325875
60.732235 62.445393 -0.30164582
60.381546 62.278557 -0.22331612
60.413673 62.293839 -0.11091612
64 64 0
64 64 0
64 64 -0
64 64 -0
60.470749 62.315762 -0.43314984
60.729465 62.439228 -0.302075
60.360271 62.263039 -0.22475842
60.396976 62.280556 -0.11149667
64 64 0
64 64 0
60.397449 62.275433 -0.65848261
64 64 -0
60.468208 62.309307 -0.43371218
60.675804 62.408684 -0.30720899
60.390377 62.272049 -0.22302811
60.413124 62.282936 -0.11106112
64 64 0
64 64 0
60.337158 62.241127 -0.66989052
64 64 -0
60.479404 62.309433 -0.4325875
60.677727 62.404667 -0.30720899
60.373817 62.258732 -0.22418128
60.415199 62.278603 -0.11106112
64 64 0
64 64 0
64 64 -0
64 64 -0
60.490616 62.309597 -0.43146065
60.628773 62.376144 -0.31191704
60.371265 62.25211 -0.22446929
60.431335 62.28104 -0.11062556
64 64 0
64 64 0
64 64 -0
64 64 -0
60.483501 62.300934 -0.4325875
60.653847 62.383236 -0.30977759
60.364056 62.243221 -0.22504643
60.410023 62.265427 -0.11135112
64 64 0
64 64 0
64 64 -0
64 64 -0
60.471851 62.290043 -0.43427452
60.655804 62.379196 -0.30977759
60.333591 62.223034 -0.22706476
60.421463 62.265621 -0.11106112
60.74247 62.4212 0
64 64 0
64 64 -0
64 64 -0
60.487617 62.292439 -0.4325875
60.643906 62.36842 -0.31106192
60.103153 62.10553 -0.24147771
60.423561 62.261299 -0.11106112
64 64 0
64 64 0
64 64 -0
64 64 -0
60.512535 62.299339 -0.42977145
60.608982 62.346371 -0.314484
59.640503 61.874096 -0.27030584
60.406982 62.247868 -0.11164168
64 64 0
64 64 0
64 64 -0
64 64 -0
60.500893 62.288425 -0.43146065
60.629414 62.351292 -0.31277379
59.564083 61.830189 -0.27520654
60.390427 62.23439 -0.11222223
60.668732 62.370525 0
64 64 0
64 64 -0
64 64 -0
60.49279 62.281837 -0.4325875
60.602753 62.335705 -0.31534076
59.51429 61.802475 -0.27837804
60.363503 62.218498 -0.11309279
60.580921 62.325012 0
64 64 0
64 64 -0
64 64 -0
60.504002 62.282085 -0.43146065
60.627804 62.342922 -0.31320134
59.790855 61.931652 -0.26136962
60.356319 62.209518 -0.11338335
60.559593 62.309406 0
64 64 0
64 64 -0
64 64 -0
60.510635 62.280109 -0.43089831
60.629807 62.338848 -0.31320134
60.373329 62.212433 -0.22533445
60.367817 62.209717 -0.11309279
60.505615 62.277634 0
64 64 0
64 64 -0
64 64 -0
60.503613 62.271393 -0.43202299
60.636414 62.337051 -0.31277379
60.421856 62.230972 -0.22245207
60.323387 62.182293 -0.11454447
60.507698 62.273415 0
64 64 0
64 64 -0
64 64 -0
60.49659 62.26265 -0.43314984
60.624641 62.326153 -0.31405646
60.465702 62.247334 -0.21985772
60.283688 62.157074 -0.11585058
60.439838 62.234509 0
64 64 0
64 64 -0
64 64 -0
60.512344 62.265209 -0.43146065
60.663441 62.340366 -0.31063271
60.500248 62.259193 -0.2178394
60.295235 62.157215 -0.11556002
60.441975 62.230206 0
64 64 0
64 64 -0
64 64 -0
60.505341 62.256454 -0.4325875
60.670036 62.338627 -0.31020516
60.493107 62.250351 -0.21841542
60.297462 62.15274 -0.11556002
60.392895 62.200356 0
64 64 0
64 64 -0
64 64 -0
60.50745 62.252235 -0.4325875
60.699589 62.348385 -0.30763817
60.513725 62.255375 -0.21726225
60.267162 62.131989 -0.11657614
60.325249 62.161057 0
64 64 0
64 64 -0
64 64 -0
60.495953 62.241184 -0.43427452
60.738293 62.362823 -0.30421445
60.515839 62.251163 -0.21726225
60.250843 62.118153 -0.11715669
60.369335 62.177628 0
64 64 0
64 64 -0
64 64 -0
60.516235 62.24609 -0.43202299
60.799885 62.388893 -0.29865128
60.531799 62.253925 -0.21639821
60.285618 62.129986 -0.11614058
60.3297 62.15218 0
64 64 0
64 64 -0
64 64 -0
60.518356 62.241882 -0.43202299
60.788097 62.378094 -0.29993394
60.543156 62.254406 -0.21582107
60.278591 62.120808 -0.11643114
60.373749 62.168861 0
64 64 0
64 64 -0
64 64 -0
60.506882 62.230785 -0.43371218
60.780891 62.369568 -0.3007907
60.531418 62.243214 -0.21668623
60.294777 62.12336 -0.11599558
60.413113 62.183292 0
64 64 0
64 64 -0
64 64 -0
60.53167 62.238071 -0.43089831
60.764553 62.35638 -0.30250257
60.551994 62.248398 -0.21553306
60.292419 62.116531 -0.11614058
60.378185 62.160103 0
52.657314 58.237865 0.35531148
64 64 -0
64 64 -0
60.51569 62.224655 -0.43314984
60.757401 62.347813 -0.30335769
60.577152 62.255974 -0.21409187
60.317844 62.123848 -0.11541502
60.347961 62.139194 0
52.645763 58.214729 0.35589203
64 64 -0
64 64 -0
60.508797 62.215824 -0.43427452
60.73653 62.332207 -0.30549875
60.560837 62.24242 -0.21524504
60.347874 62.133587 -0.11454447
60.373383 62.146622 0
52.66201 58.205738 0.35560203
64 64 -0
64 64 -0
60.506416 62.209282 -0.43483904
60.679153 62.297825 -0.31106192
60.576778 62.24535 -0.21437989
60.391747 62.150505 -0.11323835
60.361721 62.135117 0
52.659779 58.187305 0.35589203
64 64 -0
64 64 -0
60.521069 62.214138 -0.43314984
60.661915 62.286438 -0.31277379
60.577839 62.243282 -0.21437989
60.411362 62.157822 -0.11265779
60.311928 62.106777 0
52.672531 58.185196 0.35560203
64 64 -0
64 64 -0
60.514202 62.205288 -0.43427452
60.677685 62.289459 -0.31148946
60.598362 62.248619 -0.21322672
60.469032 62.182034 -0.11091612
60.392883 62.142826 0
52.70266 58.183407 0.35487646
64 64 -0
64 64 -0
60.529903 62.208065 -0.4325875
60.670639 62.280739 -0.31234458
60.609665 62.249252 -0.21265069
60.494316 62.189686 -0.11019056
60.348873 62.114582 0
52.705086 58.167377 0.35502148
64 64 -0
64 64 -0
60.527565 62.201538 -0.43314984
60.654484 62.267273 -0.31405646
60.588818 62.233265 -0.21409187
60.501133 62.187851 -0.110045
60.300327 62.083847 0
52.809044 58.203926 0.35197368
64 64 -0
64 64 -0
60.529739 62.197346 -0.43314984
60.633804 62.2514 -0.31619588
60.590958 62.229145 -0.21409187
60.503326 62.183624 -0.110045
60.284168 62.069782 0
52.889847 58.228737 0.34965146
64 64 -0
64 64 -0
60.554451 62.204891 -0.43033597
60.635918 62.247334 -0.31619588
60.588516 62.222637 -0.21437989
60.52396 62.189003 -0.10946444
60.337269 62.09174 0
52.989006 58.26334 0.34674865
64 64 -0
64 64 -0
60.534107 62.188965 -0.43314984
60.651676 62.250397 -0.31491321
60.618164 62.232887 -0.21265069
60.53075 62.18721 -0.10931944
60.288845 62.060806 0
53.041996 58.274105 0.34529755
64 64 -0
64 64 -0
60.536297 62.184776 -0.43314984
60.653793 62.246353 -0.31491321
60.611149 62.224003 -0.21322672
60.551357 62.192669 -0.10873888
60.323448 62.073231 0
53.154781 58.316345 0.34195974
64 64 -0
64 64 -0
60.551991 62.187687 -0.43146065
60.624115 62.225597 -0.31790775
60.599556 62.212688 -0.21409187
60.539738 62.181248 -0.10917445
60.325779 62.068787 0
53.161655 58.303246 0.34195974
64 64 -0
64 64 -0
60.540695 62.176411 -0.43314984
60.667133 62.243065 -0.31405646
60.601715 62.20858 -0.21409187
60.55114 62.181919 -0.10888389
60.300499 62.049793 0
53.209934 58.31197 0.34065309
64 64 -0
64 64 -0
60.560871 62.181732 -0.43089831
60.642017 62.224636 -0.31662509
60.594746 62.199646 -0.2146679
60.562523 62.182606 -0.10859388
60.302856 62.045322 0
53.271931 58.328075 0.33891198
64 64 -0
64 64 -0
60.540627 62.16568 -0.43371218
60.639633 62.218178 -0.31705263
60.615204 62.205223 -0.21351473
60.56472 62.178455 -0.10859388
60.305222 62.040855 0
53.301762 58.327297 0.33818585
64 64 -0
64 64 -0
60.551811 62.166267 -0.4325875
60.664452 62.22617 -0.31491321
60.599106 62.191422 -0.2146679
60.56234 62.171867 -0.10873888
60.30759 62.036392 0
53.349915 58.336334 0.33687973
64 64 -0
64 64 -0
60.563004 62.166889 -0.43146065
60.648476 62.212475 -0.31662509
60.624111 62.199482 -0.21322672
60.573711 62.1726 -0.10844889
53.536198 58.419167 0
53.402611 58.347919 0.33542863
64 64 -0
64 64 -0
60.578671 62.169933 -0.42977145
60.646114 62.206009 -0.31705263
60.635406 62.200279 -0.21265069
60.571346 62.166016 -0.10859388
53.552139 58.411442 0
53.436954 58.349831 0.3345575
64 64 -0
64 64 -0
60.580883 62.165798 -0.42977145
60.670902 62.214088 -0.31491321
60.628475 62.19133 -0.21322672
60.573563 62.161873 -0.10859388
53.577229 58.408657 0
53.462105 58.346897 0.33397695
64 64 -0
64 64 -0
60.551769 62.144814 -0.43371218
60.659512 62.202778 -0.31619588
60.607887 62.175003 -0.2146679
60.562054 62.150345 -0.10902944
53.602325 58.40593 0
53.491821 58.346478 0.33325139
64 64 -0
64 64 -0
60.558483 62.143059 -0.43314984
60.657154 62.196297 -0.31662509
60.628307 62.180733 -0.21351473
60.568878 62.148666 -0.10888389
53.700706 58.442802 0
53.580978 58.378201 0.33063915
64 64 -0
64 64 -0
60.577488 62.150642 -0.43089831
60.653732 62.191841 -0.31705263
60.643047 62.186066 -0.21265069
60.579132 62.151531 -0.10859388
53.704067 58.436581 0
53.625519 58.394138 0.32933304
64 64 -0
64 64 -0
60.575264 62.144089 -0.43146065
60.633354 62.175571 -0.31919205
60.617962 62.167229 -0.21437989
60.567657 62.139969 -0.10902944
53.765709 58.453903 0
53.614025 58.371704 0.32991359
64 64 -0
64 64 -0
60.595367 62.149658 -0.42920911
60.644573 62.176403 -0.31833693
60.624718 62.165611 -0.21409187
60.579048 62.140789 -0.10873888
53.841022 58.478828 0
53.698456 58.401344 0.32744637
64 64 -0
64 64 -0
60.595394 62.139004 -0.42977145
60.61747 62.15107 -0.32133147
60.629162 62.157459 -0.21409187
60.583549 62.132526 -0.10873888
60.44455 62.056549 0
53.780418 58.413857 0.32526913
64 64 -0
64 64 -0
60.597645 62.134888 -0.42977145
60.606194 62.139576 -0.3226158
60.635921 62.155872 -0.21380386
60.572132 62.120903 -0.10917445
60.497093 62.079769 0
53.809959 58.414001 0.32454357
64 64 -0
64 64 -0
60.613247 62.138119 -0.42808443
60.617451 62.140427 -0.32175905
60.620018 62.141842 -0.21495703
60.588074 62.124275 -0.10873888
60.535908 62.0956 0
53.83493 58.411705 0.32396302
64 64 -0
64 64 -0
60.619965 62.136486 -0.42751992
60.597206 62.12394 -0.3239001
60.63586 62.145252 -0.21409187
60.58123 62.115131 -0.10902944
60.519978 62.081364 0
53.882645 58.422009 0.3226569
64 64 -0
64 64 -0
60.613316 62.127483 -0.42864677
60.599476 62.119831 -0.3239001
60.633583 62.138687 -0.21437989
60.583511 62.111004 -0.10902944
60.558739 62.097305 0
53.925777 58.429905 0.3214958
64 64 -0
64 64 -0
60.615578 62.12339 -0.42864677
60.601749 62.115723 -0.3239001
60.626778 62.129601 -0.21495703
60.594894 62.111923 -0.10873888
60.556496 62.09063 0
53.927975 58.415218 0.32164079
64 64 -0
64 64 -0
60.608974 62.114368 -0.42977145
60.617496 62.119106 -0.3226158
60.624523 62.123013 -0.21524504
60.583549 62.100227 -0.10917445
60.522411 62.066235 0
53.948341 58.410622 0.32120579
64 64 -0
64 64 -0
60.633442 62.122646 -0.42695758
60.601833 62.105019 -0.32432768
60.608723 62.10886 -0.21639821
60.599468 62.103699 -0.10873888
60.529293 62.064564 0
54.000504 58.423794 0.31975412
64 64 -0
64 64 -0
60.617973 62.108658 -0.42920911
60.599651 62.098412 -0.32475522
60.620049 62.109818 -0.21582107
60.610825 62.10466 -0.10844889
60.577072 62.085785 0
54.038986 58.429466 0.31873855
64 64 -0
64 64 -0
60.637989 62.114513 -0.42695758
60.579563 62.081749 -0.32689464
60.622334 62.105736 -0.21582107
60.599533 62.092945 -0.10888389
60.55669 62.06892 0
54.068398 58.430153 0.31801245
64 64 -0
64 64 -0
60.631405 62.105469 -0.42808443
60.568455 62.070065 -0.32817897
60.620106 62.099113 -0.2161102
60.610889 62.093929 -0.10859388
60.599854 62.087723 0
54.070595 58.4156 0.318158
64 64 -0
64 64 -0
60.629272 62.098904 -0.42864677
60.539482 62.048264 -0.33117515
60.640427 62.105194 -0.21495703
60.626778 62.097496 -0.10815833
60.565899 62.06316 0
54.131668 58.434242 0.31641632
64 64 -0
64 64 -0
60.63599 62.097332 -0.42808443
60.497162 62.01881 -0.33545399
60.624706 62.09095 -0.2161102
60.610985 62.083187 -0.10873888
60.568241 62.059013 0
54.201721 58.458138 0.31438464
64 64 -0
64 64 -0
60.654831 62.105316 -0.4258329
60.493896 62.014168 -0.33588156
60.616867 62.083817 -0.21668623
60.63475 62.093945 -0.10801332
60.583004 62.064636 0
54.22316 58.462463 0.31380409
64 64 -0
64 64 -0
60.630615 62.086224 -0.42920911
