# .PCD v0.7 - Point Cloud Data file format
VERSION 0.7
FIELDS x y z
SIZE 4 4 4
TYPE F F F
COUNT 1 1 1
WIDTH 1893
HEIGHT 1
VIEWPOINT 0 0 0 1 0 0 0
POINTS 1893
DATA ascii
72.817169 67.295258 0
72.792168 67.285912 0.26213667
64 64 -0
64 64 -0
64 64 -0
64 64 -0
72.798553 67.300423 0
72.797928 67.300186 0.26242724
64 64 -0
64 64 -0
64 64 -0
64 64 -0
72.814049 67.318382 0
72.793938 67.310814 0.26242724
64 64 -0
64 64 -0
64 64 -0
64 64 -0
72.824646 67.334557 0
72.794785 67.323273 0.26257223
64 64 -0
64 64 -0
64 64 -0
64 64 -0
72.810867 67.341522 0
72.815056 67.343109 0.2632978
64 64 -0
64 64 -0
64 64 -0
64 64 -0
72.831139 67.36142 0
72.830437 67.361153 0.26387835
64 64 -0
64 64 -0
64 64 -0
64 64 -0
72.846519 67.379517 0
72.82637 67.371819 0.26387835
64 64 -0
64 64 -0
64 64 -0
64 64 -0
72.866745 67.399529 0
72.861115 67.397369 0.26503947
64 64 -0
64 64 -0
64 64 -0
64 64 -0
72.862625 67.41024 0
72.90065 67.424866 0.26634556
64 64 -0
64 64 -0
64 64 -0
64 64 -0
72.887627 67.43219 0
72.901367 67.4375 0.26649114
64 64 -0
64 64 -0
64 64 -0
64 64 -0
72.902885 67.450455 0
77.645729 69.288612 0.40872002
64 64 -0
64 64 -0
64 64 -0
64 64 -0
72.869614 67.44989 0
77.653862 69.310753 0.40915558
64 64 -0
64 64 -0
64 64 -0
77.70575 69.350006 -0.41090393
77.631447 69.321007 0
77.637764 69.323471 0.40886557
64 64 -0
64 64 -0
64 64 -0
64 64 -0
77.634689 69.341263 0
77.645821 69.345627 0.40930057
64 64 -0
64 64 -0
64 64 -0
77.741135 69.402122 -0.41235504
77.633087 69.359642 0
77.634521 69.360214 0.40915558
64 64 -0
64 64 -0
64 64 -0
77.568649 69.343781 -0.40727559
77.624985 69.365967 0
77.636108 69.370346 0.40930057
64 64 -0
64 64 -0
64 64 -0
77.620178 69.383095 -0.40901726
77.623344 69.384346 0
77.629608 69.386826 0.40930057
64 64 -0
64 64 -0
64 64 -0
64 64 -0
77.636185 69.408478 0
77.637589 69.409035 0.40973613
64 64 -0
64 64 -0
64 64 -0
64 64 -0
77.644135 69.430717 0
77.635864 69.427429 0.40988111
64 64 -0
64 64 -0
64 64 -0
64 64 -0
77.632736 69.445274 0
77.629303 69.443901 0.40988111
64 64 -0
64 64 -0
64 64 -0
64 64 -0
77.630966 69.463676 0
77.642006 69.468102 0.41046169
64 64 -0
64 64 -0
64 64 -0
64 64 -0
77.629204 69.482094 0
77.635391 69.484581 0.41046169
64 64 -0
64 64 -0
64 64 -0
64 64 -0
77.603256 69.490761 0
77.633568 69.502998 0.41060668
64 64 -0
64 64 -0
64 64 -0
64 64 -0
72.613373 67.488777 0
77.622093 69.517517 0.41046169
64 64 -0
64 64 -0
64 64 -0
64 64 -0
72.575409 67.485466 0
77.639488 69.543755 0.41118723
64 64 -0
64 64 -0
64 64 -0
64 64 -0
72.561546 67.49189 0
77.623161 69.556313 0.41089725
64 64 -0
64 64 -0
64 64 -0
64 64 -0
72.552505 67.500259 0
77.592392 69.562927 0.41017169
64 64 -0
64 64 -0
64 64 -0
64 64 -0
72.557892 67.514542 0
77.609695 69.589218 0.41089725
64 64 -0
64 64 -0
64 64 -0
64 64 -0
72.539215 67.518936 0
77.588516 69.599716 0.41046169
64 64 -0
64 64 -0
64 64 -0
64 64 -0
72.539764 67.531242 0
77.600945 69.624069 0.41104224
64 64 -0
64 64 -0
64 64 -0
64 64 -0
72.501831 67.527596 0
77.603752 69.644485 0.41133279
64 64 -0
64 64 -0
64 64 -0
64 64 -0
72.507179 67.54187 0
77.568123 69.648933 0.41046169
64 64 -0
64 64 -0
64 64 -0
64 64 -0
72.493279 67.548126 0
72.584061 67.586052 0.25981501
64 64 -0
64 64 -0
64 64 -0
64 64 -0
72.512985 67.568443 0
72.565338 67.590393 0.25937945
64 64 -0
64 64 -0
64 64 -0
64 64 -0
72.489494 67.570663 0
72.537041 67.590668 0.25865388
64 64 -0
64 64 -0
64 64 -0
64 64 -0
72.480362 67.578896 0
72.51355 67.592896 0.25807333
64 64 -0
64 64 -0
64 64 -0
64 64 -0
72.495209 67.597252 0
72.509201 67.60318 0.25807333
64 64 -0
64 64 -0
64 64 -0
64 64 -0
72.488243 67.600357 0
72.516579 67.612373 0.25836334
64 64 -0
64 64 -0
64 64 -0
64 64 -0
72.503044 67.618759 0
72.483528 67.610458 0.25749275
64 64 -0
64 64 -0
64 64 -0
64 64 -0
72.508232 67.633118 0
72.507828 67.632942 0.25836334
64 64 -0
64 64 -0
64 64 -0
64 64 -0
72.484695 67.635201 0
72.498657 67.641174 0.25821832
64 64 -0
64 64 -0
64 64 -0
64 64 -0
72.494644 67.651611 0
72.489479 67.649391 0.25807333
64 64 -0
64 64 -0
64 64 -0
64 64 -0
72.475883 67.655693 0
72.485062 67.659653 0.25807333
64 64 -0
64 64 -0
64 64 -0
64 64 -0
72.500137 67.678337 0
72.485397 67.671959 0.25821832
64 64 -0
64 64 -0
64 64 -0
64 64 -0
72.505219 67.692749 0
72.471436 67.678078 0.25792831
64 64 -0
64 64 -0
64 64 -0
64 64 -0
72.495987 67.700943 0
72.476501 67.692459 0.25821832
64 64 -0
64 64 -0
64 64 -0
64 64 -0
72.520134 67.723717 0
72.476791 67.704773 0.25836334
64 64 -0
64 64 -0
64 64 -0
64 64 -0
72.515625 67.734009 0
72.481842 67.719193 0.25865388
64 64 -0
64 64 -0
64 64 -0
64 64 -0
72.52063 67.748482 0
72.477341 67.729439 0.25865388
64 64 -0
64 64 -0
64 64 -0
64 64 -0
77.615715 70.009613 0
72.472824 67.739677 0.25865388
64 64 -0
64 64 -0
64 64 -0
64 64 -0
77.622726 70.032387 0
72.477798 67.75412 0.25894389
64 64 -0
64 64 -0
64 64 -0
64 64 -0
77.610672 70.04673 0
72.459 67.758026 0.25850832
64 64 -0
64 64 -0
64 64 -0
64 64 -0
77.584343 70.054695 0
72.459213 67.77037 0.25865388
64 64 -0
64 64 -0
64 64 -0
64 64 -0
77.607658 70.104546 0
72.478516 67.803558 0.25952443
64 64 -0
64 64 -0
64 64 -0
64 64 -0
77.590775 70.116707 0
72.473915 67.813797 0.25952443
64 64 -0
64 64 -0
64 64 -0
64 64 -0
77.592865 70.137413 0
72.483513 67.830452 0.25996
64 64 -0
64 64 -0
64 64 -0
64 64 -0
77.599655 70.160271 0
72.478882 67.840698 0.25996
64 64 -0
64 64 -0
64 64 -0
64 64 -0
77.586456 70.164192 0
72.476562 67.845825 0.25996
64 64 -0
64 64 -0
64 64 -0
64 64 -0
77.593216 70.187073 0
72.490829 67.864677 0.26054054
64 64 -0
64 64 -0
64 64 -0
64 64 -0
77.599922 70.209976 0
72.500336 67.881409 0.26097611
64 64 -0
64 64 -0
64 64 -0
64 64 -0
77.592407 70.226402 0
72.514519 67.90033 0.26155612
64 64 -0
64 64 -0
64 64 -0
77.599068 70.249344 0
72.500366 67.906273 0.26126611
64 64 -0
64 64 -0
64 64 -0
77.591507 70.26577 0
72.519234 67.927422 0.26199168
64 64 -0
64 64 -0
64 64 -0
77.569748 70.275635 0
72.505058 67.93335 0.26170167
64 64 -0
64 64 -0
64 64 -0
77.562157 70.292023 0
72.523865 67.954559 0.26242724
64 64 -0
64 64 -0
64 64 -0
77.578156 70.319397 0
72.519081 67.964859 0.26242724
64 64 -0
64 64 -0
64 64 -0
77.575218 70.337997 0
72.50486 67.970749 0.26213667
64 64 -0
64 64 -0
64 64 -0
77.581696 70.361023 0
72.514175 67.987633 0.26257223
64 64 -0
64 64 -0
64 64 -0
77.578705 70.379639 0
77.984093 70.570099 0.43150565
64 64 -0
64 64 -0
64 64 -0
77.580399 70.400475 0
78.013748 70.604713 0.43266678
64 64 -0
64 64 -0
64 64 -0
77.586769 70.423553 0
78.024551 70.630524 0.43324733
64 64 -0
64 64 -0
64 64 -0
77.574303 70.437737 0
78.025932 70.651924 0.43353787
64 64 -0
64 64 -0
78.018097 70.668968 -0.43354458
77.575905 70.458603 0
77.994423 70.657707 0.43281233
64 64 -0
76.855057 70.134727 -0.7938183
77.986565 70.674706 -0.43281847
77.586884 70.483971 0
77.986366 70.674614 0.43281233
64 64 -0
76.707649 70.083244 -0.78516895
77.940987 70.673653 -0.43165734
77.579041 70.500381 0
77.973587 70.689255 0.43266678
76.830856 70.161293 -0.79324114
77.951653 70.699486 -0.43223789
77.575859 70.519035 0
77.932716 70.690399 0.4316512
76.888641 70.208214 -0.79727668
77.854607 70.6735 -0.42948067
77.582047 70.542213 0
77.929298 70.70948 0.43179622
76.871826 70.219284 -0.79670066
77.757622 70.647278 -0.42672288
77.597557 70.569939 0
77.944572 70.73761 0.43252176
76.85965 70.232582 -0.79641265
77.754265 70.666168 -0.42686844
77.561516 70.572746 0
77.987869 70.779388 0.43411845
76.880013 70.261681 -0.79814184
77.708809 70.664604 -0.42570731
77.558243 70.5914 0
77.984337 70.798553 0.43426344
76.932037 70.296638 -0.80160135
77.681427 70.661514 -0.42498177
77.568298 70.60643 0
78.008255 70.820648 0.43513399
76.915115 70.307709 -0.8010242
77.664017 70.67347 -0.4246912
77.579018 70.631958 0
78.018684 70.846687 0.43571454
76.912148 70.325592 -0.80131334
77.627953 70.676262 -0.42382064
77.561638 70.643776 0
77.987068 70.852196 0.43498901
76.946274 70.361725 -0.80390769
77.629196 70.697304 -0.42411065
77.567619 70.667046 0
77.960121 70.859924 0.43440846
76.90609 70.361351 -0.80188936
64 64 -0
77.568878 70.688034 0
77.900558 70.851517 0.43281233
76.935493 70.395279 -0.8041957
77.622292 70.734833 -0.42440119
77.579453 70.713654 0
77.873634 70.8591 0.43223175
64 64 -0
76.918495 70.406311 -0.80361968
64 64 -0
77.576004 70.732376 0
77.809471 70.848152 0.43049011
64 64 -0
76.93853 70.435738 -0.80534887
64 64 -0
77.586502 70.758041 0
77.78257 70.855576 0.42990953
76.916855 70.444435 -0.80448371
77.593124 70.781845 -0.42425564
77.629547 70.800011 0
77.737076 70.853661 0.42874843
76.936821 70.47393 -0.80621403
64 64 -0
77.616669 70.814148 0
77.677658 70.844666 0.42715174
76.961334 70.505798 -0.80823123
77.646378 70.84964 -0.42643288
77.622383 70.837601 0
77.636879 70.844879 0.4261362
76.962715 70.526108 -0.80880839
77.614883 70.854446 -0.42570731
77.590874 70.842354 0
77.63324 70.863686 0.42628118
77.010231 70.569748 -0.8122679
77.588036 70.861519 -0.42512676
77.601166 70.868149 0
77.601746 70.868439 0.42555562
64 64 -0
64 64 -0
77.057648 70.613503 -0.81572628
77.575104 70.875587 -0.42498177
77.60215 70.88929 0
77.57489 70.875481 0.42497507
77.02198 70.615227 -0.81399709
77.58532 70.901398 -0.42556232
77.58918 70.903366 0
77.580475 70.898941 0.42541063
64 64 -0
76.977104 70.612167 -0.81169075
77.590851 70.924881 -0.42599732
77.580826 70.919777 0
77.586006 70.922417 0.42584562
76.964508 70.625488 -0.81140274
77.573227 70.936577 -0.42570731
77.590996 70.945656 0
77.577637 70.938828 0.42584562
76.878235 70.601036 -0.80650204
77.587952 70.964821 -0.42643288
77.59185 70.96682 0
77.592361 70.967079 0.42657119
76.824257 70.592949 -0.80361968
77.579529 70.981232 -0.42643288
77.58342 70.983238 0
77.579315 70.981125 0.4264262
76.761108 70.579987 -0.80016017
77.571083 70.997635 -0.42643288
77.598099 71.011566 0
77.575485 70.999908 0.42657119
76.711792 70.57402 -0.79756582
77.56723 71.016411 -0.4265779
77.571121 71.018433 0
77.57164 71.0187 0.42671674
76.662498 70.567932 -0.79497033
77.554131 71.030411 -0.42643288
77.5765 71.042015 0
77.595428 71.051834 0.42773232
76.589684 70.539818 -0.79064679
77.572937 71.050575 -0.42715845
77.590721 71.059814 0
77.581955 71.05526 0.42744231
76.54966 70.538292 -0.78862846
77.58284 71.076576 -0.42773899
77.582176 71.076233 0
77.582626 71.076462 0.42773232
76.472992 70.517525 -0.78430492
77.565079 71.088173 -0.42744899
77.59668 71.104683 0
77.592491 71.102501 0.42831287
76.4422 70.520584 -0.78286374
77.551888 71.102142 -0.42730343
77.583481 71.118698 0
77.606911 71.130974 0.42903844
76.411407 70.523575 -0.78142142
77.552505 71.123352 -0.42759401
77.588692 71.142372 0
77.579887 71.137741 0.42845786
76.380638 70.526505 -0.77998024
77.53009 71.132446 -0.42715845
77.575439 71.156349 0
77.571251 71.154144 0.42845786
64 64 -0
76.345314 70.526962 -0.77825105
77.530663 71.153656 -0.42744899
77.56678 71.172752 0
77.590172 71.18512 0.42932898
76.309982 70.527328 -0.77652073
77.549545 71.184601 -0.42831954
77.571899 71.196457 0
77.567703 71.194229 0.42889342
76.279259 70.530052 -0.77507955
77.53627 71.198532 -0.42817456
77.544815 71.203072 0
77.581932 71.222809 0.42961898
76.248543 70.532715 -0.77363837
77.541321 71.222221 -0.42861012
77.536102 71.219437 0
77.582375 71.244118 0.42990953
64 64 -0
76.208702 70.530434 -0.77162004
77.5784 71.263084 -0.43006122
77.550316 71.248055 0
77.578194 71.26297 0.43005455
76.155228 70.520729 -0.76873767
77.63372 71.313873 -0.43209291
77.555313 71.271805 0
77.578575 71.284286 0.43034509
76.115448 70.51825 -0.76671934
89.743042 77.850052 -0.81640273
77.532761 71.280785 0
77.583481 71.308067 0.43078008
76.075706 70.515701 -0.76470214
89.689697 77.861412 -0.81524158
77.56517 71.319366 0
77.574638 71.324478 0.43078008
76.009911 70.517715 -0.76153064
89.496254 77.836685 -0.81016159
77.785332 71.481232 0
77.575172 71.36718 0.43136066
64 64 -0
89.360847 77.802902 -0.8063882
77.936279 71.584961 0
77.561699 71.381088 0.43121564
75.957802 70.526894 -0.7592243
89.243805 77.778763 -0.80319542
77.936249 71.606789 0
77.539078 71.389999 0.43078008
75.972588 70.553757 -0.76066548
89.176987 77.781799 -0.80159879
77.963554 71.643608 0
77.5028 71.391388 0.42990953
75.964661 70.568214 -0.76066548
89.119316 77.789703 -0.80029267
77.954315 71.660477 0
77.416412 71.365189 0.42744231
75.956711 70.582672 -0.76066548
89.048004 77.78997 -0.79855096
77.940491 71.67482 0
90.354317 78.509148 0.84019721
75.935181 70.589615 -0.75980145
88.999496 77.80265 -0.79753542
77.940331 71.696693 0
79.131859 72.354561 0.48273751
75.931732 70.606537 -0.76008946
88.928238 77.802643 -0.79579377
77.93557 71.716049 0
79.112648 72.367798 0.48244697
75.928253 70.623459 -0.76037747
88.820671 77.782295 -0.79289097
77.953529 71.748039 0
79.116165 72.393623 0.48288253
75.919739 70.628151 -0.76008946
88.785103 77.782135 -0.79202038
77.930649 71.746353 0
79.174667 72.43811 0.48491418
75.920746 70.647583 -0.76066548
88.713959 77.7817 -0.79027873
77.944023 71.775864 0
79.641022 72.722191 0.50015312
75.930763 70.672081 -0.76181865
88.624718 77.770966 -0.78795648
77.907349 71.777458 0
79.78923 72.829865 0.50523317
75.9272 70.689026 -0.76210666
88.562744 77.775299 -0.7865054
77.920639 71.806984 0
79.774002 72.84639 0.50508761
75.914604 70.700897 -0.76181865
88.482658 77.769295 -0.78447312
77.915741 71.826355 0
79.808609 72.890923 0.50653929
75.897499 70.710213 -0.76124263
88.447914 77.788666 -0.78389317
77.915337 71.848274 0
79.766159 72.892143 0.50552315
75.902878 70.732216 -0.76210666
88.358856 77.77726 -0.78157091
77.933014 71.880455 0
89.267815 78.291367 0.81073546
75.912735 70.756798 -0.76325983
88.274384 77.768219 -0.77939367
77.932549 71.90242 0
89.223412 78.306503 0.80986488
75.90007 70.768631 -0.76297182
88.158356 77.74102 -0.77620089
77.904892 71.908958 0
89.142876 78.30101 0.80783319
75.89637 70.785568 -0.76325983
88.046944 77.716133 -0.77315313
77.931496 71.946381 0
89.09848 78.315918 0.80696207
75.90612 70.810211 -0.764413
87.994263 77.724533 -0.77199197
77.939957 71.973549 0
89.054108 78.330765 0.80609155
75.893402 70.822021 -0.76412499
87.941597 77.732834 -0.77083087
77.921272 71.985199 0
89.00972 78.345505 0.80522043
75.898605 70.844131 -0.76499015
87.879944 77.735847 -0.76937973
77.898087 71.99424 0
88.987869 78.373123 0.80507541
75.890327 70.858498 -0.76499015
87.818321 77.738724 -0.76792866
77.906456 72.021431 0
88.920975 78.374756 0.80347931
75.89547 70.880638 -0.76585531
87.747726 77.736275 -0.76618695
77.905754 72.043434 0
88.881081 78.391838 0.80275321
75.88266 70.892403 -0.76556617
87.681656 77.736275 -0.76459026
77.87352 72.047173 0
88.832222 78.403641 0.80173761
75.89669 70.919762 -0.76700848
87.593163 77.723068 -0.76226807
77.904274 72.087486 0
88.774368 78.410126 0.80043149
75.892784 70.936737 -0.76729649
87.531677 77.725388 -0.76081693
77.912476 72.114769 0
91.935043 80.293747 0.90318471
75.879936 70.948494 -0.76700848
87.479195 77.732819 -0.75965583
77.916145 72.139458 0
91.866005 80.298637 0.90158856
75.884903 70.970688 -0.76787251
87.408791 77.72963 -0.75791413
77.883835 72.143097 0
91.796974 80.303375 0.89999187
75.885399 70.990295 -0.76844966
87.365311 77.742104 -0.7570436
77.891937 72.170418 0
89.094131 78.758888 0.81305766
75.899002 71.007973 -0.76960284
87.307747 77.727203 -0.75544691
77.882515 72.17617 0
88.59713 78.486588 0.79723817
75.899429 71.027603 -0.77017885
87.232979 77.721008 -0.75356025
77.899521 72.208824 0
88.311134 78.35775 0.78853035
64 64 -0
75.868675 71.028801 -0.76873767
87.135895 77.701408 -0.75094801
77.898544 72.230911 0
88.190933 78.32621 0.78519255
75.837936 71.02993 -0.76729649
87.012085 77.665665 -0.74746466
77.893059 72.250359 0
88.088707 78.305016 0.78243476
77.891617 72.272224 -0.90105641
86.928589 77.653587 -0.74528801
77.878616 72.264481 0
88.022293 78.304871 0.78083867
77.85054 72.270447 -0.89903921
86.8853 77.665291 -0.74441689
77.873077 72.283905 0
87.946991 78.299248 0.778952
64 64 -0
77.849403 72.29248 -0.89961523
86.83757 77.674248 -0.74340135
77.876465 72.308685 0
87.880646 78.298805 0.77735531
77.852676 72.3172 -0.90048039
86.780914 77.67775 -0.74209464
77.866409 72.325447 0
87.809891 78.295547 0.77561367
77.842621 72.333939 -0.90048039
86.715408 77.675789 -0.74049854
77.887566 72.360992 0
87.73027 78.286789 0.77358198
77.836967 72.353325 -0.9007684
86.649925 77.673683 -0.73890185
77.895271 72.388527 0
87.672958 78.291283 0.77227587
77.835724 72.375404 -0.90134555
86.60228 77.682205 -0.73788631
77.871765 72.397224 0
87.584541 78.27681 0.76995361
77.834427 72.397476 -0.90192157
86.523529 77.671753 -0.73585409
77.892761 72.432884 0
87.52729 78.281036 0.76864749
77.833115 72.419571 -0.90249872
86.458176 77.669243 -0.73425794
77.864777 72.438843 0
87.456749 78.277023 0.76690584
77.822929 72.436279 -0.90249872
86.39727 77.669289 -0.73280627
77.867882 72.463715 0
87.37738 78.267464 0.76487416
77.812729 72.452972 -0.90249872
86.327545 77.663788 -0.73106462
77.862099 72.483192 0
87.306931 78.263145 0.76313245
77.802505 72.469658 -0.90249872
86.288879 77.67717 -0.73033905
77.860703 72.505371 0
87.223236 78.250526 0.76095527
77.809883 72.497177 -0.90365189
86.201515 77.660515 -0.72801679
77.88588 72.543938 0
87.175034 78.259521 0.75993967
77.812798 72.521996 -0.90451592
86.171738 77.679153 -0.7275818
77.857826 72.549774 0
87.193169 78.309341 0.76110083
77.811302 72.544128 -0.90509307
86.088898 77.664925 -0.72540456
77.829781 72.555557 0
87.268669 78.394768 0.76414859
77.800964 72.560806 -0.90509307
77.80999 72.566406 -0.45386299
77.837128 72.583237 0
87.600113 78.639267 0.77561367
77.794998 72.580208 -0.90538108
77.781975 72.572113 -0.45328242
77.817917 72.59446 0
87.811874 78.810501 0.78316087
77.771454 72.588654 -0.90451592
85.906937 77.662407 -0.72105068
77.851677 72.638687 0
87.771904 78.825508 0.78243476
64 64 -0
77.761063 72.605286 -0.90451592
85.863983 77.67234 -0.72018009
77.83239 72.649895 0
87.714325 78.829422 0.78112864
77.790092 72.646637 -0.90711027
77.83886 72.677216 -0.45618466
77.826355 72.669373 0
87.665573 78.838745 0.7801131
77.83744 72.687981 -0.91056979
77.794006 72.660706 -0.45487854
77.83432 72.68602 0
87.616982 78.828163 0.77880645
77.85321 72.721237 -0.91230011
77.779137 72.674599 -0.45473355
77.850258 72.719376 0
87.541878 78.820702 0.77691978
77.873268 72.757286 -0.91431731
77.790611 72.705109 -0.45545912
77.839706 72.736107 0
87.484406 78.824173 0.77561367
77.888908 72.790649 -0.91604763
77.775696 72.718994 -0.4553141
77.859917 72.772301 0
87.409393 78.816406 0.77372694
77.887009 72.812958 -0.91662365
85.447945 77.611282 -0.70944005
77.836136 72.780678 0
87.34761 78.816841 0.77227587
77.885086 72.835297 -0.9172008
85.396408 77.614868 -0.70827895
77.843079 72.808571 0
87.281448 78.814346 0.77067918
77.8526 72.838158 -0.91575962
85.30986 77.595993 -0.70595729
77.845581 72.833679 0
87.215355 78.811729 0.76908308
77.828827 72.846519 -0.91489446
85.262764 77.602127 -0.70494115
77.804214 72.83078 0
87.166794 78.820168 0.76806694
77.835548 72.874397 -0.91604763
85.224442 77.613785 -0.70421559
77.832962 72.872742 0
87.100746 78.817276 0.76647025
77.840141 72.924622 -0.91777682
85.130325 77.625603 -0.70218337
77.793983 72.894859 0
86.94696 78.797028 0.7625519
77.811966 72.930099 -0.91662365
85.009125 77.583412 -0.69870061
77.813828 72.931305 0
86.536316 78.570816 0.7494902
77.814194 72.955231 -0.91748881
84.970901 77.594658 -0.69797504
77.803024 72.94799 0
85.868958 78.176834 0.7278651
77.807693 72.974731 -0.91777682
84.902168 77.585999 -0.69623333
77.809662 72.976006 0
85.782112 78.157944 0.72554344
77.809845 72.999886 -0.91864198
84.850906 77.588547 -0.69507223
77.816231 73.004044 0
85.717087 78.153038 0.72394675
77.79464 73.013741 -0.91835397
84.795319 77.58815 -0.69376612
77.805344 73.020729 0
85.656479 78.150848 0.72249568
77.783737 73.030396 -0.91835397
84.757141 77.599014 -0.69304001
77.807495 73.045967 0
85.600243 78.151375 0.72118956
77.790108 73.058411 -0.91950715
84.701607 77.598412 -0.6917339
77.800903 73.065498 0
85.548378 78.15464 0.7200284
77.779152 73.075066 -0.91950715
84.641769 77.594833 -0.69028276
77.78994 73.082169 0
85.496536 78.157799 0.7188673
77.755226 73.083153 -0.91864198
84.564621 77.579681 -0.68825114
77.791985 73.10743 0
85.405701 78.135086 0.71640009
77.757179 73.108337 -0.91950715
84.470184 77.552872 -0.68563831
77.789658 73.129837 0
85.345261 78.13224 0.71494842
77.747353 73.113777 -0.919218
84.43602 77.548019 -0.68476778
77.775459 73.132416 0
85.302063 78.122162 0.71378732
77.740654 73.133255 -0.91950715
84.393677 77.555443 -0.6838972
77.790428 73.166344 0
85.220078 78.104752 0.71161062
77.725288 73.146973 -0.919218
84.329704 77.54837 -0.68230051
77.796654 73.194534 0
85.168427 78.107323 0.71044952
77.714226 73.163551 -0.919218
84.274429 77.546944 -0.68099439
77.789871 73.214096 0
85.073593 78.080925 0.70783728
77.698853 73.177238 -0.91892999
84.232132 77.55407 -0.68012327
77.783051 73.23365 0
85.000443 78.068779 0.70595062
77.734993 73.225517 -0.9221015
84.163986 77.543747 -0.67838216
77.767563 73.247398 0
84.901459 78.039085 0.70319283
77.758163 73.265221 -0.92440784
84.113129 77.544876 -0.67722106
77.795235 73.290192 0
84.867233 78.052719 0.70261222
77.776955 73.302094 -0.92642504
84.083817 77.56044 -0.67678553
77.753799 73.286461 0
84.824402 78.060478 0.7017417
77.795692 73.339035 -0.92844337
84.002861 77.541 -0.67460829
77.76844 73.320587 0
84.772964 78.062325 0.7005806
77.805794 73.370224 -0.92988455
83.960693 77.547653 -0.6737377
77.791603 73.360588 0
84.738762 78.075737 0.69999999
77.794464 73.386894 -0.92988455
83.909943 77.54837 -0.67257661
77.745872 73.353828 0
84.700256 78.086174 0.69927448
77.787384 73.406471 -0.93017256
83.837753 77.534348 -0.67068994
77.781845 73.402695 0
84.640289 78.081879 0.69782281
77.797363 73.437729 -0.93161488
83.752747 77.51136 -0.66836768
77.748993 73.404648 0
84.584656 78.080406 0.69651669
77.773148 73.445618 -0.93074971
83.684982 77.499947 -0.66662604
77.759079 73.435974 0
84.53334 78.081757 0.69535553
77.778778 73.473976 -0.93190289
83.647247 77.509003 -0.66590047
77.756256 73.458496 0
84.464943 78.071236 0.69361442
77.750282 73.478874 -0.93074971
83.60524 77.515045 -0.66502988
77.783379 73.501694 0
84.396576 78.060555 0.69187278
77.777115 73.52195 -0.93334407
83.558968 77.518036 -0.6640138
77.780449 73.524254 0
84.341103 78.058601 0.69056666
77.774094 73.544479 -0.93392009
83.508446 77.517982 -0.6628527
77.768929 73.540894 0
84.294189 78.062447 0.68955052
77.771057 73.567024 -0.93449724
83.45369 77.514862 -0.66154659
77.80014 73.587227 0
84.225967 78.051376 0.68780887
77.772224 73.592529 -0.9353624
83.398972 77.511627 -0.66024047
77.822716 73.627693 0
84.166344 78.046112 0.68635774
77.76062 73.609161 -0.9353624
83.352798 77.514221 -0.65922433
77.781197 73.623528 0
84.115265 78.046661 0.68519664
77.749001 73.625778 -0.9353624
83.298149 77.51078 -0.65791821
77.782356 73.649132 0
84.064224 78.047112 0.68403554
77.741592 73.645355 -0.93565041
83.264793 77.522141 -0.65733767
77.749374 73.650818 0
84.02597 78.056419 0.68330997
77.744217 73.659599 -0.93622643
83.218353 77.506889 -0.65603155
77.752068 73.665115 0
83.97921 78.041626 0.68200386
77.757919 73.694084 -0.93795675
83.142555 77.488197 -0.65399987
77.770164 73.702713 0
83.966476 78.068748 0.68214881
77.750412 73.713684 -0.93824476
83.066826 77.469345 -0.65196818
77.720161 73.692307 0
88.686203 81.439026 0.84411615
77.73867 73.730286 -0.93824476
83.020844 77.471344 -0.6509521
77.79763 73.772049 0
88.643906 81.453827 0.84339058
77.718475 73.740898 -0.93766874
82.98761 77.482285 -0.65037149
77.777336 73.782692 0
88.60585 81.471558 0.84281003
77.723534 73.769455 -0.93882078
82.937431 77.481102 -0.64921039
77.757019 73.793289 0
88.542374 81.47113 0.84135836
77.703308 73.780029 -0.93824476
82.891518 77.482841 -0.64819431
77.766365 73.825035 0
88.453583 81.452484 0.83903664
82.85408 77.49054 -0.64746875
77.754486 73.84166 0
88.402893 81.460846 0.83802056
82.80822 77.492119 -0.64645314
77.759499 73.870407 0
88.339554 81.46003 0.83656943
82.749702 77.484482 -0.64500147
77.751785 73.89006 0
84.453941 78.710144 0.70362836
77.714615 73.888489 -0.94228029
82.703903 77.485863 -0.64398593
77.760933 73.92189 0
84.44458 78.740921 0.70391834
77.711044 73.911125 -0.94285744
82.674957 77.499313 -0.6435504
77.778465 73.959854 0
84.397278 78.744308 0.70290279
77.690674 73.921608 -0.94228029
82.650208 77.51577 -0.64325982
77.75798 73.970383 0
84.366821 78.759796 0.70246726
77.682877 73.941193 -0.94256943
77.698181 73.952316 -0.4728753
77.766975 74.002296 0
84.332153 78.772179 0.70188671
77.637405 73.93335 -0.94026309
77.707146 73.984154 -0.47360083
77.754883 74.018921 0
84.297485 78.784492 0.7013061
77.674095 73.98539 -0.4728753
77.738564 74.032471 0
84.220856 78.766106 0.69927448
82.349854 77.433846 -0.63513255
77.713829 74.039833 0
84.156876 78.75676 0.69767779
82.316849 77.44371 -0.634552
77.684906 74.044083 0
84.101326 78.753433 0.69637167
82.288033 77.456589 -0.63411647
82.376366 77.521591 0
84.054176 78.756142 0.69535553
77.560493 74.003281 -0.93910992
82.238319 77.45401 -0.63295591
82.37677 77.556145 0
84.023804 78.771118 0.69492054
77.535912 74.010422 -0.93824476
82.217857 77.472939 -0.63281035
82.314339 77.544289 0
83.972511 78.770584 0.69375944
77.507187 74.01445 -0.93709159
82.201569 77.494942 -0.63281035
82.272881 77.547813 0
83.954651 78.794708 0.69375944
77.486778 74.024597 -0.93651557
77.551613 74.072784 -0.47156918
82.227249 77.548149 0
87.377579 81.376335 0.81349325
77.541008 74.090332 -0.94112712
77.556084 74.101562 -0.47214916
82.152443 77.526627 0
87.319069 81.376625 0.81218714
77.559792 74.117073 -0.94285744
82.027443 77.450424 -0.62816644
77.58474 74.135689 0
87.283569 81.372063 0.81131601
77.572403 74.152039 -0.94458663
81.994537 77.459747 -0.62758589
77.539139 74.127151 0
87.20015 81.3535 0.80913931
77.589104 74.190155 -0.94660497
81.932518 77.447182 -0.6259892
77.506081 74.127899 0
87.166687 81.372162 0.80870378
64 64 -0
81.874725 77.437614 -0.62453806
77.514626 74.159843 0
87.091675 81.359543 0.80681711
77.622269 74.266548 -0.9506405
64 64 -0
77.602104 74.25135 0
87.083138 81.39682 0.80725265
77.580917 74.286942 -0.94948733
81.726471 77.427017 -0.62105471
77.618774 74.315613 0
87.020325 81.436867 0.80652708
77.572601 74.306473 -0.94977534
81.69368 77.435852 -0.62047416
77.573151 74.306892 0
86.999237 81.464676 0.80652708
77.588951 74.344803 -0.95179367
81.644348 77.432037 -0.61931306
77.560684 74.323288 0
86.957428 81.4767 0.80580097
77.588783 74.370628 -0.95265883
81.599205 77.43129 -0.61829752
77.622673 74.3965 0
86.994141 81.548576 0.80783319
77.592674 74.399612 -0.953812
81.549942 77.427277 -0.61713642
77.589439 74.397141 0
86.977043 81.579498 0.80797821
77.575996 74.412888 -0.95352399
81.496597 77.420013 -0.6158303
77.614029 74.442062 0
86.980522 81.626221 0.80884874
77.567505 74.432434 -0.953812
81.435043 77.406296 -0.61423361
77.597267 74.455322 0
86.963333 81.65715 0.80899435
77.583557 74.470917 -0.9558292
81.390015 77.405136 -0.61321747
77.621735 74.500351 0
86.937859 81.681702 0.80884874
77.587265 74.499977 -0.95698237
81.345032 77.403908 -0.61220193
77.592567 74.504074 0
86.93705 81.725304 0.8095749
77.595024 74.532234 -0.95842469
81.324722 77.421677 -0.61205691
77.612778 74.54599 0
86.956688 81.784828 0.81102598
77.590454 74.554993 -0.95900071
81.275658 77.417099 -0.61089581
77.624687 74.581581 0
86.959801 81.831673 0.81189656
77.589935 74.580948 -0.95986587
81.230728 77.415611 -0.60987967
77.607788 74.594841 0
86.930046 81.853027 0.81160653
77.605675 74.619629 -0.96188307
81.189926 77.417244 -0.60900915
77.57856 74.598465 0
86.883865 81.861526 0.81073546
77.596924 74.639259 -0.96217221
81.140961 77.412384 -0.60784805
77.586235 74.630898 0
86.858177 81.885963 0.81059045
77.606781 74.660233 -0.96332538
81.104218 77.400299 -0.60683191
77.596199 74.651947 0
86.810555 81.870926 0.80928433
77.60202 74.683052 -0.9639014
81.043045 77.385643 -0.60523522
77.599693 74.681221 0
86.752167 81.869591 0.80797821
77.609421 74.715477 -0.96534258
81.006454 77.390152 -0.60450965
77.627663 74.729843 0
86.865295 82.003159 0.81276768
77.604591 74.738327 -0.96591973
80.96579 77.39138 -0.60363913
77.643295 74.768875 0
86.88839 82.066185 0.81436378
77.591606 74.754761 -0.96591973
80.92514 77.392517 -0.602768
77.613945 74.772438 0
86.882843 82.10672 0.81494433
77.590744 74.780807 -0.96678376
80.851952 77.367744 -0.60073632
77.588684 74.779167 0
86.816177 82.098846 0.81334823
77.585815 74.803665 -0.96736091
80.82766 77.381638 -0.60044634
77.604172 74.81826 0
86.635666 82.000259 0.80768824
77.60511 74.845871 -0.96966726
80.795227 77.389 -0.59986579
77.611435 74.850914 0
86.382271 81.842949 0.79941541
77.591995 74.862305 -0.96966726
80.746552 77.383331 -0.59870464
77.602371 74.870598 0
86.648926 82.100327 0.80971986
77.599045 74.89489 -0.97110844
80.710098 77.387314 -0.59797907
77.581116 74.880524 0
86.821701 82.28363 0.81668603
77.581841 74.908073 -0.97082043
80.665543 77.384712 -0.59696299
77.600418 74.922997 0
86.823914 82.330727 0.81755716
77.580727 74.934204 -0.97168446
80.61293 77.375511 -0.59565687
77.611526 74.959 0
86.813881 82.368057 0.81799215
77.587639 74.966858 -0.97312677
80.580582 77.382515 -0.59507632
77.602325 74.978706 0
86.819984 82.418465 0.81900823
77.582413 74.989769 -0.97370279
80.532074 77.376389 -0.59391516
77.613335 75.014786 0
86.846191 82.485252 0.82074994
77.577171 75.012695 -0.97427994
80.48764 77.373436 -0.59289908
77.608093 75.037781 0
86.831902 82.519379 0.82103992
77.571869 75.035614 -0.97485596
80.451317 77.376961 -0.59217352
77.610901 75.067352 0
86.841766 82.573189 0.82220101
77.566551 75.058548 -0.97543311
80.394867 77.363998 -0.59072238
77.601547 75.087074 0
86.835419 82.613907 0.82278162
77.609253 75.12075 -0.97946864
80.342491 77.354202 -0.58941627
77.600235 75.11338 0
86.837067 82.661224 0.82365268
77.615814 75.153572 -0.98090982
80.302216 77.354179 -0.58854514
77.631096 75.166092 0
86.830566 82.701965 0.8242327
77.618317 75.183151 -0.982063
80.261978 77.35408 -0.58767462
77.609543 75.175941 0
89.297913 84.774246 0.91421473
77.61277 75.206161 -0.98263901
80.221748 77.353897 -0.5868035
77.620148 75.212234 0
89.252731 84.788292 0.91348916
77.611198 75.232483 -0.98350418
80.165527 77.340416 -0.58535236
77.60659 75.228683 0
89.167465 84.769165 0.91131192
77.621536 75.268715 -0.9852345
80.097343 77.316879 -0.5834657
77.609055 75.258385 0
89.118332 84.779694 0.9104414
77.599937 75.278557 -0.98465735
80.045242 77.306465 -0.58215958
77.659531 75.327972 0
89.085205 84.803391 0.91015083
77.593124 75.286774 -0.98465735
79.96524 77.256409 -0.57954735
77.608643 75.299652 0
85.038589 81.468964 0.76371306
77.607307 75.326355 -0.98667568
79.945206 77.272354 -0.57940179
77.638977 75.352707 0
85.009476 81.487717 0.76342249
77.553886 75.309639 -0.98379219
77.614944 75.36058 -0.49522537
77.609261 75.355843 0
84.980354 81.506439 0.76313245
77.571953 75.352562 -0.98609853
77.593239 75.370361 -0.49493536
77.63945 75.409019 0
85.003021 81.568443 0.76472861
77.593903 75.398865 -0.98869288
77.587448 75.393456 -0.49522537
77.645592 75.442207 0
64 64 0
77.61972 75.44857 -0.99157637
77.577644 75.4132 -0.49537036
77.615814 75.44529 0
64 64 0
77.63356 75.488342 -0.99359357
77.551933 75.419563 -0.49493536
77.629845 75.485214 0
84.959084 81.661209 0.76545471
77.627579 75.51149 -0.99417073
79.574646 77.156219 -0.56938785
77.619926 75.505035 0
84.925812 81.67646 0.76501918
77.617599 75.531288 -0.99445873
79.530975 77.15152 -0.56837177
77.625877 75.5383 0
84.880653 81.681587 0.76414859
77.615494 75.557785 -0.9953239
79.507156 77.163559 -0.56808174
77.627792 75.568222 0
84.839447 81.68998 0.76342249
77.605453 75.577576 -0.99561191
79.443748 77.141869 -0.56634009
77.637604 75.604927 0
84.734947 81.644424 0.76037467
77.559967 75.567146 -0.99330556
79.447617 77.177383 -0.56706566
77.639404 75.634911 0
84.54361 81.524445 0.75413412
79.455391 77.216309 -0.56793678
77.617416 75.644608 0
84.301254 81.36013 0.74600685
79.474915 77.265411 -0.56924289
77.623093 75.677994 0
84.181625 81.300095 0.74237853
79.466751 77.290871 -0.56953287
77.640556 75.721581 0
84.129173 81.297371 0.74121737
79.434937 77.295982 -0.56895232
77.626381 75.738052 0
84.088577 81.304726 0.74049187
64 64 -0
77.643707 75.781723 0
84.059792 81.322205 0.74020183
64 64 -0
77.625526 75.7948 0
84.019188 81.329407 0.73947573
64 64 -0
77.638786 75.835136 0
83.990395 81.346779 0.73918575
64 64 -0
77.628403 75.855019 0
83.949814 81.353874 0.73846018
64 64 -0
77.629761 75.885162 0
83.909256 81.360886 0.73773462
79.25206 77.332291 -0.56575954
77.627151 75.911903 0
83.872612 81.371254 0.73715407
79.212494 77.33017 -0.56488895
77.651886 75.962662 0
83.828148 81.374695 0.73628294
79.196617 77.332497 -0.56459838
77.644653 75.970901 0
83.813744 81.383247 0.73613793
79.153183 77.32682 -0.5635823
77.649719 76.004562 0
83.765404 81.383148 0.73512185
79.046951 77.298019 -0.56082505
77.640167 76.054749 0
83.59874 81.320747 0.73047793
79.023102 77.309303 -0.56053507
77.625587 76.07122 0
83.492218 81.268593 0.72728455
78.991463 77.313644 -0.55995452
77.646019 76.118774 0
83.381973 81.212776 0.72394675
78.955948 77.314461 -0.55922836
77.631363 76.135254 0
83.330109 81.208534 0.72278565
78.916595 77.311768 -0.55835783
77.636124 76.16906 0
83.278282 81.204201 0.72162455
78.877266 77.308998 -0.55748725
77.648552 76.209808 0
83.241989 81.213623 0.721044
78.834084 77.302673 -0.55647117
77.660919 76.250618 0
83.190216 81.209099 0.71988285
78.794807 77.299736 -0.55560005
77.657722 76.277557 0
83.142372 81.207962 0.7188673
78.767151 77.307175 -0.55516505
77.639 76.290558 0
83.094536 81.206726 0.71785122
78.716354 77.293663 -0.55385894
77.639587 76.320984 0
83.019745 81.181023 0.71581954
78.684875 77.297478 -0.55327839
77.647842 76.358429 0
82.995125 81.200508 0.71567452
78.626465 77.276787 -0.5516817
77.632904 76.374908 0
82.939682 81.192001 0.71436787
78.541229 77.231506 -0.54906946
77.641029 76.412384 0
82.895844 81.193893 0.71349728
78.406219 77.140503 -0.54457057
77.656784 76.456917 0
82.859695 81.202705 0.71291673
78.183228 76.968536 -0.53673333
77.637886 76.469902 0
82.800552 81.190414 0.7114656
78.06411 76.890854 -0.53281438
77.638161 76.500443 0
82.760612 81.195572 0.71074003
78.002609 76.865662 -0.53107327
77.630707 76.523949 0
82.732162 81.211182 0.71044952
77.964111 76.861435 -0.53020215
77.646187 76.568619 0
82.719002 81.240852 0.71074003
77.933289 76.864197 -0.5296216
77.627174 76.581566 0
82.701973 81.266983 0.71088505
77.910118 76.87397 -0.52933162
77.638702 76.62278 0
82.681091 81.289566 0.71088505
77.822159 76.823608 -0.52657384
77.653954 76.667557 0
82.663994 81.315659 0.71103007
77.715416 76.740005 -0.52280045
77.634865 76.665184 0
82.64592 81.319862 0.71074003
77.661987 76.721161 -0.52134937
77.661446 76.720657 0
82.651596 81.367157 0.71175563
77.646606 76.737663 -0.52134937
77.646065 76.737152 0
82.64579 81.40387 0.71233618
77.684326 76.803841 -0.52338105
77.645866 76.76786 0
82.636139 81.437042 0.71277171
77.680222 76.831039 -0.52381659
77.660797 76.81282 0
82.622627 81.466652 0.71306175
77.676056 76.858231 -0.52425158
77.683235 76.864983 0
82.620438 81.506935 0.71378732
64 64 -0
64 64 0
82.625748 81.554375 0.7148034
77.60717 76.85556 -0.52280045
64 64 0
82.604523 81.576874 0.7148034
77.572769 76.854126 -0.52207494
64 64 0
82.602135 81.617203 0.71552896
77.549683 76.86335 -0.52178437
64 64 0
82.610985 81.668289 0.71669006
77.522842 76.86898 -0.52134937
64 64 0
82.612213 81.712265 0.71756119
77.492241 76.870956 -0.52076882
64 64 0
82.609604 81.752678 0.71828675
77.457901 76.869293 -0.52004325
77.532555 76.940681 0
82.610664 81.796692 0.71915734
77.431084 76.874756 -0.51960766
77.501877 76.942612 0
82.611664 81.840752 0.7200284
77.385544 76.862167 -0.51844656
77.471214 76.944496 0
82.601326 81.874016 0.72046345
77.358757 76.867516 -0.51801103
77.425575 76.931877 0
82.598434 81.91452 0.72118956
77.324509 76.865601 -0.51728547
77.39122 76.930016 0
82.584251 81.944191 0.72147954
77.301491 76.874474 -0.51699543
77.353157 76.924469 0
82.588699 81.991936 0.72249568
77.278458 76.883286 -0.51670492
77.330048 76.933342 0
82.589317 82.036087 0.7233662
77.262886 76.899323 -0.51670492
77.299484 76.934921 0
82.589867 82.080284 0.72423732
77.262177 76.929855 -0.51728547
77.268936 76.936447 0
82.579163 82.113609 0.72467232
77.279984 76.978554 -0.51859158
77.268188 76.967026 0
82.583282 82.161476 0.72568846
77.268005 76.998222 -0.51873654
77.271095 77.001259 0
82.576172 82.198463 0.72626901
77.293549 77.039001 -0.52004325
77.296677 77.042068 0
82.591133 82.235146 0.72728455
77.285187 77.062332 -0.52033323
77.299484 77.076385 0
82.595032 82.283104 0.72830069
77.291595 77.100258 -0.52120382
77.3022 77.11071 0
82.591431 82.323792 0.72902626
77.29425 77.134583 -0.52192992
77.293747 77.134079 0
82.580368 82.357208 0.72946179
77.274673 77.146965 -0.52178437
77.292664 77.164787 0
82.561859 82.383301 0.72960681
77.280914 77.184975 -0.52265549
77.291519 77.195511 0
82.56546 82.431351 0.73062289
77.276009 77.211998 -0.52309048
77.282951 77.21891 0
82.557907 82.46843 0.7312035
77.263725 77.231712 -0.52323604
77.28907 77.256996 0
82.528214 82.48349 0.73091292
77.255074 77.255074 -0.52352601
77.291443 77.291443 0
82.491165 82.491165 0.73033237
77.257393 77.289467 -0.52425158
77.275375 77.307495 0
77.484779 77.517403 0.53324324
77.237663 77.301796 -0.52410656
77.259285 77.323524 0
77.46843 77.533684 0.53324324
77.232567 77.32885 -0.52454215
77.261505 77.358002 0
77.422775 77.520447 0.53208214
82.434654 82.613724 -0.73164517
77.238037 77.366623 0
77.446663 77.577278 0.53367883
82.423111 82.647079 -0.7320807
77.251144 77.412231 0
77.386414 77.549149 0.53193712
82.396927 82.665627 -0.73193574
82.532539 82.803223 0
83.443687 83.727676 0.77358198
77.463104 77.692795 -0.53629774
82.513451 82.829308 0
83.43441 83.765976 0.77416253
82.464561 82.825027 -0.73643464
77.417465 77.679405 0
77.457298 77.720016 0.53672659
82.430893 82.836182 -0.73599905
77.390007 77.684448 0
77.447975 77.74369 0.53701663
82.411766 82.862167 -0.7361446
82.583221 83.037827 0
83.06134 83.527641 0.76211637
82.398712 82.940155 -0.73745072
82.54805 83.09388 0
64 64 0
82.390282 82.977295 -0.73803133
82.521332 83.112534 0
64 64 0
82.407059 83.040596 -0.73962742
82.498222 83.134895 0
83.017319 83.67186 0.76414859
82.412903 83.092751 -0.74078852
82.478714 83.160988 0
83.065674 83.769623 0.7670508
82.389816 83.114983 -0.74078852
77.465042 77.996002 0
83.160667 83.916229 0.77184027
82.374664 83.122345 -0.7406435
77.449364 77.996628 0
83.238647 84.021484 0.77546865
82.401886 83.197052 -0.74267519
77.454056 78.035416 0
83.232422 84.063461 0.77619421
82.403824 83.245567 -0.74369133
77.447868 78.062943 0
83.147102 84.022842 0.77372694
82.38414 83.271545 -0.74383634
77.452431 78.101784 0
83.069099 83.989571 0.7715503
82.371597 83.305046 -0.74427187
82.512421 83.453026 0
83.02343 83.989998 0.77067918
82.362564 83.3423 -0.74485242
82.474564 83.460281 0
82.981377 83.994133 0.76995361
82.382065 83.40976 -0.74659413
82.486832 83.520386 0
82.982224 84.043472 0.77096975
82.369293 83.443275 -0.74702913
82.513275 83.595673 0
83.015076 84.126816 0.77329141
82.36718 83.488159 -0.74790025
82.489578 83.618027 0
82.972923 84.130875 0.77256584
82.368538 83.536842 -0.74891633
82.483688 83.659309 0
82.902313 84.104568 0.77067918
82.376915 83.593132 -0.75022244
82.481293 83.704414 0
88.49144 90.112328 0.99984282
82.353226 83.615326 -0.75022244
82.503693 83.776138 0
88.466965 90.149483 1.0001328
82.340141 83.648872 -0.75065744
82.483337 83.802284 0
83.066887 84.427483 0.78040308
76.223412 77.127426 -0.99964744
82.358879 83.71666 -0.75239915
82.459396 83.8246 0
83.013863 84.420074 0.77924198
76.200508 77.134613 -0.99907142
82.356277 83.761681 -0.75327027
82.481476 83.896469 0
88.089073 89.933403 0.98852223
76.156502 77.118988 -0.99676508
82.328842 83.780022 -0.75312471
82.489258 83.95314 0
88.054192 89.958687 0.98837721
76.137131 77.129875 -0.99647707
82.34726 83.847946 -0.75486636
82.458069 83.967834 0
88.015747 89.980087 0.9880867
76.107231 77.129318 -0.9953239
82.354965 83.904488 -0.75617248
82.465683 84.024551 0
83.006538 84.611061 0.78301531
76.066833 77.117287 -0.99330556
82.313309 83.907532 -0.75544691
82.480225 84.088974 0
82.985146 84.637848 0.78316087
76.033493 77.112801 -0.99186438
82.331413 83.975594 -0.75718862
82.459473 84.115135 0
82.960197 84.660774 0.78316087
76.007156 77.115883 -0.99099922
82.338837 84.032219 -0.75849473
82.421097 84.12207 0
82.96328 84.714317 0.78432143
75.984329 77.122749 -0.9904232
82.332138 84.073547 -0.75922024
82.459938 84.213486 0
82.96627 84.767914 0.78548259
75.965942 77.118515 -0.98955804
82.327019 84.092308 -0.75951082
82.465256 84.243866 0
82.946724 84.771698 0.78519255
75.936157 77.117661 -0.98840487
82.323708 84.137497 -0.7603814
82.430275 84.254608 0
82.897125 84.76767 0.78417647
75.89595 77.105255 -0.98638654
82.330795 84.194244 -0.76168752
82.447769 84.323105 0
87.576752 89.973495 0.97966945
75.873169 77.111961 -0.98581052
82.34127 84.254913 -0.76313919
82.461632 84.387833 0
87.548843 90.005814 0.97981441
75.843452 77.110947 -0.98465735
82.313293 84.273193 -0.76299363
82.457909 84.433289 0
82.995895 85.028847 0.79143316
75.817207 77.113708 -0.98379219
82.309662 84.318474 -0.76386476
82.401848 84.420776 0
82.963516 85.044067 0.79114312
75.787521 77.112595 -0.98263901
82.288567 84.344444 -0.76400971
82.387604 84.45462 0
82.945023 85.074692 0.79143316
75.761314 77.11528 -0.98177499
82.274384 84.378143 -0.7644453
77.470291 79.020996 0
82.888321 85.062744 0.79012704
75.728218 77.110214 -0.98033381
82.332909 84.493164 -0.76792866
77.497238 79.087692 0
82.828209 85.046829 0.7886759
75.708916 77.120506 -0.98004466
82.332344 84.542435 -0.7689442
77.506729 79.135056 0
77.609169 79.249847 0.57083231
75.668983 77.107605 -0.97802746
82.331703 84.591743 -0.76996028
82.440796 84.714287 0
83.330147 85.71328 0.81189656
75.632523 77.09848 -0.97629714
82.310257 84.61776 -0.7701053
82.426125 84.748238 0
83.314255 85.748283 0.81233209
75.609833 77.10479 -0.97572112
82.29567 84.651543 -0.77054089
64 64 0
83.267288 85.748276 0.81146157
75.587128 77.111053 -0.97514397
82.274139 84.677521 -0.77068585
82.382835 84.800507 0
83.158401 85.678078 0.80797821
75.557594 77.10952 -0.9739908
82.262894 84.715179 -0.7712664
82.36113 84.826607 0
64 64 0
75.53492 77.115715 -0.97341478
82.234421 84.733337 -0.77112144
82.335945 84.848778 0
64 64 0
75.512238 77.121857 -0.97283763
77.356491 79.223969 -0.56561452
82.379379 84.949158 0
82.922043 85.567688 0.80130208
75.475937 77.112411 -0.97110844
77.320976 79.220551 -0.56488895
77.308372 79.206154 0
82.865166 85.555344 0.79999596
75.439682 77.10289 -0.96937925
77.329918 79.267952 -0.56605011
77.324226 79.261436 0
82.798096 85.531151 0.79825431
75.417038 77.108902 -0.96880209
77.304626 79.276199 -0.56575954
77.316025 79.289291 0
77.396622 79.381836 0.56967175
75.384232 77.103165 -0.96736091
82.309914 85.07457 -0.77968425
77.290718 79.297516 0
77.360977 79.378387 0.56894565
75.371773 77.120811 -0.96764892
82.287834 85.100601 -0.77982926
82.426346 85.260414 0
77.342384 79.394516 0.56894565
75.335617 77.111076 -0.96591973
82.275925 85.138412 -0.78040981
82.404045 85.286598 0
82.911331 85.873337 0.80754262
75.309631 77.113007 -0.96505457
82.240181 85.148666 -0.77997422
64 64 0
82.925613 85.943398 0.80928433
75.284828 77.100243 -0.96361339
82.220627 85.151817 -0.77968425
64 64 0
82.912354 85.954826 0.80928433
75.262238 77.106018 -0.96303624
82.306808 85.303864 -0.78447312
82.346436 85.349983 0
82.875648 85.965836 0.80884874
75.243034 77.115692 -0.96274823
82.304733 85.353592 -0.78548926
82.310471 85.360291 0
82.852486 85.992584 0.80899435
75.203644 77.101738 -0.9607299
82.299187 85.399399 -0.78636038
82.426704 85.548523 0
82.829269 86.019295 0.80913931
75.181091 77.107407 -0.96015388
64 64 -0
82.390533 85.558907 0
77.345856 79.645119 0.57431567
75.15519 77.109085 -0.95928872
64 64 -0
82.398193 85.620743 0
77.326942 79.661232 0.57431567
75.129303 77.110733 -0.95842469
82.24839 85.497276 -0.78752095
64 64 0
77.301285 79.669411 0.57402563
75.103424 77.11232 -0.95755953
82.229126 85.527252 -0.78781152
64 64 0
77.329353 79.740982 0.57605731
75.077553 77.113869 -0.95669436
82.236626 85.588959 -0.78926259
82.343216 85.715134 0
77.300262 79.745163 0.57562178
75.055038 77.119339 -0.95611835
82.257416 85.666618 -0.79129481
82.323662 85.745232 0
77.301331 79.78508 0.57649291
75.032516 77.124763 -0.95554119
82.254623 85.716499 -0.79231042
82.317474 85.791275 0
77.302299 79.824997 0.57736343
75.013329 77.134125 -0.95525318
82.24173 85.754471 -0.79289097
82.354668 85.88916 0
77.29319 79.853012 0.57779902
74.994812 77.17659 -0.95640635
82.199097 85.810463 -0.7933265
82.321732 85.957436 0
82.611778 86.305038 0.81131601
75.011971 77.229614 -0.95928872
82.209305 85.876373 -0.79492319
82.308502 85.99556 0
82.57151 86.311531 0.81073546
74.982758 77.22699 -0.95813555
82.249237 85.978317 -0.7978254
82.301857 86.041687 0
64 64 0
74.986572 77.26416 -0.95986587
82.225983 86.004349 -0.79797041
82.298454 86.091843 0
64 64 0
74.973831 77.28141 -0.96015388
82.212624 86.042374 -0.79855096
82.334732 86.19017 0
82.444176 86.322624 0.80870378
74.967651 77.306641 -0.96101904
82.185974 86.064369 -0.79855096
82.317841 86.224358 0
82.38414 86.304802 0.80725265
74.951561 77.319885 -0.96101904
82.179108 86.11042 -0.79942209
82.297577 86.254509 0
82.353882 86.322983 0.80710763
74.958412 77.361092 -0.96303624
82.208405 86.200676 -0.8018893
82.283875 86.292694 0
82.330185 86.349159 0.80725265
74.952087 77.386337 -0.9639014
82.204605 86.250824 -0.80290544
82.270111 86.330887 0
82.322906 86.395416 0.80812323
74.96534 77.435631 -0.96649575
82.197418 86.296951 -0.80377597
82.292488 86.413437 0
82.328705 86.457809 0.8095749
75.001358 77.513054 -0.97110844
82.193428 86.347137 -0.80479211
82.298248 86.475883 0
82.324509 86.508141 0.81059045
75.08783 77.636086 -0.97946864
82.176636 86.35408 -0.80464655
82.291237 86.495018 0
82.337135 86.551468 0.81175154
75.172356 77.77401 -0.98840487
82.185631 86.420425 -0.80624324
82.273872 86.529221 0
82.339333 86.609924 0.81305766
75.139435 77.767395 -0.98696369
82.197754 86.490868 -0.80798489
82.272827 86.583656 0
82.334885 86.660355 0.8140738
75.165024 77.833168 -0.99071121
82.199936 86.549232 -0.80929101
82.281487 86.650276 0
82.333603 86.714844 0.8152349
75.13533 77.830536 -0.98955804
82.172676 86.571205 -0.80929101
82.293274 86.721001 0
82.322433 86.757217 0.81596047
75.118607 77.843979 -0.98955804
82.164909 86.617447 -0.81016159
82.278847 86.759315 0
82.327461 86.819855 0.8174116
75.121284 77.881638 -0.99128836
82.150558 86.655609 -0.81074214
82.270851 86.805756 0
82.312874 86.8582 0.81799215
75.110954 77.903137 -0.99186438
82.149132 86.709999 -0.81190324
82.243286 86.827812 0
82.324173 86.929031 0.8197338
75.094147 77.91655 -0.99186438
82.176743 86.800995 -0.81437045
82.244888 86.886467 0
82.306175 86.963348 0.82016939
75.080544 77.93399 -0.99215239
82.168594 86.847351 -0.81524158
82.252853 86.953308 0
82.301048 87.013916 0.82118493
75.063698 77.947372 -0.99215239
82.14743 86.877426 -0.81553161
82.289795 87.056892 0
82.302307 87.072662 0.82249159
75.021156 77.928276 -0.98984605
82.142349 86.927864 -0.81654769
82.268387 87.087143 0
82.303436 87.131439 0.8237977
75.017143 77.957825 -0.99099922
82.159698 87.006866 -0.81857938
82.240479 87.1092 0
82.288345 87.169853 0.82437825
75.000267 77.971123 -0.99099922
82.154396 87.057381 -0.81959552
82.228638 87.151672 0
82.289268 87.228683 0.82568437
74.999352 78.004745 -0.9924404
82.158615 87.120163 -0.82104659
82.22316 87.202332 0
82.277237 87.271194 0.82640994
74.985619 78.02211 -0.99272954
82.137085 87.150276 -0.82133716
82.233627 87.273506 0
82.25872 87.305534 0.82684553
74.971848 78.039444 -0.99301755
82.115494 87.180359 -0.8216272
82.234337 87.332428 0
82.220947 87.315292 0.82640994
74.961235 78.060844 -0.99359357
82.12262 87.247322 -0.82322383
82.209328 87.358543 0
82.192764 87.337296 0.82640994
74.950592 78.082253 -0.99417073
82.135986 87.322525 -0.8251105
82.171501 87.368195 0
82.148598 87.338745 0.82568437
74.936737 78.099556 -0.99445873
82.152382 87.401901 -0.82714218
82.207054 87.472397 0
82.098083 87.331909 0.82466829
74.932358 78.129128 -0.99561191
82.117737 87.415611 -0.8268522
82.204163 87.527306 0
82.060333 87.341431 0.8242327
