# .PCD v0.7 - Point Cloud Data file format
VERSION 0.7
FIELDS x y z
SIZE 4 4 4
TYPE F F F
COUNT 1 1 1
WIDTH 1707
HEIGHT 1
VIEWPOINT 0 0 0 1 0 0 0
POINTS 1707
DATA ascii
76.086441 76.218597 -0.47998643
77.061592 77.204407 0
76.583298 76.720886 0.49971813
74.219116 74.35585 -0.81082559
76.075317 76.236885 -0.48013142
77.060249 77.235001 0
76.578857 76.747169 0.50015312
74.21386 74.375572 -0.81140274
76.035011 76.225555 -0.47911587
77.0625 77.269318 0
76.545227 76.743851 0.49942759
74.223061 74.410049 -0.81313193
76.012939 76.232666 -0.4788253
77.057404 77.296234 0
76.566223 76.796066 0.50087869
74.221336 74.433479 -0.81399709
75.987251 76.236046 -0.47839031
77.055893 77.326874 0
76.634399 76.896629 0.50421703
74.226799 74.464317 -0.81543827
75.950653 76.22821 -0.47751918
77.061607 77.364967 0
76.774994 77.071693 0.51045763
74.185257 74.447037 -0.81313193
75.924995 76.231491 -0.47708419
77.063614 77.399368 0
76.965973 77.299217 0.51873046
74.194275 74.48159 -0.81486225
75.899338 76.234711 -0.47664863
77.069191 77.437538 0
76.960754 77.326042 0.51916546
74.181602 74.493904 -0.81486225
75.902634 76.267731 -0.4773742
77.049324 77.449593 0
76.77095 77.162674 0.51219928
74.168915 74.506195 -0.81486225
75.898651 76.293304 -0.47780976
77.047546 77.480309 0
76.577934 76.995125 0.50508761
74.213699 74.578018 -0.81947494
75.898224 76.322632 -0.47839031
77.042084 77.507286 0
76.746315 77.200966 0.51248932
74.197311 74.586617 -0.81918579
75.897751 76.351967 -0.47897086
77.047424 77.545532 0
76.989922 77.48584 0.52293879
74.18811 74.602669 -0.81947494
75.890007 76.373825 -0.47926086
77.041855 77.57254 0
77.038437 77.568985 0.52555156
74.18602 74.626167 -0.82033896
75.896622 76.410683 -0.48013142
77.036255 77.599564 0
77.029221 77.592224 0.52584159
74.176758 74.642212 -0.82062811
75.87085 76.413788 -0.47969642
77.037796 77.634109 0
77.030739 77.626732 0.5265671
74.174591 74.665718 -0.82149214
75.855843 76.428123 -0.47969642
77.035683 77.664917 0
77.028618 77.657509 0.52714771
74.161697 74.678009 -0.82149214
77.094673 77.760002 -0.53049272
77.022751 77.684425 0
77.019272 77.680779 0.52743822
74.170166 74.712799 -0.82322246
77.063721 77.760742 -0.52991217
77.02771 77.722809 0
77.017044 77.711578 0.52801877
74.150093 74.71756 -0.82264531
77.050659 77.780289 -0.53005719
77.021866 77.749878 0
77.032631 77.761246 0.52932489
74.164948 74.746246 -0.82437563
77.056618 77.803268 -0.53063774
77.027863 77.772873 0
77.027878 77.772896 0.52946991
74.162598 74.769791 -0.82523966
77.039925 77.819038 -0.53063774
77.029068 77.807526 0
77.025497 77.803741 0.53005046
74.138947 74.770775 -0.82437563
77.062393 77.876396 -0.53223383
77.019501 77.830833 0
77.026611 77.838387 0.53077602
74.140091 74.798103 -0.8255288
77.049187 77.895966 -0.53237939
77.027725 77.873116 0
77.017006 77.861702 0.5310666
74.127037 74.810349 -0.8255288
77.039482 77.919304 -0.53266943
77.018066 77.896439 0
77.014458 77.892593 0.53164715
74.1175 74.826355 -0.82581681
77.054588 77.969223 -0.53397554
77.019043 77.931183 0
77.008301 77.919685 0.53208214
74.129089 74.865044 -0.82783401
77.044792 77.992592 -0.53426605
77.023491 77.969742 0
77.016281 77.962006 0.53309828
74.140617 74.903793 -0.82985234
77.04203 78.023567 -0.5348466
77.020775 78.000717 0
77.013557 77.99295 0.53367883
74.130951 74.91983 -0.83014035
77.02861 78.043121 -0.53499162
77.014473 78.027885 0
77.014305 78.02771 0.5344044
74.131805 74.94725 -0.83129352
76.990448 78.035965 -0.5341205
77.011658 78.058884 0
77.007942 78.054871 0.53483993
74.108047 74.94809 -0.83042949
76.959389 78.036392 -0.53354049
77.008774 78.089874 0
77.005051 78.085846 0.53542048
74.101822 74.967896 -0.83100551
76.924805 78.032913 -0.53281438
77.009377 78.124741 0
76.998573 78.113007 0.53585547
74.088562 74.980095 -0.83100551
76.897301 78.037048 -0.53237939
77.009903 78.159607 0
77.006126 78.155495 0.53687161
74.082268 74.999901 -0.83158153
76.869789 78.04113 -0.53194386
77.003342 78.186829 0
76.99604 78.178871 0.53716218
74.073097 75.04335 -0.83302385
76.804306 78.037636 -0.53063774
76.99707 78.248962 0
76.996758 78.248627 0.53861326
74.070175 75.066986 -0.83388788
76.773346 78.03772 -0.53005719
76.997368 78.28392 0
76.990028 78.275848 0.53904885
74.063759 75.086807 -0.83446503
76.738914 78.033913 -0.52933162
76.990585 78.311165 0
76.983238 78.30307 0.53948385
74.067711 75.118134 -0.83590621
76.704491 78.030022 -0.52860552
76.987259 78.342285 0
76.983398 78.33802 0.54020995
74.078552 75.157166 -0.83792454
76.666634 78.022232 -0.52773494
76.962944 78.35025 0
76.986954 78.376831 0.54108053
74.075439 75.180847 -0.83878857
76.649689 78.037521 -0.52773494
76.956055 78.377502 0
76.98349 78.407951 0.54166108
74.065392 75.196877 -0.83907771
76.608391 78.025742 -0.5267188
76.931702 78.385399 0
76.973015 78.431351 0.54195106
74.058754 75.216721 -0.83965373
76.584503 78.033234 -0.52642882
76.973389 78.466888 0
76.938225 78.427673 0.54122549
74.048531 75.218948 -0.83936572
76.555222 78.017616 -0.52555823
76.978531 78.490234 0
76.926041 78.431625 0.54108053
74.028061 75.223358 -0.83878857
76.524429 78.017273 -0.52497768
76.974884 78.521423 0
76.925903 78.466606 0.5418061
74.017944 75.239342 -0.83907771
76.497101 78.020752 -0.52454215
76.971184 78.552635 0
76.932617 78.509369 0.54282218
74.021545 75.27076 -0.84051889
76.466339 78.020309 -0.5239616
76.960503 78.576073 0
76.921982 78.532745 0.54311222
74.004486 75.278999 -0.84023088
76.432152 78.01593 -0.52323604
76.967056 78.61898 0
76.914757 78.56002 0.54354775
74.001129 75.302689 -0.84109491
76.394539 78.007584 -0.52236491
76.980423 78.669716 0
76.935043 78.618431 0.54514444
73.997734 75.326401 -0.84196007
76.374168 78.018654 -0.5222199
76.962692 78.685394 0
76.920807 78.637939 0.5452894
73.994301 75.350128 -0.84282523
76.329742 78.002396 -0.5210588
76.975891 78.736198 0
76.927155 78.680847 0.54630554
74.001053 75.385506 -0.84455442
76.302521 78.005562 -0.52062327
76.971817 78.767509 0
76.936829 78.727676 0.5474661
73.99752 75.409256 -0.84541959
76.282166 78.01651 -0.52047825
76.964256 78.794922 0
76.901901 78.723755 0.54674053
73.980331 75.417435 -0.84513158
76.254974 78.019615 -0.52004325
76.980621 78.849754 0
76.92173 78.782379 0.54833722
73.956322 75.417786 -0.84426641
76.220932 78.014816 -0.51931715
76.979782 78.885056 0
76.924347 78.82148 0.54920775
73.9561 75.445419 -0.84541959
76.200584 78.025658 -0.51917213
76.965202 78.904648 0
76.913254 78.844933 0.54949832
73.928703 75.441818 -0.84426641
76.166603 78.020767 -0.51844656
76.971054 78.947815 0
76.905518 78.872292 0.54993331
73.941956 75.485092 -0.84657276
76.119041 78.000099 -0.51714045
76.966606 78.979218 0
76.914749 78.919304 0.55109447
73.944969 75.51667 -0.84801394
76.091927 78.00293 -0.51670492
76.945099 78.990936 0
76.906906 78.946701 0.55153
73.934418 75.532593 -0.84830195
76.058044 77.997849 -0.51597935
76.920189 78.998688 0
76.919357 78.997719 0.55283612
73.930595 75.556366 -0.84916711
76.037735 78.008469 -0.51583433
76.881699 78.990593 0
76.894455 79.005447 0.55254614
73.936821 75.591911 -0.8508963
76.010651 78.011162 -0.5153988
76.856804 78.998253 0
76.899979 79.048622 0.55356169
73.946342 75.631432 -0.85291463
75.96669 77.994064 -0.51423764
76.825142 78.997955 0
76.875038 79.056305 0.55327165
73.932281 75.64344 -0.85291463
75.936279 77.992699 -0.51365709
76.807007 79.013443 0
76.846718 79.05999 0.55283612
73.93161 75.671196 -0.8540678
75.916 78.003159 -0.51351207
76.805725 79.048721 0
76.82515 79.071548 0.5526911
73.931252 75.685066 -0.85464382
75.88398 77.982635 -0.51249599
76.816849 79.080246 0
76.805939 79.067406 0.55225557
73.910446 75.689178 -0.8540678
75.860359 77.989059 -0.51220602
76.828918 79.131462 0
76.781006 79.074951 0.55196553
73.886292 75.689285 -0.85320264
75.830025 77.987511 -0.51162541
76.813988 79.150925 0
76.762787 79.090385 0.55196553
73.898842 75.732857 -0.85550898
75.81646 78.00576 -0.51177043
76.802376 79.174339 0
76.781395 79.149475 0.55356169
73.881332 75.740852 -0.85522097
75.80957 78.03196 -0.51220602
76.804146 79.213699 0
76.779823 79.184799 0.55428779
73.860481 75.744858 -0.85464382
75.799286 78.054176 -0.51249599
76.802483 79.249092 0
76.761467 79.200233 0.55428779
73.852928 75.764702 -0.85522097
75.802322 78.092331 -0.51336712
76.807434 79.292465 0
76.773117 79.251495 0.55559391
73.848663 75.788513 -0.85608613
75.798615 78.122536 -0.51394767
76.785614 79.30394 0
76.751335 79.262917 0.55544835
73.834412 75.8004 -0.85608613
75.794846 78.152756 -0.51452821
76.797096 79.355362 0
76.759506 79.310249 0.55660945
73.839981 75.836136 -0.85781533
75.79435 78.186974 -0.51525378
76.801834 79.398834 0
76.740997 79.325653 0.55660945
73.822372 75.84404 -0.85752732
75.78051 78.205208 -0.5153988
76.789871 79.422318 0
76.742378 79.365051 0.55748057
73.811348 75.859879 -0.85781533
75.736839 78.187401 -0.51423764
76.777855 79.44577 0
76.740364 79.400452 0.55820614
73.797012 75.871727 -0.85781533
76.996422 79.74868 -0.57025844
76.785683 79.493317 0
76.734978 79.43187 0.55878669
73.795807 75.899529 -0.8589685
77.013718 79.80851 -0.57185513
76.819885 79.573051 0
76.749344 79.487358 0.56023782
73.787979 75.919342 -0.85954452
76.988007 79.816185 -0.57156456
76.867111 79.668961 0
76.750412 79.526855 0.56110895
73.767021 75.923172 -0.8589685
76.955727 79.815804 -0.57098454
76.940521 79.797241 0
76.74482 79.558334 0.5616895
73.782066 75.971008 -0.86156285
76.946457 79.843506 -0.57141954
76.977409 79.881378 0
76.735863 79.585785 0.56212449
73.754517 75.966782 -0.86040968
76.960144 79.899429 -0.57287121
76.958214 79.897049 0
82.029472 86.118439 0.79694819
73.756363 75.998627 -0.86185086
76.934364 79.907005 -0.57258064
76.938995 79.912697 0
82.002731 86.140213 0.79694819
73.771187 76.046555 -0.86444521
84.090866 88.769333 -0.89071023
76.932869 79.944489 0
81.969429 86.153885 0.79665816
73.766388 76.070419 -0.86531037
84.054382 88.7855 -0.89041966
76.907051 79.952019 0
81.900139 86.123047 0.79477096
73.755043 76.086235 -0.86559838
79.807549 83.585129 -0.70290947
76.881226 79.959496 0
81.876671 86.148712 0.79491651
73.73719 76.093987 -0.86531037
79.734985 83.543488 -0.70073229
76.858673 79.970993 0
81.830338 86.146004 0.79404539
73.749336 76.124069 -0.86704069
79.772026 83.613747 -0.70290947
76.907722 80.051765 0
81.816948 86.156769 0.79404539
73.731438 76.13179 -0.86675155
84.03392 88.975479 -0.89419299
79.760712 83.648239 0
81.744644 86.121536 0.7920137
73.723236 76.151627 -0.8673287
84.003723 88.999672 -0.89419299
86.988388 92.729752 0
81.717903 86.14296 0.7920137
73.721458 76.179535 -0.86848187
79.81752 83.816994 -0.70813394
86.963402 92.769714 0
81.658722 86.123741 0.79056257
73.71962 76.207458 -0.86963505
79.783852 83.823891 -0.7076984
86.899445 92.760803 0
81.596367 86.100342 0.78896594
73.714508 76.231339 -0.87049907
79.782516 83.871445 -0.70871454
86.854965 92.776215 0
81.572876 86.125656 0.7891109
73.71579 76.263351 -0.87194139
84.005295 89.250839 -0.89970803
86.800789 92.779343 0
81.526772 86.122437 0.78824037
73.70417 76.279137 -0.8722294
84.003769 89.311691 -0.90101415
86.711136 92.73745 0
81.48069 86.119125 0.78736925
73.698936 76.303047 -0.87309456
83.960297 89.319519 -0.9004336
86.695724 92.789391 0
81.437866 86.119827 0.78664368
73.703247 76.339142 -0.87482375
79.792297 84.082291 -0.71350396
86.631966 92.779968 0
81.385429 86.1082 0.78548259
73.682968 76.374786 -0.87568891
79.746918 84.124489 -0.71364897
86.53669 92.801788 0
81.30954 86.121513 0.78446698
73.674362 76.394623 -0.87626493
83.940018 89.546783 -0.90507805
86.447433 92.759247 0
81.273201 86.130119 0.78403145
73.665741 76.414474 -0.87684208
83.909134 89.570862 -0.90507805
86.393478 92.761703 0
81.21772 86.114075 0.78272533
73.660248 76.438393 -0.87770611
79.766304 84.300461 -0.7178579
86.358704 92.788742 0
81.152733 86.085609 0.78098369
73.65155 76.458237 -0.87828326
79.779953 84.368797 -0.71959955
86.304779 92.791054 0
81.126038 86.106316 0.78098369
73.639648 76.473984 -0.87857127
79.74897 84.379616 -0.71930903
86.228607 92.76445 0
81.086601 86.11055 0.78040308
73.640358 76.506104 -0.88001245
79.733856 84.41098 -0.71974456
86.162064 92.750069 0
81.044014 86.110596 0.77967757
73.631554 76.525948 -0.8805896
79.766197 84.504128 -0.7223568
86.082886 92.719055 0
80.998268 86.106453 0.77880645
73.629005 76.554001 -0.88174278
79.801506 84.601517 -0.72511458
86.057671 92.758102 0
80.943085 86.089867 0.77750033
73.629539 76.586159 -0.88318396
79.751343 84.58757 -0.72395349
86.016586 92.776474 0
80.894287 86.081444 0.77648473
73.59549 76.573105 -0.88145363
79.745361 84.631371 -0.72482401
85.978638 92.798912 0
80.864426 86.097694 0.77633917
73.580292 76.584694 -0.88145363
79.710991 84.637985 -0.72438902
85.902832 92.771606 0
80.828278 86.105667 0.77590418
73.565079 76.59626 -0.88145363
79.783463 84.785248 -0.72888792
85.877502 92.810493 0
80.788986 86.109428 0.77532363
73.579353 76.63089 -0.88347197
79.789734 84.819618 -0.7297585
85.772026 92.707581 0
80.737946 86.069878 0.77358198
73.570328 76.650711 -0.88404912
79.755173 84.826256 -0.72932351
85.740471 92.738037 0
80.692459 86.065224 0.7727114
73.545685 76.649879 -0.88318396
79.726852 84.841118 -0.72917795
85.680649 92.731049 0
80.662643 86.081223 0.77256584
73.536613 76.669662 -0.88375998
79.695419 84.851814 -0.72888792
85.627129 92.732262 0
80.620331 86.080582 0.77184027
73.53994 76.706001 -0.8854903
79.757584 84.987122 -0.73295182
85.56115 92.716759 0
80.578033 86.079872 0.77111471
73.53698 76.734085 -0.88664347
79.775818 85.064377 -0.7349835
85.488998 92.692795 0
80.523308 86.062454 0.76980859
73.537064 76.766312 -0.88808465
84.748299 91.773674 -0.96821052
85.45742 92.7229 0
80.46553 86.040756 0.76835692
73.521629 76.777832 -0.88808465
84.739563 91.832062 -0.96937162
85.394714 92.71125 0
80.438889 86.060638 0.76835692
73.50927 76.793472 -0.88837266
84.696625 91.844589 -0.96893609
85.335159 92.703659 0
80.415329 86.084671 0.76850247
73.490723 76.800804 -0.88808465
84.638199 91.836174 -0.96777493
85.278778 92.700165 0
80.357674 86.062729 0.7670508
73.466019 76.799774 -0.88721949
84.582924 91.831856 -0.96675938
85.24408 92.725853 0
80.318642 86.065765 0.76647025
73.465897 76.832016 -0.88866067
84.536942 91.839981 -0.96617883
85.150642 92.671913 0
80.267288 86.052017 0.76530915
73.456528 76.851784 -0.88923782
80.176094 85.983948 -0.76226807
85.094391 92.668098 0
80.216003 86.038185 0.76414859
73.437927 76.859039 -0.88894981
80.164894 86.024422 -0.76299363
85.004303 92.618042 0
80.192436 86.061951 0.76429361
73.42849 76.878769 -0.88952583
80.089165 85.97686 -0.76067191
84.911301 92.563622 0
80.144272 86.052139 0.76327747
73.428177 76.911041 -0.89096701
79.970657 85.870384 -0.75631803
84.873688 92.584648 0
80.071655 86.008682 0.76110083
73.415611 76.926598 -0.89125502
79.883026 85.805649 -0.75341523
84.857529 92.635101 0
80.02668 86.002876 0.76022971
73.393906 76.929604 -0.890679
64 64 -0
79.8302 85.788399 0
80.009247 86.034843 0.76066524
73.393456 76.961884 -0.89212018
64 64 -0
79.849663 85.870712 0
79.970413 86.037338 0.76008469
73.380814 76.977417 -0.89240819
79.764297 85.808334 -0.75152856
79.817131 85.881424 0
79.931595 86.039772 0.75950414
73.371178 76.997139 -0.89298534
79.722748 85.80629 -0.75080299
64 64 0
79.871521 86.012634 0.75790745
73.367554 77.025253 -0.89413851
79.672112 85.791519 -0.7496419
64 64 0
79.835815 86.01915 0.75747246
73.360855 77.049179 -0.89500368
79.630623 85.789337 -0.74891633
79.722549 85.917473 0
79.824341 86.05938 0.75819802
73.342064 77.056259 -0.89471453
79.6194 85.82933 -0.7496419
79.656677 85.881432 0
79.779526 86.053116 0.7573269
73.352219 77.087158 -0.89644486
79.60923 85.842987 -0.74978691
79.62529 85.865463 0
79.760162 86.054199 0.75703692
73.363419 77.13636 -0.89903921
79.585838 85.866058 -0.74993187
79.604912 85.892815 0
79.718422 86.052071 0.75631136
73.365524 77.172951 -0.9007684
79.583496 85.918762 -0.75109303
64 64 0
79.634552 85.99057 0.75355357
73.34063 77.171608 -0.89990437
79.578049 85.967255 -0.75210911
64 64 0
79.598953 85.996735 0.75311857
73.324707 77.182884 -0.89990437
79.566498 86.007271 -0.75283468
79.52845 85.953484 0
79.572365 86.015572 0.75311857
73.320686 77.211037 -0.90105641
79.566856 86.064278 -0.75414079
79.516914 85.993492 0
79.542747 86.030106 0.75297302
73.298767 77.213837 -0.90048039
79.567093 86.121315 -0.75544691
79.520287 86.054802 0
79.522102 86.057381 0.75326353
73.270912 77.20813 -0.89932722
79.567223 86.178391 -0.75675303
79.514549 86.103348 0
79.510368 86.097382 0.7539891
73.269775 77.240501 -0.9007684
79.567238 86.235497 -0.75805914
79.511711 86.156189 0
79.498558 86.13739 0.75471467
73.271545 77.277145 -0.90249872
79.561188 86.284119 -0.75907528
79.505791 86.204788 0
79.510475 86.211487 0.75660133
73.243668 77.271362 -0.90134555
79.555046 86.332764 -0.76009136
79.508698 86.266212 0
79.504417 86.260071 0.75761747
73.236473 77.295258 -0.90220958
79.548798 86.381401 -0.76110697
79.502571 86.314865 0
79.501228 86.312927 0.75877857
73.25576 77.35743 -0.90566909
79.545418 86.434349 -0.76226807
79.490417 86.354965 0
79.49794 86.365822 0.75993967
73.239609 77.368607 -0.90566909
79.527168 86.465942 -0.7627036
79.48114 86.399353 0
79.485672 86.405899 0.76066524
73.229324 77.388283 -0.90624624
79.508865 86.497528 -0.76313919
79.474747 86.448044 0
79.482185 86.458832 0.76182634
73.219002 77.407944 -0.90682226
79.434555 86.447739 -0.76081693
79.491852 86.531059 0
79.481537 86.516052 0.76313245
73.205719 77.423332 -0.90711027
79.119392 86.046379 -0.74659413
79.479332 86.57122 0
79.471947 86.560455 0.76400304
73.195335 77.442993 -0.90768743
78.814018 85.65715 -0.73280627
79.478493 86.628571 0
79.474022 86.622032 0.76545471
73.17617 77.449829 -0.90739942
79.537598 86.773979 -0.76996028
79.427673 86.612862 0
79.464241 86.666458 0.76632529
73.16864 77.473724 -0.90826344
79.536377 86.831406 -0.7712664
79.379837 86.601357 0
79.460236 86.719505 0.76748639
73.163971 77.501915 -0.90941662
79.523369 86.871658 -0.77199197
79.273605 86.503654 0
79.461945 86.781158 0.76893753
73.170853 77.547241 -0.91172296
79.501556 86.89901 -0.77228254
78.797081 85.85836 0
79.466461 86.847168 0.77053416
73.159767 77.5485 -0.91143495
79.519722 86.955719 -0.77387863
79.50972 86.940918 0
79.47303 86.88665 0.7715503
73.160736 77.585289 -0.91316414
79.51812 87.013229 -0.77518475
79.464531 86.933754 0
79.465698 86.935478 0.77256584
73.155861 77.613518 -0.91431731
79.484512 87.023346 -0.77489477
79.431007 86.943794 0
79.461174 86.988647 0.77372694
73.139404 77.624565 -0.91431731
79.445099 87.024773 -0.77431422
79.46125 87.048859 0
79.459442 87.04615 0.77503306
73.103584 77.642319 -0.9140293
79.34903 87.001526 -0.77228254
79.492172 87.216034 0
79.449852 87.152611 0.77735531
73.092834 77.661926 -0.91460645
79.329857 87.03302 -0.77271754
79.484299 87.265068 0
79.450653 87.214516 0.77880645
73.067734 77.659973 -0.91374129
79.304901 87.055862 -0.77286309
79.482086 87.322784 0
79.445587 87.267807 0.77996755
73.068352 77.696785 -0.91547048
79.268417 87.06134 -0.77242756
79.471138 87.367523 0
79.451889 87.338448 0.78170919
73.06604 77.729317 -0.91691166
79.223358 87.053741 -0.77155644
79.431419 87.368828 0
79.443726 87.387466 0.78272533
73.055145 77.748909 -0.91748881
79.181198 87.050423 -0.77083087
79.385986 87.361366 0
79.438324 87.440826 0.78388643
73.049881 77.77713 -0.91864198
79.144783 87.055733 -0.77039587
79.352036 87.371246 0
79.424255 87.481178 0.784612
73.050232 77.814011 -0.92037117
79.119759 87.078354 -0.77054089
79.34375 87.420242 0
79.398712 87.504143 0.78475702
73.036377 77.829285 -0.92066032
79.08902 87.092262 -0.77039587
79.392311 87.556419 0
79.390205 87.553192 0.7857731
73.019661 77.840187 -0.92066032
79.03273 87.066933 -0.7689442
79.471825 87.7407 0
79.378754 87.597885 0.78664368
73.005745 77.855408 -0.92094833
79.024673 87.115585 -0.76996028
78.064606 85.638512 0
79.401199 87.69487 0.78925592
72.991806 77.870621 -0.92123634
78.999557 87.138077 -0.7701053
78.052605 85.677322 0
79.403656 87.761436 0.79085261
72.989082 77.903191 -0.92267752
78.968773 87.151825 -0.76996028
78.029228 85.698654 0
79.411613 87.836761 0.79273927
72.97789 77.922745 -0.92325467
78.963318 87.204834 -0.77112144
77.991714 85.69809 0
79.40815 87.894669 0.79404539
72.980637 77.964027 -0.92527187
78.963371 87.266602 -0.77257252
77.962677 85.710609 0
79.404556 87.952606 0.79535151
72.952591 77.957451 -0.9241187
78.968918 87.337158 -0.77431422
77.925186 85.709938 0
79.406471 88.019325 0.79694819
72.958115 77.98465 -0.92556101
79.06974 87.525612 -0.78026479
77.909264 85.713974 0
79.405975 88.050507 0.7976737
72.94677 78.004173 -0.92613703
79.248337 87.867859 -0.7910043
77.869011 85.708832 0
79.402077 88.108505 0.79897982
72.929848 78.014969 -0.92613703
79.350723 88.092239 -0.7978254
77.837173 85.716789 0
79.409241 88.184074 0.80086648
72.924004 78.043213 -0.9272902
79.37735 88.198502 -0.8007282
77.799751 85.715919 0
79.399521 88.233383 0.80188262
72.904259 78.049622 -0.92700219
79.373138 88.256561 -0.80203432
77.76236 85.714996 0
79.400833 88.300262 0.80347931
72.892799 78.069107 -0.92757821
79.366028 88.310265 -0.80319542
77.73333 85.727211 0
79.40477 88.371552 0.80522043
72.878548 78.084213 -0.92786622
79.372665 88.385963 -0.80508208
77.68486 85.708565 0
79.383621 88.403343 0.80565596
72.867035 78.103699 -0.92844337
79.392975 88.483704 -0.80769432
77.661392 85.729485 0
79.376251 88.457108 0.80681711
72.849991 78.114403 -0.92844337
79.338531 88.462662 -0.8063882
77.618538 85.719528 0
79.37706 88.524109 0.80841374
72.838409 78.13385 -0.92901939
79.251106 88.388649 -0.80334044
77.589531 85.73156 0
79.374969 88.586723 0.80986488
72.824066 78.148926 -0.92930853
79.067627 88.160141 -0.79521316
77.552246 85.730293 0
79.375504 88.653793 0.81146157
72.806969 78.159576 -0.92930853
78.939613 88.019463 -0.78998816
77.52047 85.737808 0
79.381378 88.729721 0.81334823
72.792572 78.174599 -0.92959654
78.885925 87.997757 -0.78868204
77.480484 85.732018 0
79.36245 88.765953 0.81392878
72.780876 78.194 -0.93017256
78.870598 88.037834 -0.78940815
77.448738 85.739441 0
79.362579 88.833099 0.81552488
72.755585 78.191406 -0.92930853
78.863365 88.091148 -0.79056871
77.408798 85.733536 0
79.359856 88.895882 0.81697655
72.73571 78.197556 -0.92901939
78.948624 88.294983 -0.7966643
77.379791 85.745277 0
79.351547 88.949829 0.81813771
72.723961 78.216927 -0.92959654
79.079613 88.574348 -0.8052271
77.345352 85.748131 0
79.348564 89.01265 0.81958878
72.725685 78.258347 -0.93161488
79.152985 88.760986 -0.81074214
77.313622 85.755348 0
79.350883 89.084366 0.82133049
79.085159 88.717186 -0.80871046
77.273773 85.749214 0
79.350334 89.15168 0.82292658
79.033661 88.699875 -0.80754936
77.250183 85.769676 0
79.344246 89.210159 0.8242327
79.044258 88.784668 -0.8097266
77.213066 85.767876 0
79.327263 89.250908 0.8249588
79.051971 88.865059 -0.81175822
77.173279 85.761566 0
79.320961 89.309418 0.82626492
79.150826 89.096771 -0.81872439
77.149666 85.781914 0
79.317223 89.372391 0.82771605
79.24379 89.319855 -0.82540053
77.78373 86.894699 0
79.321396 89.448761 0.82960272
79.252586 89.369141 -0.82670665
77.812805 86.974396 0
79.33548 89.507004 0.83119941
77.052032 85.768555 -0.7088595
77.833221 87.071426 0
79.328697 89.565628 0.83250552
77.039055 85.806602 -0.70958507
77.797318 87.074722 0
79.324463 89.628723 0.83395666
64 64 -0
77.630806 86.85891 0
79.317436 89.687393 0.83526278
76.95179 85.779984 -0.7076984
77.04187 85.931465 0
79.31295 89.750557 0.83671445
76.904259 85.759857 -0.70653731
64 64 0
79.297729 89.795853 0.83758497
76.859444 85.744141 -0.7055217
64 64 0
79.293007 89.859055 0.83903664
76.817322 85.732788 -0.70465064
76.925262 85.915817 0
79.28286 89.913315 0.84019721
76.791046 85.74826 -0.70465064
76.872391 85.886566 0
79.269981 89.96312 0.84121335
76.762131 85.759224 -0.70450562
76.809074 85.839256 0
76.880325 85.960739 0.71103007
76.733215 85.770149 -0.7043606
76.76165 85.818771 0
76.840668 85.953857 0.7103045
76.704285 85.781036 -0.70421559
76.730026 85.82518 0
76.814125 85.96936 0.7103045
76.675331 85.791862 -0.70407003
76.706261 85.845039 0
76.779732 85.971344 0.70986897
76.638573 85.7892 -0.70349008
76.692924 85.882896 0
76.750565 85.982277 0.70972395
76.60183 85.786453 -0.70290947
76.663864 85.8937 0
76.695374 85.948181 0.70812726
76.5625 85.779144 -0.70218337
76.632202 85.899979 0
76.668846 85.963501 0.70812726
76.530998 85.785309 -0.70189339
76.597939 85.901688 0
76.631927 85.960777 0.70754671
76.502083 85.795929 -0.70174837
76.524857 85.835632 0
76.597633 85.962517 0.70711172
76.455101 85.774933 -0.70058727
76.49588 85.846237 0
76.550446 85.941635 0.70595062
76.439079 85.808022 -0.70116782
76.456581 85.838715 0
76.516197 85.943237 0.70551503
76.42556 85.845619 -0.70189339
76.427605 85.849213 0
76.492241 85.962852 0.70566005
76.435043 85.923897 -0.70392507
76.385796 85.837059 0
76.468262 85.982452 0.70580506
76.432045 85.949493 -0.70450562
76.364899 85.830948 0
76.434494 85.953819 0.7046445
76.437622 86.083618 -0.70784396
76.337654 85.906128 0
76.396698 86.010963 0.70551503
76.426193 86.125809 -0.70871454
76.3647 86.016312 0
76.398094 86.075775 0.70711172
76.419762 86.177086 -0.70987564
76.355881 86.063011 0
76.39933 86.140602 0.70870781
76.43856 86.273743 -0.71248788
76.367287 86.146103 0
76.390312 86.187332 0.70972395
76.436928 86.334167 -0.71393955
76.355705 86.188301 0
79.230492 91.35083 0.87430346
76.472992 86.462738 -0.71756732
76.361732 86.262367 0
79.217613 91.405563 0.87546456
76.528915 86.627823 -0.7223568
76.354996 86.313721 0
79.202118 91.455757 0.8764807
76.564354 86.756683 -0.72598517
76.363235 86.39241 0
79.194046 91.519592 0.87793183
76.526825 86.753639 -0.72540456
76.434074 86.585167 0
79.185837 91.58345 0.87938291
76.524338 86.814323 -0.72685623
76.444344 86.668602 0
79.180008 91.651894 0.8809796
76.549164 86.925163 -0.72990406
76.456932 86.756676 0
79.171539 91.71579 0.88243073
76.543854 86.981361 -0.73121017
76.474304 86.853935 0
79.172897 91.797974 0.88446295
76.545891 87.051277 -0.73295182
76.464104 86.901001 0
79.174072 91.880188 0.88649464
76.547768 87.121216 -0.73469293
76.461243 86.961784 0
79.162682 91.939606 0.88780075
76.537132 87.168358 -0.73570907
76.485504 87.072952 0
79.158592 92.012756 0.8895424
76.52887 87.220078 -0.73687017
76.482338 87.133835 0
79.154343 92.08593 0.89128411
76.537735 87.303833 -0.73904687
76.47657 87.190155 0
79.140099 92.140839 0.89244521
76.521858 87.341873 -0.73977298
76.468224 87.241905 0
79.140472 92.223213 0.89447689
76.525505 87.416557 -0.74165964
76.464676 87.302841 0
79.14312 92.310211 0.89665353
76.514313 87.46376 -0.74267519
76.458557 87.359215 0
79.133362 92.374352 0.8981052
76.512802 87.529343 -0.74427187
76.459648 87.429398 0
79.128349 92.447678 0.89984691
76.508698 87.590347 -0.74572301
76.44352 87.467422 0
79.111 92.498062 0.90086246
76.502045 87.64679 -0.74702913
76.446777 87.542252 0
79.105698 92.571434 0.9026041
76.51445 87.704895 -0.74862576
76.456856 87.59581 0
79.117554 92.635704 0.90434581
76.512428 87.770592 -0.75022244
76.459854 87.670715 0
79.082939 92.653946 0.90434581
76.503014 87.82251 -0.7513836
76.450592 87.722626 0
82.859161 99.933136 1.1333638
76.498314 87.883636 -0.75283468
76.443634 87.779152 0
82.839836 100.00195 1.1348156
76.498291 87.95401 -0.75457639
76.436562 87.835693 0
82.837189 100.10301 1.1372828
76.488525 88.005974 -0.75573748
76.434174 87.901489 0
82.819923 100.17645 1.1388789
76.493011 88.085625 -0.75776917
76.419662 87.944229 0
82.8097 100.26376 1.1409111
76.482994 88.137634 -0.75893027
76.424194 88.023933 0
82.80645 100.36493 1.1433784
76.47287 88.189651 -0.76009136
76.421402 88.089813 0
82.795837 100.45229 1.1454101
76.476898 88.269394 -0.76212305
76.416077 88.151093 0
82.777908 100.52579 1.1470062
76.464157 88.316833 -0.76313919
76.410622 88.212387 0
82.750359 100.58083 1.1480223
76.46315 88.387405 -0.76488084
76.40741 88.278351 0
75.737038 86.966583 0.72031844
76.461975 88.458 -0.76662195
76.389885 88.316513 0
75.713997 86.990021 0.72060901
76.451241 88.510101 -0.76778311
76.405281 88.41964 0
82.801216 101.00995 1.1593429
76.449791 88.580765 -0.76952475
76.387527 88.457825 0
82.765877 101.05119 1.1599234
76.436485 88.628265 -0.77054089
76.388458 88.533173 0
82.723434 101.07847 1.1600684
76.437096 88.703613 -0.77242756
76.377533 88.585312 0
82.673943 101.09177 1.1597779
76.428215 88.760422 -0.77373368
76.373497 88.651413 0
82.619781 101.09573 1.1591973
76.426193 88.831192 -0.77547532
76.366997 88.712898 0
82.563324 101.09497 1.1584718
76.4217 88.897324 -0.77707148
76.360359 88.774391 0
82.502243 101.08482 1.1574557
76.417068 88.963509 -0.77866811
76.355919 88.840576 0
82.443535 101.07924 1.1565851
76.409981 89.02504 -0.78011924
76.355957 88.9161 0
82.382553 101.0689 1.155569
76.405067 89.09127 -0.78171593
76.351212 88.982323 0
82.323936 101.06314 1.1546984
76.415215 89.150024 -0.78331256
76.361458 89.04113 0
82.255539 100.981 1.1517956
76.414642 89.225616 -0.78519928
76.347282 89.088745 0
83.156242 102.92403 1.2115903
76.41391 89.301247 -0.78708595
76.353645 89.178406 0
83.095459 102.91914 1.2107192
76.399307 89.348892 -0.78810149
76.343788 89.23539 0
83.043854 102.93286 1.2104292
76.375511 89.377876 -0.78853703
76.322418 89.269005 0
83.003632 102.96986 1.2108648
76.353928 89.411507 -0.78911763
76.285042 89.269821 0
82.933807 102.94604 1.2094131
76.323212 89.426414 -0.78911763
76.238609 89.251862 0
82.886734 102.96889 1.2094131
76.335434 89.530197 -0.79187542
76.180916 89.210388 0
82.801193 102.91214 1.2069459
76.322617 89.58252 -0.79303592
76.159477 89.243851 0
82.731613 102.88802 1.2054948
76.336685 89.691086 -0.79593873
76.180794 89.36644 0
82.698105 102.93872 1.2063653
76.321342 89.738792 -0.79695487
76.224297 89.536064 0
82.615143 102.88629 1.204043
76.305893 89.786484 -0.79797041
76.23378 89.635361 0
82.554718 102.88062 1.2031724
76.301521 89.857651 -0.79971206
76.22068 89.687729 0
82.503265 102.89363 1.2028825
76.272499 89.877197 -0.79985768
76.200783 89.725983 0
64 64 0
76.281204 89.97657 -0.80246991
76.165237 89.731293 0
64 64 0
76.27639 90.047806 -0.80421156
76.111954 89.698898 0
82.359932 102.95573 1.202737
76.278053 90.133156 -0.8063882
76.076469 89.704102 0
82.308434 102.96849 1.2024469
76.296204 90.336975 -0.81175822
75.939453 89.572861 0
82.979248 104.65125 1.2529527
64 64 -0
76.308228 90.446053 -0.81466103
75.875603 89.516479 0
82.941078 104.69771 1.2536782
76.300316 90.512749 -0.81625718
75.840385 89.521378 0
82.88752 104.71115 1.2533883
76.290092 90.574768 -0.81770885
75.88382 89.696281 0
74.664909 87.060646 0.70957893
76.297989 90.634071 -0.81930494
76.114838 90.237404 0
74.666222 87.100098 0.71059448
76.294044 90.710281 -0.82119161
76.211517 90.530975 0
74.614403 87.061058 0.70899838
76.289932 90.786514 -0.82307827
76.23806 90.673447 0
74.556183 87.007729 0.70696616
76.28566 90.862778 -0.82496494
76.216644 90.711876 0
74.495964 86.949585 0.70478946
76.270432 90.915436 -0.8261261
76.197304 90.755028 0
74.455284 86.933868 0.70391834
76.268005 90.99649 -0.82815832
76.167122 90.774483 0
74.425423 86.941765 0.70377338
76.258965 91.063354 -0.82975441
76.154099 90.831848 0
74.386971 86.930679 0.70304781
64 64 -0
76.256195 91.14447 -0.83178663
76.175209 90.965103 0
74.365677 86.957428 0.70348334
76.255379 91.230331 -0.83396333
76.187477 91.079468 0
74.634384 87.628632 0.72365677
76.247986 91.302017 -0.83570498
76.199478 91.193878 0
74.76535 87.997055 0.73454124
76.236198 91.364227 -0.83715612
76.198486 91.279877 0
74.742706 88.024277 0.73497683
76.23275 91.445457 -0.83918834
76.184586 91.337379 0
74.703094 88.013512 0.73425126
76.235451 91.540955 -0.84165561
76.189575 91.437698 0
74.688835 88.059662 0.7352668
76.223198 91.603226 -0.84310669
76.181702 91.509514 0
74.657654 88.06781 0.73512185
76.215019 91.675026 -0.84484839
76.173676 91.58136 0
74.607582 88.033134 0.73367071
76.210861 91.756355 -0.84688008
76.165489 91.653221 0
74.553429 87.988853 0.731929
76.212791 91.85199 -0.84934729
76.15715 91.725098 0
74.53904 88.034904 0.73294514
76.197861 91.909584 -0.85065341
76.148659 91.797005 0
74.534966 88.104767 0.73468679
76.195259 91.995773 -0.85283065
76.146233 91.883224 0
74.485077 88.069824 0.73323512
76.188332 92.072456 -0.85471731
76.147774 91.979042 0
75.488708 90.461075 0.80565596
76.181229 92.149155 -0.85660398
76.134628 92.041481 0
73.161751 85.171555 0.64426923
76.176018 92.230652 -0.85863566
76.1399 92.146912 0
73.129982 85.168289 0.6438337
76.168579 92.307411 -0.86052233
76.11821 92.190247 0
73.094139 85.155441 0.64310813
76.176071 92.37207 -0.86226398
76.131973 92.269318 0
73.079308 85.156158 0.64296311
76.178566 92.472771 -0.86487681
76.124413 92.346161 0
73.041481 85.138451 0.64209259
76.162491 92.530487 -0.86618292
76.124847 92.442184 0
73.0037 85.120667 0.64122146
76.170685 92.645607 -0.86923069
76.118965 92.523872 0
72.970047 85.112396 0.64064091
76.144173 92.679428 -0.86981124
76.116966 92.615181 0
72.944527 85.123222 0.64064091
76.127693 92.737167 -0.87111735
76.104645 92.682556 0
74.034332 87.776855 0.72075397
76.092957 92.751801 -0.87111735
76.104279 92.778717 0
73.989479 87.750641 0.71959287
76.090347 92.843063 -0.87343901
76.077545 92.812531 0
73.940689 87.714775 0.71814173
76.11158 92.99192 -0.87750292
76.050751 92.846313 0
72.814293 85.099083 0.63860923
76.106506 93.078506 -0.87968016
76.035889 92.90889 0
72.800774 85.138496 0.63947976
76.101227 93.1651 -0.88185686
76.02887 92.990707 0
72.769257 85.134727 0.63904476
76.103714 93.27095 -0.88461465
76.037598 93.111053 0
72.745697 85.150101 0.63918978
76.078232 93.30957 -0.88534021
76.012321 93.149635 0
72.722107 85.165459 0.6393348
76.046753 93.333755 -0.88563019
76.014656 93.2556 0
72.682709 85.142326 0.63831866
76.00737 93.338676 -0.88534021
76.026611 93.385704 0
72.641418 85.114342 0.6371581
75.969948 93.348358 -0.8851952
76.000923 93.424309 0
73.548096 87.41037 0.70609558
75.934479 93.362801 -0.8851952
75.967323 93.443604 0
73.513931 87.40744 0.70566005
75.93605 93.468704 -0.88795245
75.92392 93.438744 0
73.485641 87.418915 0.70566005
75.929619 93.555397 -0.89012969
75.890289 93.45797 0
73.457336 87.430359 0.70566005
75.922981 93.642097 -0.89230633
75.864403 93.49646 0
73.438713 87.465874 0.70638561
75.921951 93.743301 -0.89491856
75.855858 93.5784 0
73.408417 87.472443 0.70624059
75.914925 93.830078 -0.8970958
75.852928 93.674873 0
73.380051 87.483795 0.70624059
75.9077 93.916885 -0.89927304
75.85556 93.785896 0
73.355515 87.504776 0.70653117
75.918404 93.996506 -0.90144968
75.88369 93.909142 0
73.350906 87.534569 0.70725673
75.889801 94.030212 -0.90203029
75.872452 93.986389 0
73.316719 87.531349 0.70682114
75.849701 94.034897 -0.90174025
75.906876 94.17984 0
73.290184 87.547424 0.70696616
75.8153 94.054031 -0.90188527
75.891357 94.24749 0
73.259827 87.553795 0.70682114
75.775177 94.058594 -0.9015947
75.866188 94.290909 0
73.218094 87.53109 0.70580506
75.736961 94.067963 -0.90144968
75.827682 94.300377 0
73.187759 87.537376 0.70566005
75.704391 94.09182 -0.90174025
80.96067 107.60563 0
73.157433 87.543625 0.70551503
75.662392 94.0914 -0.90130472
80.900444 107.60667 0
73.127106 87.549828 0.70537001
75.624153 94.100624 -0.9011597
80.851501 107.63678 0
73.10051 87.565681 0.70551503
75.595238 94.134048 -0.90174025
80.785675 107.62311 0
73.055237 87.533012 0.70420891
75.558815 94.148041 -0.90174025
80.727356 107.62877 0
73.03051 87.553635 0.70449895
75.514961 94.142563 -0.9011597
80.652344 107.59062 0
72.994629 87.545113 0.70391834
75.472984 94.141876 -0.90072417
80.582993 107.56692 0
72.962479 87.546257 0.70362836
75.39093 94.145218 -0.89999861
80.540222 107.77242 0
72.918411 87.601883 0.7046445
75.363647 94.183273 -0.90072417
80.498314 107.82159 0
72.888046 87.607765 0.70449895
75.323517 94.187241 -0.9004336
80.452667 107.86099 0
72.86499 87.633087 0.70493448
75.287033 94.200897 -0.9004336
80.410583 107.91008 0
72.841888 87.658386 0.70537001
75.25235 94.219398 -0.90057915
80.381126 107.99329 0
72.818733 87.683655 0.70580506
75.215828 94.232971 -0.90057915
80.286324 107.90082 0
72.793724 87.704048 0.70609558
75.179291 94.246506 -0.90057915
80.204391 107.84235 0
72.759674 87.700027 0.70566005
75.128372 94.220978 -0.89941806
80.084862 107.68118 0
72.738213 87.730103 0.70624059
75.100792 94.258789 -0.90014356
76.079407 96.926331 0
72.709534 87.740639 0.70624059
75.080727 94.26062 -0.89999861
76.10067 97.046021 0
72.702332 87.765419 0.70682114
75.040588 94.264206 -0.89970803
76.050034 97.031288 0
72.666489 87.756386 0.70624059
75.004013 94.277527 -0.89970803
76.017227 97.065392 0
72.630676 87.747307 0.70566005
74.967415 94.290802 -0.89970803
76.005615 97.158188 0
72.607285 87.772385 0.70609558
74.936096 94.318703 -0.90014356
79.868393 107.99274 0
72.571503 87.763206 0.70551503
74.902969 94.341667 -0.9004336
79.80291 107.97762 0
72.535751 87.753983 0.70493448
74.861053 94.340149 -0.89999861
79.762032 108.03096 0
72.482529 87.695793 0.70290279
74.826126 94.358147 -0.90014356
79.693085 108.00586 0
72.401527 87.559181 0.69854891
74.789436 94.371201 -0.90014356
79.608543 107.93651 0
72.348694 87.500748 0.69651669
74.749268 94.374428 -0.89985359
80.395851 110.33009 0
72.308159 87.47654 0.69550109
74.714279 94.392288 -0.89999861
80.343323 110.3597 0
72.279785 87.486565 0.69550109
74.677551 94.405212 -0.89999861
80.271774 110.33522 0
72.237625 87.457321 0.69433999
74.642517 94.422997 -0.90014356
80.200302 110.31064 0
72.197266 87.432915 0.69332385
74.604042 94.430931 -0.89999861
80.147758 110.34 0
72.168945 87.442802 0.69332385
74.567268 94.443726 -0.89999861
80.072983 110.30538 0
72.133797 87.433022 0.6927433
74.535561 94.471191 -0.9004336
80.023819 110.34445 0
72.10038 87.428093 0.69230777
74.505508 94.503555 -0.90101415
79.940697 110.28505 0
72.080528 87.462448 0.69303387
74.466957 94.511307 -0.90086913
76.182739 99.512833 0
72.055542 87.48201 0.69332385
74.421677 94.499352 -0.90014356
76.158333 99.581711 0
72.032204 87.506485 0.69375944
74.389847 94.526688 -0.90057915
76.125389 99.625931 0
72.002121 87.511261 0.69361442
74.35128 94.534286 -0.9004336
64 64 0
71.968704 87.506142 0.69317889
74.314377 94.546768 -0.9004336
76.024277 99.610748 0
71.940292 87.515755 0.69317889
74.274147 94.549362 -0.90014356
75.959671 99.561127 0
71.908562 87.515472 0.69288832
74.263954 94.5802 -0.90086913
75.931557 99.548607 0
71.886086 87.495621 0.69216275
74.223709 94.582733 -0.90057915
75.886948 99.558067 0
71.854393 87.495277 0.69187278
74.191666 94.60984 -0.90101415
75.845612 99.577332 0
71.801376 87.430786 0.68969554
74.16449 94.651733 -0.90188527
75.80098 99.586685 0
71.776329 87.450073 0.68998611
74.133965 94.683731 -0.90246582
64 64 0
71.790359 87.587738 0.69375944
74.09201 94.681145 -0.90203029
64 64 0
71.773216 87.631683 0.69477499
74.079201 94.767395 -0.90420747
64 64 0
71.759224 87.685516 0.6960817
74.061356 94.838821 -0.90594858
75.603012 99.564133 0
71.719315 87.660286 0.69506556
74.040146 94.900391 -0.90740031
75.563248 99.58802 0
71.67305 87.615219 0.69346887
74.031601 95.001495 -0.91001254
75.520241 99.601967 0
71.618919 87.545387 0.69114721
74.05629 95.20649 -0.91567254
75.50116 99.690178 0
71.590462 87.554573 0.69114721
74.051926 95.322525 -0.9187203
75.488251 99.798218 0
71.574692 87.603294 0.69230777
74.047287 95.438599 -0.92176813
75.46875 99.886429 0
71.554085 87.637199 0.69303387
74.026634 95.505196 -0.92336476
75.444321 99.959778 0
71.525513 87.646301 0.69303387
74.041939 95.685715 -0.92829925
75.410294 100.00334 0
71.485947 87.620697 0.69201773
74.0271 95.772156 -0.93047595
79.779404 113.99907 0
71.460526 87.639633 0.69230777
74.0261 95.903229 -0.93395925
79.722099 114.02802 0
71.431953 87.648628 0.69230777
74.006165 95.974838 -0.93570095
79.684959 114.1215 0
71.398727 87.642723 0.69187278
74.003082 96.101013 -0.93903875
80.062592 115.54666 0
71.365509 87.636757 0.69143718
73.979691 96.16272 -0.94049042
80.052734 115.73505 0
71.341568 87.660538 0.69187278
73.963821 96.249222 -0.94266707
80.039375 115.91351 0
71.309906 87.659454 0.6915822
73.959656 96.304901 -0.94411874
75.930679 102.69807 0
71.287956 87.639038 0.69085664
73.940437 96.381493 -0.9460054
75.908356 102.79208 0
71.254807 87.632919 0.6904211
73.919533 96.453125 -0.94774711
75.849297 102.76662 0
71.217133 87.611855 0.68955052
73.913597 96.574448 -0.95093989
75.778198 102.70123 0
71.17347 87.570847 0.68809944
73.905876 96.690842 -0.95398766
75.726906 102.70051 0
71.131416 87.534721 0.68679273
73.893387 96.792343 -0.95659989
75.660591 102.64987 0
71.093971 87.513481 0.68592221
73.870201 96.859024 -0.95819658
75.652809 102.79353 0
71.038651 87.432457 0.68330997
73.872177 97.010315 -0.96225995
75.60891 102.81755 0
70.967148 87.296555 0.67910105
73.857498 97.106888 -0.96472716
75.56794 102.8515 0
70.876709 87.095772 0.67300546
73.845551 97.213455 -0.96748495
64 64 0
70.822212 87.014389 0.67039323
73.82531 97.441559 -0.97343498
64 64 0
70.749001 86.970978 0.66865158
73.795113 97.488327 -0.97445107
75.356644 102.82703 0
70.696434 86.894318 0.66618431
73.777885 97.579971 -0.97677332
75.328644 102.90569 0
70.652786 86.847504 0.66458768
73.72139 97.53685 -0.97517663
75.310608 103.01933 0
70.619385 86.835564 0.66400713
73.702469 97.623474 -0.97735387
75.300964 103.16298 0
70.590347 86.838554 0.66386211
73.654663 97.610199 -0.9766283
75.296745 103.32668 0
70.558441 86.831512 0.66342652
73.615471 97.626839 -0.97677332
75.289284 103.48042 0
70.545143 86.889397 0.66487819
73.552071 97.558456 -0.97445107
75.277199 103.61919 0
70.526016 86.927269 0.66574878
73.535599 97.654968 -0.97691834
75.267624 103.76798 0
70.502556 86.950142 0.66618431
73.524551 97.7715 -0.9799661
75.261948 103.93184 0
70.474823 86.957985 0.66618431
73.520248 97.913071 -0.98373944
75.254486 104.09074 0
70.461121 87.015816 0.66763544
73.547798 98.169792 -0.99085116
75.235443 104.20958 0
71.423431 90.567093 0.7703892
73.552452 98.346527 -0.99564064
75.230087 104.37859 0
71.337021 90.380775 0.76472861
75.244652 104.52578 0
71.291908 90.280067 0.76168138
75.21785 104.61961 0
70.419067 87.243309 0.67344105
75.200485 104.74858 0
70.41301 87.331223 0.67576325
75.159485 104.79219 0
70.390297 87.358986 0.67634326
75.123856 104.85587 0
70.362068 87.366692 0.67634326
71.548958 91.858681 -0.80609822
72.758995 96.324188 0
70.32296 87.334251 0.6751827
71.503113 91.822632 -0.80479211
64 64 0
70.283936 87.301735 0.6740216
71.46006 91.796539 -0.80377597
71.534111 92.072449 0
70.247688 87.27919 0.67315048
64 64 -0
71.514954 92.136841 0
70.204811 87.231506 0.67155433
64 64 -0
71.483627 92.155968 0
70.151367 87.143555 0.66879654
64 64 -0
71.442947 92.139832 0
70.110115 87.100739 0.66734546
71.316368 91.797081 -0.80275989
71.385094 92.058212 0
70.083519 87.113121 0.66749042
71.278824 91.790833 -0.80232489
71.319534 91.946274 0
70.0411 87.065147 0.66589379
71.251793 91.824745 -0.80305046
71.289703 91.970207 0
69.947701 86.821014 0.65863764
71.206429 91.788223 -0.80174434
71.25721 91.984032 0
69.854897 86.576675 0.65138096
71.16246 91.756653 -0.80058318
71.255898 92.118774 0
69.800346 86.478058 0.64833313
71.126328 91.755203 -0.80029267
64 64 0
69.778351 86.505188 0.64891368
71.100502 91.794022 -0.80116379
71.239456 92.337929 0
69.778168 86.617889 0.65196151
71.069473 91.812645 -0.80145377
71.177002 92.235687 0
69.763634 86.675209 0.65341264
71.046059 91.861473 -0.80261487
71.125015 92.173698 0
69.70565 86.561241 0.64992929
71.012383 91.869965 -0.80261487
71.097321 92.20752 0
69.65049 86.457253 0.6467365
70.968613 91.838089 -0.80145377
71.034157 92.099937 0
70.98748 91.913483 0.80362433
70.963852 91.962479 -0.80479211
70.972527 91.997314 0
70.980118 92.027802 0.8066721
70.945702 91.961624 -0.80464655
70.906677 91.804527 0
70.966949 92.04715 0.80710763
64 64 -0
70.841866 91.686531 0
70.908119 91.954636 0.80420488
64 64 -0
70.798462 91.654343 0
70.838356 91.81662 0.79999596
64 64 -0
70.778648 91.718155 0
70.77758 91.713814 0.79680318
64 64 -0
70.75499 91.766785 0
70.800598 91.954254 0.80347931
70.715309 91.749619 0
70.790039 92.058411 0.80623651
70.679344 91.747604 0
70.754913 92.061546 0.80609155
70.643387 91.745537 0
70.698006 91.973656 0.80333376
70.612267 91.763664 0
69.37957 86.587799 0.64847815
70.579918 91.776688 0
69.348679 86.579102 0.64804262
71.486855 95.776413 -0.91175419
70.54277 91.76944 0
69.322586 86.590622 0.64818817
71.424744 95.684242 -0.90885139
70.512772 91.792511 0
69.28817 86.566666 0.64731705
71.394707 95.728622 -0.90986753
70.48391 91.820633 0
69.260895 86.573044 0.64731705
71.336418 95.651474 -0.90740031
70.49025 92.000839 0
69.239487 86.604691 0.64804262
71.279488 95.579292 -0.90507805
70.487976 92.145615 0
69.221504 86.65152 0.64920372
71.254105 95.643784 -0.90667474
70.458618 92.173721 0
69.195297 86.662872 0.64934874
70.796577 93.813339 -0.85399175
71.242462 95.769203 0
69.172523 86.6894 0.64992929
70.761696 93.826591 -0.85413677
71.198311 95.752548 0
69.147408 86.70578 0.6502198
70.717651 93.799248 -0.85312063
71.150787 95.720604 0
69.129112 86.752541 0.65138096
70.673691 93.771858 -0.85210508
70.69236 93.855171 0
69.112984 86.809418 0.65283203
70.633186 93.759613 -0.85152453
70.665344 93.903877 0
69.12838 87.008324 0.65834707
70.594971 93.757446 -0.85123396
70.611191 93.83062 0
69.162415 87.293549 0.66632932
70.574753 93.751289 -0.85094398
70.581932 93.783775 0
69.173012 87.408295 0.66952211
70.53434 93.738907 -0.85036337
70.549294 93.806961 0
69.161453 87.490669 0.67169935
70.489525 93.706161 -0.84920228
70.513268 93.814857 0
69.69426 90.065804 0.74513632
70.445908 93.678429 -0.84818614
70.473923 93.807442 0
69.668274 90.098053 0.74586189
70.414429 93.706512 -0.84876674
70.437904 93.815239 0
69.658669 90.206459 0.7487641
70.342621 93.721931 -0.84876674
70.354973 93.779816 0
69.633286 90.397949 0.75384414
70.302391 93.709236 -0.84818614
70.317902 93.782387 0
69.55825 90.201385 0.74803853
70.268631 93.727005 -0.84847671
70.280838 93.784897 0
68.964722 87.54364 0.67198938
70.230576 93.72438 -0.84818614
70.246979 93.802658 0
68.944801 87.590317 0.67315048
70.189354 93.706451 -0.84746063
70.209908 93.805092 0
68.922661 87.626808 0.6740216
70.159782 93.744453 -0.84833175
70.165443 93.771797 0
68.901482 87.66835 0.67503715
70.139549 93.828217 -0.85050839
70.131561 93.789413 0
68.870781 87.664085 0.67474717
70.131622 93.973068 -0.85442674
70.083046 93.735611 0
69.56916 91.223602 0.7760492
70.122322 94.112869 -0.85820067
70.083405 93.921463 0
68.88916 88.047531 0.68534166
70.09211 94.150803 -0.8590712
70.091576 94.148163 0
68.86113 88.05851 0.68548661
70.06488 94.203995 -0.86037731
70.195518 94.854584 0
68.831032 88.059273 0.68534166
70.026344 94.201111 -0.86008734
64 64 0
68.79586 88.034523 0.68447107
69.995911 94.238953 -0.86095786
70.117897 94.854141 0
68.781975 88.116753 0.68664771
69.934258 94.118706 -0.85732955
64 64 0
68.778946 88.255074 0.6904211
69.868904 93.977959 -0.85312063
64 64 0
68.741653 88.220047 0.68926054
69.825737 93.949333 -0.85210508
64 64 0
68.698494 88.154335 0.68722832
69.808624 93.957939 -0.8522501
69.95665 94.721352 0
68.670052 88.085754 0.68519664
69.770454 93.954727 -0.85195953
69.917557 94.718315 0
68.631119 88.040352 0.6837455
69.731331 93.946381 -0.85152453
64 64 0
68.595222 88.010201 0.68272942
69.694168 93.948181 -0.85137951
69.81414 94.579132 0
68.555534 87.959564 0.68113273
69.657013 93.949921 -0.85123396
69.783943 94.621925 0
68.515968 87.908897 0.67953658
69.611237 93.905663 -0.84978282
69.714302 94.454964 0
68.478455 87.86837 0.67823046
69.587479 93.978836 -0.85166949
69.703255 94.600006 0
68.445801 87.853333 0.67764992
69.555031 94.006004 -0.8522501
64 64 0
68.418869 87.868896 0.67793995
69.514076 93.987137 -0.85152453
69.573753 94.311684 0
68.384384 87.843559 0.67706937
69.491837 94.07045 -0.85370117
69.556763 94.425919 0
68.34623 87.797707 0.67561769
69.45179 94.05661 -0.85312063
69.515343 94.40699 0
68.297997 87.695564 0.67256993
69.406258 94.012039 -0.85166949
69.476753 94.403397 0
68.248177 87.583115 0.66923213
69.389206 94.125977 -0.85471731
69.462013 94.532959 0
68.20961 87.531952 0.66763544
69.367348 94.214333 -0.85703951
69.39325 94.360168 0
68.187538 87.572845 0.66865158
69.295631 94.021217 -0.85137951
64 64 0
68.171684 87.649529 0.67068326
69.282661 94.160675 -0.85515285
64 64 0
68.149384 87.690392 0.67169935
69.233742 94.095345 -0.85312063
64 64 0
68.123428 87.710754 0.67213494
69.228325 94.280891 -0.85820067
64 64 0
