# .PCD v0.7 - Point Cloud Data file format
VERSION 0.7
FIELDS x y z
SIZE 4 4 4
TYPE F F F
COUNT 1 1 1
WIDTH 1844
HEIGHT 1
VIEWPOINT 0 0 0 1 0 0 0
POINTS 1844
DATA ascii
64 64 -0
64 64 -0
52.083302 64.100792 -0.33282253
52.120567 64.100479 0
52.104309 64.100616 0.33223584
64 64 -0
64 64 -0
64 64 -0
64 64 -0
64 64 -0
54.993217 64.0653 -0.25154889
52.099632 64.086281 0
52.093811 64.086319 0.33252582
64 64 -0
64 64 -0
64 64 -0
64 64 -0
64 64 -0
55.102272 64.053757 -0.24850109
52.135979 64.071678 0
52.093716 64.07193 0.33252582
64 64 -0
64 64 -0
64 64 -0
64 64 -0
64 64 -0
55.174957 64.042656 -0.24646941
52.130699 64.057365 0
52.098831 64.057518 0.33238083
64 64 -0
64 64 -0
64 64 -0
64 64 -0
64 64 -0
55.216511 64.037148 -0.24530829
52.125446 64.050217 0
52.103989 64.050308 0.33223584
64 64 -0
64 64 -0
64 64 -0
64 64 -0
64 64 -0
55.242451 64.026451 -0.24458274
55.175362 64.026657 0
52.088364 64.03598 0.33267084
64 64 -0
64 64 -0
64 64 -0
64 64 -0
64 64 -0
55.242424 64.015869 -0.24458274
55.185734 64.015976 0
52.119499 64.02153 0.33180028
64 64 -0
64 64 -0
64 64 -0
64 64 -0
64 64 -0
55.237221 64.005295 -0.24472775
55.211761 64.00531 0
55.362186 64.005219 0.2412377
64 64 -0
64 64 -0
64 64 -0
64 64 -0
64 64 -0
55.148891 63.983959 -0.24719498
55.232594 63.984108 0
55.403774 63.984421 0.24007659
64 64 -0
64 64 -0
64 64 -0
64 64 -0
64 64 -0
55.107342 63.973137 -0.24835609
55.190979 63.973389 0
55.3778 63.973953 0.24080271
64 64 -0
64 64 -0
64 64 -0
64 64 -0
64 64 -0
55.174934 63.962677 -0.24646941
55.086922 63.962307 0
55.2999 63.963207 0.24297938
64 64 -0
64 64 -0
64 64 -0
64 64 -0
64 64 -0
55.211369 63.952213 -0.2454533
54.951653 63.950802 0
55.294758 63.952667 0.24312438
64 64 -0
64 64 -0
64 64 -0
64 64 -0
64 64 -0
55.258202 63.941902 -0.24414718
54.925701 63.939693 0
52.072975 63.920734 0.3331064
64 64 -0
64 64 -0
64 64 -0
64 64 -0
64 64 -0
55.273872 63.931465 -0.24371162
54.94138 63.928852 0
52.104248 63.90657 0.33223584
64 64 -0
64 64 -0
64 64 -0
64 64 -0
64 64 -0
55.284344 63.921013 -0.24342163
54.910255 63.917625 0
52.078392 63.89196 0.33296138
64 64 -0
64 64 -0
64 64 -0
64 64 -0
64 64 -0
55.258469 63.910217 -0.24414718
54.821884 63.905731 0
52.094128 63.877716 0.33252582
64 64 -0
64 64 -0
64 64 -0
64 64 -0
64 64 -0
55.284561 63.899952 -0.24342163
54.785568 63.894222 0
52.099476 63.863388 0.33238083
64 64 -0
64 64 -0
64 64 -0
64 64 -0
64 64 -0
55.300282 63.889618 -0.24298607
54.853355 63.883949 0
52.078865 63.848747 0.33296138
64 64 -0
64 64 -0
64 64 -0
64 64 -0
64 64 -0
55.284828 63.878891 -0.24342163
55.030445 63.875355 0
52.084244 63.834415 0.33281639
64 64 -0
64 64 -0
64 64 -0
64 64 -0
64 64 -0
55.284981 63.868359 -0.24342163
55.181526 63.866798 0
52.079262 63.819939 0.33296138
64 64 -0
64 64 -0
64 64 -0
64 64 -0
64 64 -0
55.311123 63.858253 -0.24269606
55.353432 63.858944 0
52.084679 63.805618 0.33281639
64 64 -0
64 64 -0
64 64 -0
64 64 -0
64 64 -0
55.321701 63.847939 -0.2424055
55.46809 63.850502 0
52.084923 63.791222 0.33281639
64 64 -0
64 64 -0
64 64 -0
64 64 -0
64 64 -0
55.332176 63.842884 -0.24211551
55.520233 63.846291 0
52.079861 63.783928 0.33296138
64 64 -0
64 64 -0
64 64 -0
64 64 -0
64 64 -0
55.233665 63.830502 -0.24487273
55.483994 63.835342 0
52.106106 63.770027 0.33223584
64 64 -0
64 64 -0
64 64 -0
64 64 -0
64 64 -0
55.119579 63.817558 -0.24806553
55.494595 63.825264 0
52.080418 63.755123 0.33296138
64 64 -0
64 64 -0
64 64 -0
64 64 -0
64 64 -0
54.98473 63.80389 -0.25183886
52.128147 63.741753 0
52.101505 63.741173 0.33238083
64 64 -0
64 64 -0
64 64 -0
64 64 -0
64 64 -0
54.990162 63.793118 -0.25169387
52.112873 63.727051 0
52.107018 63.726917 0.33223584
64 64 -0
64 64 -0
64 64 -0
64 64 -0
64 64 -0
54.954048 63.781353 -0.25270998
52.113213 63.712688 0
52.081383 63.711918 0.33296138
64 64 -0
64 64 -0
64 64 -0
64 64 -0
64 64 -0
54.96991 63.770817 -0.25227442
52.118767 63.698456 0
52.09214 63.697781 0.33267084
64 64 -0
64 64 -0
64 64 -0
64 64 -0
64 64 -0
55.027321 63.761425 -0.25067833
52.124336 63.684238 0
52.097706 63.683529 0.33252582
64 64 -0
64 64 -0
64 64 -0
64 64 -0
55.573517 63.765759 -0.46979424
55.214634 63.755783 -0.2454533
52.11953 63.669746 0
52.092907 63.669006 0.33267084
64 64 -0
64 64 -0
64 64 -0
52.259285 63.659431 -0.9790839
55.692741 63.759029 -0.46316323
55.391544 63.75029 -0.24051884
52.125134 63.65554 0
52.098503 63.65477 0.33252582
64 64 -0
64 64 -0
64 64 -0
52.449577 63.650982 -0.9632495
55.346622 63.738522 -0.48247799
55.464565 63.742088 -0.23848715
52.135975 63.641506 0
52.083344 63.639915 0.33296138
64 64 -0
64 64 -0
64 64 -0
52.403831 63.635574 -0.9671008
55.636467 63.737164 -0.46633473
64 64 -0
52.120804 63.626682 0
52.099373 63.626007 0.33252582
64 64 -0
64 64 -0
64 64 -0
52.491508 63.624413 -0.95982575
55.621277 63.726555 -0.46719986
64 64 -0
52.13166 63.612667 0
52.094646 63.611458 0.33267084
64 64 -0
64 64 -0
64 64 -0
52.30212 63.60408 -0.97566015
55.595764 63.715553 -0.46864107
55.507111 63.712555 -0.23732604
52.126938 63.598152 0
52.100311 63.597248 0.33252582
64 64 -0
64 64 -0
64 64 -0
52.343655 63.591385 -0.97223639
55.570274 63.704494 -0.47008225
55.502274 63.70211 -0.23747104
52.163849 63.585083 0
52.095619 63.582691 0.33267084
64 64 -0
64 64 -0
64 64 -0
52.385204 63.578789 -0.96881264
52.350166 63.577518 -0.64967871
55.487053 63.691277 -0.23790661
52.081135 63.56776 0
52.085735 63.567928 0.33296138
64 64 -0
64 64 -0
64 64 -0
52.3498 63.563408 -0.97180885
52.34034 63.563053 -0.65025586
55.534168 63.682743 -0.23660049
52.097275 63.553947 0
52.091454 63.553726 0.33281639
64 64 -0
64 64 -0
64 64 -0
52.329819 63.548538 -0.9735207
52.263355 63.545967 -0.6545794
55.555328 63.673317 -0.23601992
55.207916 63.659878 0
52.107586 63.53994 0.33238083
64 64 -0
64 64 -0
64 64 -0
52.381401 63.543503 -0.96924025
55.545757 63.667831 -0.47152343
55.539963 63.667603 -0.23645493
55.218536 63.654976 0
52.092285 63.532143 0.33281639
64 64 -0
64 64 -0
64 64 -0
52.387089 63.529675 -0.96881264
55.556492 63.658035 -0.47094738
55.514393 63.65633 -0.23718105
55.244957 63.645416 0
52.103252 63.518177 0.33252582
64 64 -0
64 64 -0
64 64 -0
52.356876 63.514359 -0.97138131
55.582771 63.648911 -0.4695051
55.483673 63.644779 -0.23805161
52.068054 63.502312 0
52.103844 63.503803 0.33252582
64 64 -0
64 64 -0
64 64 -0
52.342098 63.49963 -0.97266394
55.593525 63.639183 -0.46892908
55.468525 63.63382 -0.23848715
52.089466 63.488785 0
52.088871 63.488762 0.33296138
64 64 -0
64 64 -0
64 64 -0
52.363228 63.48645 -0.97095209
55.583641 63.628571 -0.4695051
55.422253 63.621449 -0.23979327
52.095287 63.474625 0
52.105076 63.475056 0.33252582
64 64 -0
64 64 -0
64 64 -0
52.415138 63.474712 -0.96667325
55.594421 63.61887 -0.46892908
55.318886 63.606377 -0.24269606
52.106339 63.460712 0
52.100533 63.460449 0.33267084
64 64 -0
64 64 -0
64 64 -0
52.34399 63.457375 -0.97266394
55.584564 63.608234 -0.4695051
55.241512 63.592262 -0.24487273
52.096592 63.445858 0
52.12196 63.447037 0.33209026
64 64 -0
64 64 -0
64 64 -0
52.385681 63.445251 -0.96924025
55.600529 63.598804 -0.46864107
55.288727 63.583912 -0.24356662
52.107677 63.431973 0
52.143402 63.433678 0.33150971
64 64 -0
64 64 -0
64 64 -0
52.447876 63.434231 -0.96410626
55.601021 63.588657 -0.46864107
55.299625 63.573895 -0.24327606
52.097965 63.417091 0
52.149277 63.419605 0.33136472
64 64 -0
64 64 -0
64 64 -0
52.361401 63.415897 -0.97138131
55.601524 63.578506 -0.46864107
55.248234 63.560776 -0.24472775
52.072693 63.401409 0
52.17075 63.40633 0.33078414
64 64 -0
64 64 -0
64 64 -0
52.321117 63.399727 -0.97480339
55.545227 63.565441 -0.47181144
55.12421 63.5438 -0.24821109
52.099411 63.388332 0
52.176659 63.392303 0.33063915
64 64 -0
64 64 -0
52.362846 63.387772 -0.97138131
55.571583 63.556583 -0.47037026
55.05212 63.529255 -0.25024277
52.115753 63.374775 0
52.167015 63.377468 0.33092973
64 64 -0
64 64 -0
54.995552 63.515369 -0.99882036
52.378979 63.374538 -0.97009701
55.561783 63.545841 -0.47094738
55.042328 63.517883 -0.25053278
52.13731 63.361534 0
52.178162 63.363731 0.33063915
64 64 -0
64 64 -0
52.420753 63.362755 -0.96667325
55.784447 63.547871 -0.45855054
55.053284 63.507633 -0.25024277
52.14328 63.347485 0
52.163368 63.348591 0.33107471
64 64 -0
64 64 -0
52.339516 63.344151 -0.9735207
52.283428 63.340996 -0.65400338
52.106865 63.331066 -0.33267751
52.17527 63.334915 0
52.164165 63.33429 0.33107471
64 64 -0
64 64 -0
52.376202 63.332123 -0.97052455
52.397842 63.333366 -0.64766151
52.138802 63.318485 -0.33180696
52.170891 63.320328 0
52.18055 63.320885 0.33063915
64 64 -0
64 64 -0
52.469265 63.323494 -0.96282196
52.579403 63.329952 -0.63757098
64 64 -0
52.171719 63.306034 0
52.176193 63.306297 0.33078414
64 64 -0
64 64 -0
52.434231 63.307411 -0.9658165
52.275578 63.297913 -0.6545794
52.207916 63.293861 -0.32992029
52.229706 63.295166 0
52.166656 63.291389 0.33107471
64 64 -0
64 64 -0
55.014523 63.451031 -0.99713117
52.429935 63.293125 -0.96624571
52.410671 63.291946 -0.64708436
52.162098 63.27676 -0.33122641
52.240967 63.281578 0
52.167519 63.277092 0.33107471
64 64 -0
64 64 -0
52.512356 63.291195 -0.95939821
52.369797 63.282398 -0.6493907
52.17292 63.270248 -0.33093584
52.236191 63.274155 0
52.173141 63.270264 0.33092973
64 64 -0
64 64 -0
52.446613 63.273121 -0.96496135
52.396481 63.26997 -0.64794952
52.184177 63.256611 -0.33064586
52.247475 63.260593 0
52.158485 63.254993 0.33136472
64 64 -0
64 64 -0
55.001003 63.422913 -0.99882036
52.493607 63.262119 -0.96111006
52.37672 63.254623 -0.64910269
52.164337 63.241005 -0.33122641
52.232792 63.245396 0
52.159397 63.240688 0.33136472
64 64 -0
64 64 -0
52.397182 63.241859 -0.96924025
52.42926 63.243954 -0.64621919
52.222313 63.230431 -0.32962972
52.24411 63.231857 0
52.175865 63.227398 0.33092973
64 64 -0
64 64 -0
52.433952 63.230225 -0.96624571
52.388889 63.227226 -0.64852554
52.238792 63.217236 -0.32919472
52.23465 63.216961 0
52.171627 63.212765 0.33107471
64 64 -0
64 64 -0
52.424652 63.215557 -0.9671008
52.420788 63.215294 -0.64679635
52.219028 63.201622 -0.32977474
52.245998 63.203449 0
52.188148 63.199528 0.33063915
64 64 -0
64 64 -0
52.446098 63.202984 -0.96538895
52.406258 63.200233 -0.64766151
52.240719 63.188816 -0.32919472
52.231388 63.188171 0
52.163204 63.183468 0.33136472
64 64 -0
56.945496 63.504799 -0.97555315
52.452187 63.189381 -0.96496135
52.422718 63.187313 -0.64679635
52.220993 63.173153 -0.32977474
52.237564 63.174316 0
52.184937 63.170624 0.33078414
64 64 -0
57.111252 63.508068 -0.95271248
52.401974 63.171772 -0.96924025
52.43404 63.174065 -0.64621919
52.232357 63.15966 -0.32948473
52.228195 63.159363 0
52.175568 63.155605 0.33107471
64 64 -0
57.13187 63.501198 -0.94994384
52.469547 63.162594 -0.96367705
52.414406 63.158588 -0.64737236
52.228203 63.145065 -0.32962972
52.229221 63.145142 0
52.181778 63.141693 0.33092973
64 64 -0
57.092445 63.489944 -0.95548111
52.429604 63.145638 -0.9671008
52.45153 63.147255 -0.64535517
52.239601 63.131607 -0.32933974
52.230263 63.130917 0
52.16729 63.126266 0.33136472
64 64 -0
56.987999 63.473713 -0.97001582
52.405052 63.129738 -0.96924025
52.395844 63.129047 -0.64852554
52.219929 63.115841 -0.32992029
52.252083 63.118256 0
52.173531 63.112362 0.3312197
64 64 -0
56.984295 63.456379 -0.97070736
52.432777 63.103703 -0.9671008
52.428917 63.103401 -0.64679635
52.242825 63.088982 -0.32933974
52.243858 63.089062 0
52.196434 63.085388 0.33063915
64 64 -0
57.125015 63.458927 -0.95132685
52.35709 63.083683 -0.9735207
52.352669 63.083336 -0.65111989
52.249107 63.075184 -0.32919472
52.229397 63.073635 0
52.18718 63.070312 0.33092973
64 64 -0
57.055641 63.445023 -0.96101844
52.363338 63.070026 -0.97309154
64 64 -0
52.24506 63.060574 -0.32933974
52.235729 63.059826 0
52.188309 63.056038 0.33092973
64 64 -0
56.991306 63.431358 -0.97001582
64 64 -0
52.365219 63.056026 -0.65054387
52.256573 63.047211 -0.32904917
52.242058 63.046036 0
52.194653 63.042187 0.33078414
64 64 -0
57.022011 63.425362 -0.96586156
64 64 -0
64 64 -0
52.231842 63.030891 -0.32977474
52.232834 63.030972 0
52.190624 63.027496 0.33092973
64 64 -0
57.117355 63.429028 -0.95271248
64 64 -0
64 64 -0
52.253124 63.025497 -0.32919472
52.248985 63.025154 0
52.186043 63.019932 0.33107471
64 64 -0
57.078049 63.417343 -0.95824975
52.377598 63.021683 -0.97223639
64 64 -0
64 64 -0
52.250172 63.010956 0
52.192406 63.006096 0.33092973
64 64 -0
57.103752 63.411114 -0.95478964
52.435062 63.012444 -0.96752834
64 64 -0
52.224457 62.994461 -0.33006528
52.241013 62.995876 0
52.188446 62.991386 0.33107471
64 64 -0
57.094479 63.401917 -0.95617265
52.359535 62.991825 -0.9739483
64 64 -0
52.220509 62.979786 -0.3302103
52.247417 62.982117 0
52.194843 62.977562 0.33092973
64 64 -0
57.095207 63.393574 -0.95617265
52.381218 62.979557 -0.97223639
52.387215 62.980083 -0.64967871
52.226921 62.966007 -0.33006528
52.259014 62.968826 0
52.206451 62.964211 0.33063915
64 64 -0
57.170898 63.391907 -0.9457922
52.346657 62.962334 -0.9752326
52.383305 62.965595 -0.64996672
52.22818 62.951782 -0.33006528
52.255089 62.954178 0
52.192177 62.948578 0.33107471
64 64 -0
57.131676 63.380047 -0.95132685
64 64 -0
52.338181 62.947372 -0.6525622
52.219112 62.936626 -0.33035529
52.246006 62.939053 0
52.193459 62.934311 0.33107471
64 64 -0
57.077465 63.366718 -0.95894128
52.354328 62.934643 -0.97480339
52.375526 62.936581 -0.65054387
52.215218 62.921917 -0.33050084
52.273209 62.927223 0
52.189583 62.919571 0.3312197
64 64 -0
57.183147 63.36808 -0.94440651
52.386288 62.923416 -0.97223639
52.381966 62.923016 -0.65025586
52.252754 62.911037 -0.32948473
52.243404 62.910172 0
52.201237 62.906261 0.33092973
64 64 -0
57.153954 63.357029 -0.94855815
52.387596 62.909382 -0.97223639
52.372986 62.908009 -0.65083188
52.248909 62.896358 -0.32962972
52.249928 62.896454 0
52.187057 62.890549 0.33136472
64 64 -0
57.124756 63.345905 -0.95271248
52.383816 62.894867 -0.97266394
52.389767 62.895432 -0.64996672
52.234726 62.880684 -0.33006528
52.25127 62.882256 0
52.203915 62.87775 0.33092973
64 64 -0
57.150517 63.340004 -0.94925231
52.405602 62.882801 -0.97095209
52.380802 62.880413 -0.65054387
52.205059 62.863476 -0.33093584
52.252628 62.868061 0
52.184608 62.861507 0.33150971
64 64 -0
57.171295 63.333679 -0.94648367
52.391624 62.867294 -0.97223639
64 64 -0
52.237465 62.852253 -0.33006528
52.254005 62.853867 0
52.206661 62.849247 0.33092973
64 64 -0
57.182102 63.326416 -0.94509804
52.382797 62.852261 -0.97309154
52.424725 62.856403 -0.64823753
52.228527 62.837021 -0.33035529
52.265747 62.840698 0
52.187393 62.832958 0.33150971
64 64 -0
57.152954 63.315182 -0.94925231
52.389294 62.838737 -0.97266394
52.420975 62.841904 -0.64852554
52.214424 62.821247 -0.33079085
52.251617 62.824966 0
52.193977 62.819202 0.33136472
64 64 -0
57.11385 63.302864 -0.95478964
52.395809 62.825226 -0.97223639
52.417221 62.827393 -0.64881468
52.215855 62.807007 -0.33079085
52.247871 62.810246 0
52.200577 62.805458 0.3312197
64 64 -0
57.124691 63.29557 -0.95340395
52.397236 62.811203 -0.97223639
52.418644 62.813396 -0.64881468
52.217308 62.792767 -0.33079085
52.238972 62.794987 0
52.1917 62.790146 0.33150971
64 64 -0
57.135521 63.288296 -0.952021
52.398682 62.797184 -0.97223639
52.425247 62.799938 -0.64852554
52.229103 62.779602 -0.33050084
52.266315 62.783463 0
52.198334 62.776413 0.33136472
64 64 -0
57.160915 63.286755 -0.94855815
52.389206 62.789112 -0.97309154
52.425972 62.792946 -0.64852554
52.209167 62.770336 -0.33108142
52.261883 62.775833 0
52.193913 62.768745 0.33150971
64 64 -0
57.161785 63.278488 -0.94855815
52.390678 62.775082 -0.97309154
52.437721 62.780048 -0.64794952
52.221008 62.757179 -0.33079085
52.247833 62.760014 0
52.210899 62.756115 0.33107471
64 64 -0
57.132717 63.267033 -0.95271248
52.402367 62.762146 -0.97223639
52.418625 62.763882 -0.64910269
52.217354 62.742397 -0.33093584
52.223469 62.74305 0
52.186577 62.739113 0.33180028
64 64 -0
57.203438 63.266273 -0.94302356
52.388554 62.746479 -0.9735207
52.399559 62.747665 -0.65025586
52.213699 62.727604 -0.33108142
52.266396 62.733292 0
52.198452 62.725956 0.33150971
64 64 -0
57.174412 63.254795 -0.9471752
52.390076 62.732449 -0.9735207
52.426785 62.736458 -0.64881468
52.215248 62.713364 -0.33108142
52.247238 62.716854 0
52.200001 62.711697 0.33150971
64 64 -0
57.100502 63.238289 -0.95755827
52.412029 62.720676 -0.97180885
52.418045 62.72134 -0.6493907
52.221992 62.699696 -0.33093584
52.269493 62.704941 0
52.201569 62.697441 0.33150971
64 64 -0
57.111412 63.231068 -0.95617265
52.388077 62.703827 -0.9739483
52.424736 62.70792 -0.64910269
52.301025 62.694111 -0.32875916
52.265877 62.690189 0
52.203148 62.683186 0.33150971
64 64 -0
57.122307 63.223869 -0.95478964
52.384552 62.689224 -0.97437584
52.405746 62.691616 -0.65025586
52.323273 62.682308 -0.32817861
52.262302 62.675426 0
52.189251 62.667183 0.33194527
64 64 -0
57.178093 63.221813 -0.9471752
52.38105 62.674606 -0.97480339
52.417625 62.67878 -0.64967871
52.288723 62.664074 -0.32919472
52.263908 62.661247 0
52.185711 62.652325 0.33209026
64 64 -0
57.169079 63.212421 -0.94855815
52.38266 62.660568 -0.97480339
52.424362 62.665379 -0.6493907
52.310997 62.652306 -0.32861418
52.265537 62.647064 0
52.140869 62.63269 0.33339694
64 64 -0
57.170033 63.20417 -0.94855815
64 64 -0
64 64 -0
52.410564 62.649593 -0.65025586
52.291985 62.635777 -0.32919472
52.256851 62.631683 0
52.101254 62.613556 0.3345575
64 64 -0
57.171001 63.195919 -0.94855815
52.380817 62.631897 -0.9752326
52.422489 62.636803 -0.64967871
52.29882 62.622242 -0.32904917
52.248161 62.616276 0
52.092606 62.597961 0.33484805
64 64 -0
57.211819 63.192406 -0.94302356
52.372292 62.616646 -0.97608769
52.419014 62.622204 -0.64996672
52.285004 62.606262 -0.32948473
52.255005 62.602692 0
52.068512 62.580505 0.33557361
64 64 -0
57.172962 63.179417 -0.94855815
52.384155 62.603821 -0.9752326
52.420685 62.608212 -0.64996672
52.297009 62.593346 -0.32919472
52.272213 62.590366 0
52.059906 62.56485 0.33586419
64 64 -0
57.193863 63.173584 -0.9457922
52.390965 62.590408 -0.97480339
52.412094 62.592972 -0.65054387
52.30389 62.579834 -0.32904917
52.175766 62.564278 0
52.071976 62.551674 0.33557361
57.219784 63.168419 -0.94232941
52.392677 62.576382 -0.97480339
52.424084 62.580235 -0.64996672
52.305614 62.565704 -0.32904917
52.136177 62.544922 0
52.089214 62.539162 0.33513805
64 64 -0
57.17099 63.154057 -0.94925231
52.389294 62.561726 -0.9752326
52.425808 62.566246 -0.64996672
52.286724 62.549019 -0.32962972
52.148266 62.531868 0
52.085815 62.524132 0.33528361
64 64 -0
57.151585 63.147453 -0.952021
52.390167 62.55471 -0.9752326
52.416397 62.557976 -0.65054387
52.308231 62.54451 -0.32904917
52.133675 62.522781 0
52.076408 62.515652 0.33557361
64 64 -0
57.192448 63.144184 -0.94648367
52.412296 62.543243 -0.9735207
52.428425 62.545273 -0.64996672
52.289375 62.52779 -0.32962972
52.130287 62.507793 0
52.083359 62.501892 0.33542863
64 64 -0
57.158657 63.131538 -0.95132685
52.408978 62.528599 -0.9739483
52.419918 62.529987 -0.65054387
52.280842 62.512333 -0.32992029
52.121784 62.492142 0
52.080029 62.486839 0.33557361
64 64 -0
57.214443 63.130287 -0.94371504
52.415852 62.515247 -0.9735207
52.426826 62.516651 -0.65025586
52.256878 62.494869 -0.33064586
52.128773 62.478451 0
52.071545 62.471115 0.33586419
64 64 -0
57.195595 63.119514 -0.94648367
52.407478 62.499935 -0.97437584
52.428627 62.50267 -0.65025586
52.24324 62.47868 -0.33108142
52.130619 62.464108 0
52.073402 62.456703 0.33586419
64 64 -0
57.206623 63.112595 -0.94509804
52.419472 62.487255 -0.9735207
52.420197 62.48735 -0.65083188
52.20388 62.459095 -0.33224195
52.142815 62.451118 0
52.08559 62.443642 0.33557361
57.197742 63.103073 -0.94648367
52.426414 62.473938 -0.97309154
52.422035 62.473358 -0.65083188
52.174828 62.440765 -0.33311307
52.124054 62.434071 0
52.077168 62.427887 0.33586419
64 64 -0
57.218727 63.0975 -0.94371504
52.43335 62.460632 -0.97266394
52.418762 62.458691 -0.65111989
52.161263 62.424419 -0.33354864
52.115627 62.418346 0
52.08424 62.414169 0.33571863
57.214851 63.088642 -0.94440651
52.430138 62.445972 -0.97309154
52.420635 62.444698 -0.65111989
52.168339 62.410809 -0.33340308
52.133026 62.406067 0
52.070709 62.397697 0.33615416
57.206005 63.079094 -0.9457922
52.421837 62.430614 -0.9739483
52.355869 62.421673 -0.65486854
52.170265 62.396515 -0.33340308
52.134964 62.391727 0
52.082943 62.384678 0.33586419
57.202156 63.070206 -0.94648367
52.428825 62.41732 -0.9735207
52.332165 62.404099 -0.65630972
52.156761 62.380108 -0.33383864
52.126591 62.37598 0
52.090069 62.370987 0.33571863
64 64 -0
57.188389 63.059937 -0.94855815
55.072235 62.767887 -0.99825591
52.4104 62.400532 -0.9752326
52.231632 62.375862 -0.66207445
52.163872 62.366508 -0.33369362
52.149185 62.364483 0
52.076595 62.354465 0.33615416
57.214371 63.055164 -0.94509804
55.088814 62.759201 -0.99656886
52.412342 62.386528 -0.9752326
52.213108 62.358788 -0.66322762
52.150406 62.350056 -0.33412918
52.140869 62.348728 0
52.07859 62.340057 0.33615416
64 64 -0
57.190681 63.04348 -0.94855815
55.075237 62.746319 -0.99825591
52.373627 62.366814 -0.97865635
52.184357 62.340229 -0.66495794
52.172997 62.338631 -0.33354864
52.137726 62.333679 0
52.085747 62.326378 0.33600917
64 64 -0
57.201767 63.036659 -0.9471752
55.071712 62.734821 -0.99882036
52.340038 62.347729 -0.98165089
52.181252 62.325226 -0.66524595
52.175011 62.324345 -0.33354864
52.134579 62.318615 0
52.08778 62.311981 0.33600917
64 64 -0
57.217842 63.030575 -0.94509804
55.083321 62.725471 -0.99769354
52.331871 62.332188 -0.98250765
52.193516 62.312412 -0.66466993
52.171906 62.309322 -0.33369362
52.146935 62.305752 0
52.079548 62.29612 0.33629918
64 64 -0
57.219017 63.022381 -0.94509804
55.084866 62.714699 -0.99769354
52.303413 62.313694 -0.98507458
52.190449 62.297409 -0.66495794
52.163677 62.293549 -0.33398363
52.143845 62.290688 0
52.07132 62.280235 0.33658972
64 64 -0
57.215225 63.013466 -0.9457922
55.09145 62.704659 -0.99713117
52.315613 62.301041 -0.98421949
52.182285 62.281654 -0.66553396
52.176025 62.280743 -0.33369362
52.125313 62.273369 0
52.083702 62.267319 0.33629918
64 64 -0
57.151283 62.999943 -0.95478964
55.09726 62.700008 -0.99656886
52.311565 62.29324 -0.98464704
52.183327 62.274513 -0.66553396
52.171928 62.27285 -0.33383864
52.131504 62.266945 0
52.064178 62.257114 0.33687973
64 64 -0
57.222 63.0019 -0.94509804
55.098835 62.689255 -0.99656886
52.31871 62.279865 -0.98421949
52.195648 62.261742 -0.66495794
52.153458 62.255531 -0.33441919
52.154205 62.255638 0
52.091995 62.246479 0.33615416
64 64 -0
57.18351 62.987816 -0.95063531
55.100426 62.678497 -0.99656886
52.31065 62.264244 -0.98507458
52.187531 62.245964 -0.66553396
52.155575 62.241219 -0.33441919
52.156319 62.241329 0
52.078697 62.229801 0.33658972
64 64 -0
57.199627 62.981812 -0.94855815
55.091988 62.666245 -0.99769354
52.312756 62.250122 -0.98507458
52.199883 62.233223 -0.66495794
52.157707 62.226906 -0.33441919
52.143005 62.224705 0
52.080845 62.215397 0.33658972
64 64 -0
57.215733 62.975838 -0.94648367
55.098625 62.656239 -0.99713117
52.340256 62.23983 -0.98293519
52.191803 62.217422 -0.66553396
52.190681 62.217251 -0.33354864
52.150303 62.211155 0
52.077877 62.200222 0.33673474
64 64 -0
57.198387 62.956402 -0.94925231
55.106918 62.635502 -0.99656886
52.354702 62.213219 -0.98207843
52.201256 62.189674 -0.66524595
52.164215 62.18399 -0.33441919
52.123802 62.177792 0
52.087395 62.172203 0.33658972
64 64 -0
57.244278 62.955086 -0.94302356
55.103554 62.623981 -0.99713117
52.336575 62.196011 -0.98379028
52.193237 62.17384 -0.66582197
52.166416 62.169693 -0.33441919
52.146587 62.166626 0
52.089611 62.15781 0.33658972
64 64 -0
57.205902 62.940746 -0.94855815
55.120293 62.615582 -0.99544203
52.328609 62.180336 -0.98464704
52.19545 62.159576 -0.66582197
52.173767 62.156193 -0.3342742
52.128239 62.149097 0
52.148335 62.152229 0.33499306
64 64 -0
57.147705 62.923187 -0.95686412
55.126987 62.60564 -0.99487966
52.325748 62.165436 -0.98507458
52.192558 62.144508 -0.66611111
52.155468 62.13868 -0.33485475
52.151051 62.137985 0
52.150574 62.137909 0.33499306
64 64 -0
57.223335 62.926682 -0.94648367
55.123665 62.594128 -0.99544203
52.317822 62.149723 -0.98593134
52.194809 62.130241 -0.66611111
52.173126 62.126808 -0.33441919
52.148174 62.122856 0
52.147705 62.12278 0.33513805
64 64 -0
57.224636 62.918495 -0.94648367
55.120354 62.582603 -0.99600434
52.309937 62.133995 -0.98678648
52.191975 62.115166 -0.66639912
52.154873 62.109241 -0.33499974
52.104195 62.101154 0
52.160236 62.1101 0.33484805
64 64 -0
57.196236 62.905529 -0.95063531
55.142143 62.575104 -0.99375284
52.307137 62.119057 -0.98721403
52.178932 62.098431 -0.66726428
52.187943 62.09988 -0.33412918
52.152744 62.094219 0
52.147133 62.093315 0.33528361
64 64 -0
57.227272 62.902122 -0.94648367
55.123806 62.561146 -0.99600434
52.324608 62.107391 -0.98593134
52.196564 62.086636 -0.66639912
52.179996 62.08395 -0.33441919
52.119087 62.074074 0
52.139194 62.077335 0.33557361
64 64 -0
57.18404 62.886662 -0.95271248
55.135574 62.552059 -0.99487966
52.301571 62.089146 -0.98807079
52.183563 62.06987 -0.66726428
52.18232 62.069668 -0.33441919
52.136837 62.062237 0
52.156918 62.065517 0.33513805
64 64 -0
57.249748 62.889019 -0.94371504
55.13232 62.540527 -0.99544203
52.298828 62.074181 -0.98849833
52.185905 62.055595 -0.66726428
52.169273 62.052856 -0.33485475
52.144318 62.048752 0
52.16951 62.052895 0.33484805
64 64 -0
57.181805 62.869373 -0.95340395
55.114037 62.526485 -0.99769354
52.311283 62.061722 -0.98764324
52.193382 62.042168 -0.66697514
52.176758 62.039413 -0.33470976
52.136406 62.032722 0
52.151363 62.035202 0.33542863
64 64 -0
57.123096 62.85537 -0.96170992
55.129971 62.523621 -0.99600434
52.312454 62.054661 -0.98764324
52.189445 62.034184 -0.66726428
52.183083 62.033127 -0.33456421
52.147873 62.027264 0
52.173058 62.031456 0.33484805
64 64 -0
57.213547 62.861996 -0.94925231
55.106689 62.508701 -0.99882036
52.299641 62.037994 -0.98892587
52.181637 62.018208 -0.6678403
52.175209 62.017128 -0.33485475
52.119476 62.007782 0
52.216446 62.024044 0.33368695
64 64 -0
57.2001 62.851292 -0.95132685
55.118526 62.499653 -0.99769354
52.307076 62.024712 -0.98849833
52.173828 62.002201 -0.66841745
52.167374 62.001114 -0.33514476
52.142403 61.996895 0
52.259838 62.016731 0.33252582
64 64 -0
57.196529 62.842232 -0.952021
55.120346 62.488922 -0.99769354
52.314529 62.011444 -0.98807079
52.186462 61.989651 -0.6678403
52.174915 61.987686 -0.33499974
52.139706 61.981697 0
52.282738 62.006035 0.33194527
64 64 -0
57.207836 62.835709 -0.95063531
55.112152 62.476475 -0.99882036
52.306828 61.995594 -0.98892587
52.1889 61.97538 -0.6678403
52.182472 61.974277 -0.33485475
52.137028 61.966488 0
52.274899 61.99012 0.33223584
64 64 -0
57.204308 62.826649 -0.95132685
55.124023 62.467468 -0.99769354
52.294075 61.978844 -0.99021024
52.18626 61.960228 -0.66812831
52.179813 61.959118 -0.33499974
52.144615 61.953041 0
52.256851 61.97242 0.33281639
57.17606 62.813278 -0.95548111
55.125885 62.456741 -0.99769354
52.321815 61.969101 -0.98807079
52.188736 61.945957 -0.66812831
52.161808 61.941273 -0.33558032
52.157364 61.940502 0
52.269562 61.960014 0.33252582
64 64 -0
57.172562 62.804169 -0.95617265
55.132755 62.446896 -0.99713117
52.314171 61.95322 -0.98892587
52.181023 61.929901 -0.66870546
52.174553 61.928764 -0.33528975
52.144478 61.9235 0
52.266922 61.944946 0.33267084
64 64 -0
57.178947 62.796791 -0.95548111
55.11462 62.432652 -0.99938273
52.301479 61.936424 -0.99021024
52.203911 61.919216 -0.66755229
52.18729 61.916283 -0.33499974
52.131611 61.90646 0
52.269409 61.930767 0.33267084
57.224865 62.796448 -0.94925231
55.126537 62.423698 -0.99825591
52.303982 61.922291 -0.99021024
52.196259 61.903156 -0.66812831
52.16935 61.898376 -0.33558032
52.144409 61.893944 0
52.277031 61.917503 0.33252582
57.241146 62.790916 -0.9471752
55.128448 62.412975 -0.99825591
52.31662 61.909969 -0.98935348
52.198799 61.888893 -0.66812831
52.171898 61.884083 -0.33558032
52.152081 61.880535 0
52.269318 61.901508 0.33281639
64 64 -0
57.242611 62.782749 -0.9471752
55.145363 62.404957 -0.99656886
52.314087 61.894943 -0.98978263
52.186081 61.871883 -0.66899347
52.179573 61.870712 -0.3354353
52.134163 61.86253 0
52.271858 61.887337 0.33281639
64 64 -0
57.199657 62.766525 -0.95340395
55.152309 62.395168 -0.99600434
52.311592 61.87991 -0.99021024
52.203938 61.860382 -0.66812831
52.171936 61.854576 -0.33572531
52.167473 61.853767 0
52.28466 61.875023 0.33252582
57.211018 62.760113 -0.952021
55.139252 62.381741 -0.99769354
52.319206 61.866707 -0.98978263
52.191261 61.843342 -0.66899347
52.16943 61.839355 -0.33587033
52.144478 61.834797 0
52.287235 61.86087 0.33252582
64 64 -0
57.207588 62.751003 -0.95271248
55.14621 62.371952 -0.99713117
52.321793 61.852596 -0.98978263
52.193874 61.829075 -0.66899347
52.182262 61.826939 -0.33558032
52.136871 61.818592 0
52.315376 61.851418 0.33180028
57.199245 62.740971 -0.95409548
55.128193 62.357555 -0.99938273
52.304203 61.834747 -0.99149454
52.191422 61.813869 -0.66928148
52.20023 61.815498 -0.33514476
52.149742 61.806152 0
52.333321 61.840137 0.33136472
57.235287 62.739189 -0.94925231
55.145176 62.349632 -0.99769354
52.301785 61.819679 -0.99192208
52.183891 61.797707 -0.66985863
52.16711 61.794579 -0.33616087
52.137066 61.788979 0
52.356373 61.829853 0.33078414
57.21632 62.731411 -0.952021
55.146175 62.344284 -0.99769354
52.313206 61.814499 -0.99106532
52.195404 61.792469 -0.66928148
52.168446 61.78743 -0.33616087
52.15374 61.784679 0
52.347458 61.820904 0.33107471
57.173485 62.714863 -0.95824975
55.133194 62.330765 -0.99938273
52.310799 61.799427 -0.99149454
52.187904 61.776291 -0.66985863
52.176231 61.774094 -0.33601588
52.141094 61.767479 0
52.350101 61.806828 0.33107471
64 64 -0
57.244068 62.719696 -0.94855815
55.150204 62.322891 -0.99769354
52.318523 61.786263 -0.99106532
52.190598 61.76202 -0.66985863
52.189152 61.761745 -0.33572531
52.154018 61.755089 0
52.35276 61.792751 0.33107471
57.186478 62.700253 -0.95686412
55.162209 62.314102 -0.99656886
52.301033 61.768303 -0.99277717
52.193314 61.747753 -0.66985863
52.171444 61.743584 -0.33630586
52.146523 61.738827 0
52.360535 61.779652 0.33092973
57.247185 62.703373 -0.94855815
55.154282 62.30151 -0.99769354
52.313812 61.756104 -0.99192208
52.196045 61.73349 -0.66985863
52.174179 61.72929 -0.33630586
52.144138 61.723522 0
52.347931 61.762653 0.33136472
57.288147 62.702827 -0.94302356
55.161324 62.291786 -0.99713117
52.321568 61.742958 -0.99149454
52.183548 61.716282 -0.6707238
52.187126 61.716972 -0.33601588
52.162231 61.712162 0
52.365936 61.751534 0.33092973
57.274956 62.691849 -0.94509804
55.163395 62.281105 -0.99713117
52.314236 61.726891 -0.99234962
52.191406 61.702995 -0.67043465
52.184799 61.70171 -0.33616087
52.149673 61.694878 0
52.348274 61.733509 0.33150971
64 64 -0
57.266685 62.681793 -0.94648367
55.175461 62.272385 -0.99600434
52.311958 61.711784 -0.99277717
52.194191 61.688728 -0.67043465
52.177391 61.68544 -0.33645087
52.162693 61.682564 0
52.356117 61.720432 0.33136472
57.283058 62.676567 -0.94440651
55.197502 62.265652 -0.99375284
52.319763 61.698654 -0.99234962
52.202065 61.675465 -0.67014664
52.205688 61.676178 -0.33572531
52.155281 61.666248 0
52.358879 61.706364 0.33136472
57.255138 62.662598 -0.94855815
55.194603 62.254028 -0.99431729
52.307438 61.681549 -0.99363393
52.20488 61.661213 -0.67014664
52.188114 61.657887 -0.33630586
52.142807 61.648903 0
52.36166 61.692299 0.33136472
57.222313 62.647575 -0.95340395
55.19672 62.243389 -0.99431729
52.305218 61.666416 -0.99406153
52.202648 61.64595 -0.67043465
52.190952 61.643616 -0.33630586
52.145657 61.634579 0
52.364456 61.678238 0.33136472
57.268219 62.648277 -0.9471752
55.243683 62.241756 -0.98925191
52.313076 61.653297 -0.99363393
52.185215 61.627625 -0.67158782
52.163227 61.623207 -0.33717698
52.158718 61.622303 0
52.362179 61.663158 0.33150971
57.171497 62.62027 -0.96101844
55.240837 62.230171 -0.98981422
52.31089 61.638161 -0.99406153
52.198219 61.615398 -0.67101181
52.196682 61.615086 -0.33630586
52.161598 61.607998 0
52.370102 61.650127 0.33136472
57.261681 62.630016 -0.94855815
55.262905 62.22364 -0.98756272
52.323807 61.626083 -0.99320638
52.201111 61.601139 -0.67101181
52.204659 61.60186 -0.33616087
52.159401 61.592659 0
52.352577 61.631935 0.33194527
57.263344 62.621876 -0.94855815
55.260082 62.212067 -0.98812503
52.316635 61.609921 -0.99406153
52.204018 61.586884 -0.67101181
52.187199 61.583443 -0.33674142
52.172508 61.580437 0
52.370728 61.620987 0.33150971
57.245354 62.609692 -0.95132685
55.267223 62.20253 -0.98756272
52.329578 61.597874 -0.99320638
52.212006 61.573673 -0.6707238
52.190128 61.569172 -0.33674142
52.165257 61.564053 0
52.363419 61.604839 0.33180028
57.18317 62.588303 -0.96032423
55.249496 62.187859 -0.98981422
52.327465 61.582733 -0.99363393
52.209885 61.558384 -0.67101181
52.182907 61.552799 -0.33703142
52.158005 61.547642 0
52.356155 61.588676 0.33209026
57.292938 62.602581 -0.94509804
55.276562 62.182468 -0.98700035
52.315311 61.565491 -0.99491829
52.212845 61.54414 -0.67101181
52.175686 61.5364 -0.337322
52.160976 61.533333 0
52.364159 61.575668 0.33194527
57.264305 62.592369 -0.94925231
55.257763 62.173038 -0.98925191
52.316784 61.55843 -0.99491829
52.199154 61.533848 -0.67187583
52.172096 61.528194 -0.33746698
52.15229 61.524055 0
52.385975 61.572891 0.33136472
57.236561 62.578037 -0.95340395
55.274902 62.165615 -0.98756272
52.319744 61.544315 -0.99491829
52.192009 61.51746 -0.67245299
52.205597 61.520317 -0.33659643
52.165466 61.511879 0
52.348228 61.550304 0.33252582
57.233379 62.568829 -0.95409548
55.257236 62.150867 -0.98981422
52.302647 61.525959 -0.99662846
52.195015 61.503193 -0.67245299
52.173023 61.498543 -0.33761197
52.148109 61.493275 0
45.131691 60.00927 0.53861326
57.181122 62.549168 -0.96170992
55.269428 62.142422 -0.9886874
52.320694 61.51503 -0.99534583
52.208168 61.491089 -0.67187583
52.181133 61.485336 -0.33746698
52.166428 61.482204 0
45.050121 59.96809 0.54108053
57.212311 62.54723 -0.95755827
55.256767 62.128681 -0.99037659
52.313675 61.498772 -0.99620092
52.206139 61.475754 -0.67216498
52.204506 61.475407 -0.33688644
52.169479 61.467911 0
44.699287 59.869061 0.55124003
57.209171 62.537971 -0.95824975
55.259033 62.118118 -0.99037659
52.311691 61.483574 -0.99662846
52.199089 61.459332 -0.672741
52.187244 61.456779 -0.33746698
52.172546 61.453617 0
44.521416 59.80637 0.55646449
57.259991 62.54039 -0.95132685
55.241447 62.103256 -0.9926281
52.314739 61.469452 -0.99662846
52.197121 61.443981 -0.67302901
52.1954 61.443607 -0.337322
52.180714 61.440426 0
44.714424 59.823536 0.55109447
57.266655 62.533314 -0.95063531
55.28347 62.101326 -0.98812503
52.312775 61.454239 -0.99705768
52.200214 61.429722 -0.67302901
52.188351 61.427135 -0.33761197
52.163471 61.421715 0
44.876881 59.834518 0.54659551
57.209618 62.512295 -0.95894128
55.29073 62.091885 -0.98756272
52.310852 61.439022 -0.99748522
52.203331 61.415462 -0.67302901
52.181305 61.410641 -0.33790255
52.161518 61.406303 0
44.937775 59.82365 0.54499888
64 64 -0
57.265327 62.515968 -0.95132685
55.317848 62.08683 -0.98474884
52.318962 61.426003 -0.99705768
52.21151 61.402325 -0.672741
52.179375 61.395245 -0.33804753
52.190071 61.397598 0
44.851471 59.780491 0.54761165
57.193638 62.491547 -0.96170992
55.310257 62.074142 -0.98587352
52.317074 61.410782 -0.99748522
52.214657 61.388081 -0.672741
52.17746 61.379837 -0.33819255
52.183067 61.381081 0
44.70945 59.724747 0.55182058
57.219948 62.488781 -0.95824975
55.317543 62.064747 -0.98531115
52.310196 61.394432 -0.99834037
52.20771 61.37159 -0.67331815
52.190769 61.367813 -0.33790255
52.16592 61.362274 0
44.663918 59.690136 0.55327165
57.251163 62.487175 -0.95409548
55.324844 62.05537 -0.98474884
52.313354 61.38031 -0.99834037
52.215958 61.358479 -0.67302901
52.193958 61.353546 -0.33790255
52.169117 61.347977 0
44.74012 59.68269 0.55124003
57.262779 62.481228 -0.95271248
55.342075 62.048241 -0.98305964
52.316528 61.366192 -0.99834037
52.219162 61.344242 -0.67302901
52.187035 61.337002 -0.33819255
52.182476 61.335972 0
45.28273 59.78056 0.53585547
57.279305 62.476418 -0.95063531
55.359314 62.041153 -0.98137045
52.314697 61.350937 -0.99876958
52.207237 61.326576 -0.67389417
52.205471 61.326176 -0.33775699
52.17556 61.319397 0
45.50576 59.80735 0.52961493
57.251785 62.461601 -0.95478964
55.361687 62.030716 -0.98137045
52.322929 61.337967 -0.99834037
52.220554 61.314629 -0.67331815
52.193504 61.30846 -0.33819255
52.168667 61.302799 0
45.566566 59.79771 0.52801877
57.253651 62.453449 -0.95478964
55.354156 62.018005 -0.98249727
52.316135 61.32156 -0.99919713
52.208694 61.296932 -0.67418218
52.181564 61.29071 -0.33862811
52.187141 61.291992 0
45.596977 59.781242 0.52729326
57.227142 62.434448 -0.95894128
55.352814 62.001194 -0.98305964
52.326004 61.301544 -0.99876958
52.218651 61.27673 -0.67389417
52.181435 61.268127 -0.3387731
52.176868 61.267071 0
45.660355 59.760773 0.52569658
57.238804 62.428535 -0.95755827
55.37009 61.994202 -0.98137045
52.33429 61.288605 -0.99834037
52.221947 61.262497 -0.67389417
52.199936 61.257378 -0.33833754
52.190311 61.255142 0
45.711044 59.749203 0.52439046
57.279797 62.429501 -0.952021
55.367577 61.98262 -0.98193276
52.22023 61.247089 -0.67418218
52.208317 61.244305 -0.33819255
52.18351 61.238506 0
45.746567 59.734207 0.52351934
57.252399 62.414497 -0.95617265
55.350235 61.967541 -0.98418432
52.218517 61.23167 -0.67447132
52.186363 61.224117 -0.33891809
52.18177 61.223038 0
45.787132 59.72047 0.52250379
57.249443 62.405193 -0.95686412
55.357635 61.958256 -0.98362195
52.216843 61.216248 -0.67475933
52.204884 61.213425 -0.3384831
52.195278 61.211155 0
45.741753 59.68652 0.52395487
57.27578 62.402832 -0.95340395
55.389767 61.954861 -0.98024571
52.332542 61.228695 -0.99962467
52.220215 61.202015 -0.67475933
52.213333 61.200378 -0.33833754
52.17334 61.19088 0
45.691353 59.651253 0.52555156
57.267944 62.392376 -0.95478964
55.37743 61.940918 -0.98193276
52.213551 61.185383 -0.67533535
52.206604 61.183723 -0.33862811
52.176743 61.176594 0
45.777496 59.648445 0.52322936
57.235752 62.376049 -0.95963275
55.379921 61.930504 -0.98193276
52.227009 61.173553 -0.67475933
52.199917 61.167049 -0.33891809
52.175087 61.161091 0
45.823196 59.636135 0.5220682
57.184063 62.354927 -0.96724719
55.397236 61.92366 -0.98024571
52.200272 61.152054 -0.67648852
52.193237 61.150352 -0.33920866
52.183601 61.148029 0
45.368778 59.503223 0.53527552
57.273815 62.367985 -0.95478964
55.370129 61.906082 -0.98362195
52.218788 61.141453 -0.67562449
52.181534 61.132412 -0.33964422
52.176929 61.131294 0
45.030823 59.397392 0.54514444
57.256294 62.355103 -0.95755827
55.402279 61.902878 -0.98024571
52.227291 61.128448 -0.67533535
52.190071 61.11937 -0.33949867
52.19558 61.120712 0
44.783981 59.312904 0.55240059
57.297272 62.356514 -0.952021
55.370285 61.884022 -0.98418432
52.225731 61.112991 -0.67562449
52.188496 61.103859 -0.33964422
52.209167 61.108929 0
44.895649 59.315681 0.54935277
57.28466 62.344818 -0.95409548
55.387634 61.877243 -0.98249727
52.3564 61.130112 -0.99962467
52.229225 61.098766 -0.67562449
52.202106 61.092079 -0.33935365
52.237934 61.10091 0
45.103138 59.342342 0.54354775
57.296398 62.339115 -0.95271248
55.385277 61.865616 -0.98305964
52.217693 61.080814 -0.67648852
52.210667 61.079075 -0.33920866
52.271767 61.094215 0
45.255062 59.355755 0.53933883
57.283798 62.327377 -0.95478964
55.417442 61.862576 -0.9796834
52.22123 61.066582 -0.67648852
52.199074 61.061062 -0.33964422
52.265175 61.077526 0
45.341373 59.353203 0.53701663
57.30043 62.322922 -0.95271248
55.40033 61.847275 -0.98193276
52.209724 61.04858 -0.67735368
52.172394 61.039238 -0.34051478
52.278824 61.06588 0
45.347 59.330662 0.53701663
57.268394 62.306255 -0.95755827
55.383224 61.831924 -0.98418432
52.218307 61.035599 -0.67706567
52.201172 61.031288 -0.33978921
52.277336 61.050449 0
45.307285 59.296711 0.53832328
57.220779 62.289917 -0.96447855
55.384537 61.826721 -0.98418432
52.225132 61.029751 -0.67677653
52.192902 61.021618 -0.34007922
52.263973 61.039547 0
45.073311 59.225677 0.54514444
57.193676 62.27433 -0.96863019
55.406872 61.821308 -0.98193276
52.223701 61.014248 -0.67706567
52.186424 61.004799 -0.34036976
52.287743 61.030487 0
44.716408 59.110859 0.55559391
57.283276 62.28841 -0.95617265
55.409512 61.810925 -0.98193276
52.232346 61.001305 -0.67677653
52.190052 60.990524 -0.34036976
52.286301 61.015053 0
44.576294 59.050346 0.55980283
57.285347 62.280293 -0.95617265
55.436771 61.80685 -0.97911888
52.382881 61.024712 -0.99962467
52.230949 60.985798 -0.67706567
52.203773 60.97884 -0.34007922
52.289913 61.0009 0
44.22488 58.935345 0.57010674
57.277702 62.269676 -0.95755827
55.429577 61.793968 -0.98024571
52.386486 61.010677 -0.99962467
52.22459 60.969006 -0.67764169
52.202408 60.963295 -0.34022421
52.273384 60.981564 0
44.145462 58.889435 0.57257396
57.270096 62.259045 -0.95894128
55.447014 61.787434 -0.97855651
52.233265 60.956074 -0.67735368
52.196011 60.946434 -0.34051478
52.297195 60.97261 0
44.196926 58.877159 0.57126784
57.262501 62.248394 -0.96032423
55.449692 61.7771 -0.97855651
52.226948 60.939255 -0.6779297
52.194687 60.93087 -0.34065977
52.310928 60.96109 0
44.489799 58.927761 0.56299561
57.220917 62.228836 -0.96655571
55.46714 61.770626 -0.97686732
52.230656 60.925034 -0.6779297
52.203426 60.917919 -0.34051478
52.37001 60.961441 0
44.596504 58.930466 0.56009281
57.300709 62.241032 -0.95548111
55.469841 61.760319 -0.97686732
52.406029 60.955883 -0.99919713
52.229362 60.909496 -0.67821884
52.202137 60.902348 -0.34065977
52.363609 60.944744 0
44.552391 58.893829 0.56154394
57.293144 62.230381 -0.95686412
55.457806 61.74612 -0.97855651
52.414677 60.943184 -0.99876958
52.228107 60.893959 -0.67850685
52.205887 60.888096 -0.34065977
52.362282 60.929359 0
44.548515 58.86768 0.56183451
57.290424 62.220989 -0.95755827
55.485092 61.742313 -0.97574264
52.221878 60.877087 -0.67908287
52.224731 60.877846 -0.34022421
52.366001 60.915302 0
44.715477 58.886803 0.55719
57.253811 62.202553 -0.96309292
55.468185 61.726791 -0.9779942
52.427074 60.916523 -0.99834037
52.230656 60.864189 -0.67879486
52.193356 60.854252 -0.34124035
52.369736 60.901245 0
44.827118 58.891602 0.55414224
57.280216 62.20089 -0.95963275
55.451302 61.711227 -0.98024571
52.234451 60.849972 -0.67879486
52.217247 60.845364 -0.34065977
64 64 0
44.89856 58.885906 0.55225557
57.175812 62.164097 -0.974859
55.444267 61.698261 -0.98137045
52.228268 60.833065 -0.67937201
52.216053 60.829781 -0.34080479
52.367218 60.870449 0
44.949917 58.874981 0.55094945
57.255512 62.176796 -0.96378708
55.48138 61.697205 -0.97743183
52.423454 60.870571 -0.99962467
52.222122 60.816147 -0.67994803
52.219891 60.815544 -0.34080479
52.360947 60.853676 0
44.805626 58.811283 0.55530334
57.286781 62.176544 -0.95963275
55.454754 61.678925 -0.98080808
52.452011 60.863312 -0.99748522
52.220993 60.800564 -0.68023604
52.20369 60.795864 -0.34138533
52.354721 60.836887 0
44.420738 58.681843 0.56662393
57.2201 62.15403 -0.96932435
55.485569 61.68177 -0.97743183
52.434093 60.850941 -0.99919713
52.237888 60.79752 -0.67937201
52.205627 60.788738 -0.34138533
52.356636 60.829853 0
44.539288 58.701416 0.56328559
57.275574 62.160404 -0.96170992
55.454079 61.662102 -0.98137045
52.437908 60.836967 -0.99919713
52.211838 60.775124 -0.6811012
52.209515 60.774487 -0.34138533
52.375519 60.819901 0
44.510612 58.668304 0.56430173
57.263283 62.148293 -0.96378708
55.481407 61.658508 -0.97855651
52.456593 60.827084 -0.99791282
52.225708 60.763622 -0.68052518
52.208397 60.758862 -0.34153089
52.369343 60.803101 0
44.2966 58.584164 0.57068729
57.280041 62.144161 -0.96170992
55.489136 61.64957 -0.9779942
52.45549 60.811775 -0.99834037
52.22963 60.749397 -0.68052518
52.212318 60.744617 -0.34153089
52.358158 60.784893 0
43.817276 58.42617 0.58476514
57.311287 62.144089 -0.95755827
55.506676 61.643364 -0.97630501
52.464294 60.799198 -0.99791282
52.233566 60.735176 -0.68052518
52.206257 60.7276 -0.3418209
52.362053 60.770828 0
43.663776 58.357327 0.58940959
57.197556 62.103676 -0.97416747
55.480148 61.624912 -0.9796834
52.458271 60.782501 -0.99876958
52.227562 60.718185 -0.6811012
52.205215 60.711956 -0.34196588
52.355942 60.753975 0
19.047276 51.468487 1.3033135
57.262657 62.113049 -0.96517003
55.502598 61.620102 -0.97743183
52.45723 60.767174 -0.99919713
52.221565 60.701172 -0.68167835
52.194183 60.693504 -0.34240144
52.374897 60.744118 0
18.977379 51.390354 1.3057806
57.211807 62.089958 -0.97278452
55.505482 61.609837 -0.97743183
52.230553 60.688347 -0.68138921
52.208179 60.682053 -0.34211144
52.348785 60.721615 0
18.997646 51.337372 1.3056357
57.286552 62.102234 -0.96240139
55.50349 61.598194 -0.9779942
52.4799 60.743481 -0.99791282
52.224594 60.67131 -0.68196636
52.212196 60.667809 -0.34211144
52.357761 60.708954 0
19.002968 51.280174 1.3059262
57.284027 62.092754 -0.96309292
55.496632 61.585155 -0.97911888
52.223656 60.655674 -0.68225437
52.216232 60.653564 -0.34211144
52.361744 60.694889 0
19.033375 51.230072 1.3054906
57.286339 62.084641 -0.96309292
55.494652 61.573483 -0.9796834
52.468056 60.710018 -0.99962467
52.227707 60.641445 -0.68225437
52.2103 60.636482 -0.34240144
52.370747 60.682255 0
19.028847 51.170044 1.3060713
57.307949 62.082058 -0.96032423
55.512253 61.56741 -0.9779942
52.481899 60.69891 -0.99876958
52.221836 60.624378 -0.68283039
52.204372 60.619373 -0.34269202
52.374763 60.668205 0
19.029408 51.111423 1.3065063
57.31509 62.075359 -0.95963275
55.495663 61.551533 -0.98024571
52.250774 60.617302 -0.68138921
52.213474 60.606564 -0.34254643
52.39381 60.658485 0
19.050003 51.058533 1.3063612
57.274044 62.054741 -0.96586156
55.488876 61.538437 -0.98137045
52.234993 60.597359 -0.68254238
52.222569 60.593765 -0.34240144
48.358002 59.476067 0
19.050694 50.999893 1.3067968
57.228207 62.032612 -0.97278452
55.521126 61.536659 -0.9779942
52.23415 60.581703 -0.68283039
52.211716 60.575188 -0.34283701
48.343487 59.451363 0
19.036499 50.936897 1.3076674
57.278763 62.03849 -0.96586156
55.489975 61.516453 -0.98193276
52.49799 60.64328 -0.99876958
52.233307 60.566036 -0.68311954
52.215866 60.560947 -0.34283701
48.284042 59.413494 0
19.047314 50.881115 1.3078129
57.314831 62.040249 -0.96101844
55.507599 61.51046 -0.98024571
52.49221 60.626499 -0.99962467
52.227547 60.548912 -0.68369555
52.220028 60.546711 -0.34283701
48.199699 59.368153 0
19.058216 50.825348 1.3079579
57.267883 62.022068 -0.96793872
55.48473 61.498165 -0.98305964
52.509033 60.62389 -0.99834037
52.229637 60.541801 -0.68369555
52.217136 60.538132 -0.34298199
48.187515 59.354206 0
19.066185 50.798199 1.3079579
57.275085 62.015354 -0.96724719
55.53162 61.500824 -0.9779942
52.233822 60.527584 -0.68369555
52.211369 60.520958 -0.343272
48.188152 59.33363 0
19.062229 50.738029 1.3085384
57.253441 62.000099 -0.97070736
55.554134 61.496368 -0.97574264
52.517223 60.59613 -0.99834037
52.23307 60.511898 -0.68398356
52.210583 60.505234 -0.34341756
48.208759 59.318962 0
19.068333 50.68079 1.3088285
57.279903 61.999107 -0.96724719
55.532818 61.478916 -0.97855651
52.52626 60.583721 -0.99791282
52.227371 60.494728 -0.68456072
52.214813 60.49099 -0.34341756
48.214428 59.299885 0
19.054565 50.617607 1.3096995
57.301552 61.996738 -0.96447855
55.565071 61.477421 -0.97518033
52.515636 60.565449 -0.99919713
52.231613 60.480507 -0.68456072
52.209114 60.473778 -0.34370756
48.225121 59.28231 0
19.07576 50.564804 1.309554
57.28476 61.982872 -0.96724719
55.573006 61.468697 -0.97461581
52.524708 60.553047 -0.99876958
52.235874 60.46629 -0.68456072
52.218357 60.461025 -0.34356257
48.18597 59.249779 0
19.101971 50.513519 1.3092641
57.219955 61.954475 -0.97693616
55.571194 61.457047 -0.97518033
52.523972 60.537704 -0.99919713
52.235207 60.450584 -0.68484873
52.2127 60.443794 -0.34385255
47.997375 59.172039 0
19.103371 50.454773 1.3096995
57.299263 61.969566 -0.96586156
55.613178 61.458652 -0.97067726
52.552727 60.531284 -0.99705768
52.229591 60.433369 -0.68542588
52.226944 60.432564 -0.34356257
47.614704 59.034981 0
19.065075 50.383961 1.3112957
57.325718 61.968773 -0.96240139
55.635704 61.454437 -0.96842569
52.537277 60.511475 -0.99876958
52.243816 60.422165 -0.68484873
