# .PCD v0.7 - Point Cloud Data file format
VERSION 0.7
FIELDS x y z
SIZE 4 4 4
TYPE F F F
COUNT 1 1 1
WIDTH 1756
HEIGHT 1
VIEWPOINT 0 0 0 1 0 0 0
POINTS 1756
DATA ascii
75.101555 61.063652 -0.3207072
75.160469 61.048073 0
75.116402 61.059727 0.32113609
69.53804 62.542351 -0.94412911
70.448441 62.302731 -0.91985041
71.863029 61.930401 -0.90061134
72.571152 61.744019 -0.73880059
74.000534 61.367798 -0.57631785
75.135239 61.069134 -0.32157776
75.164024 61.061558 0
75.109886 61.075809 0.32084551
64 64 -0
70.445641 62.31179 -0.91915894
71.855705 61.942474 -0.89948666
72.568909 61.755676 -0.73837304
73.998711 61.381191 -0.57602984
75.133751 61.083908 -0.32143277
75.152458 61.079006 0
78.375984 60.234718 0.41503644
69.54155 62.55574 -0.94412911
70.428253 62.324642 -0.91639024
71.868011 61.949409 -0.90061134
72.56665 61.767326 -0.7379455
74.006866 61.391972 -0.57631785
75.142288 61.096054 -0.32157776
78.495178 60.22221 0
78.380524 60.252094 0.41503644
64 64 -0
70.449699 62.327374 -0.91915894
71.870483 61.958916 -0.90061134
72.57431 61.77639 -0.73837304
74.005005 61.405361 -0.57602984
75.125671 61.114738 -0.32099721
78.459427 60.250183 0
78.38504 60.26947 0.41503644
69.511513 62.577782 -0.93842357
70.476006 62.328899 -0.92261904
71.882797 61.965885 -0.90173817
72.572021 61.788036 -0.7379455
74.018143 61.414871 -0.57660586
75.159348 61.120388 -0.32186833
78.438751 60.274158 0
78.39959 60.28426 0.41532645
69.580246 62.567234 -0.94983155
70.453728 62.342964 -0.91915894
71.870476 61.979206 -0.90004897
72.584625 61.795841 -0.73880059
74.011246 61.429546 -0.57602984
75.182953 61.128704 -0.32244888
78.458351 60.287727 0
78.394012 60.304245 0.41503644
69.672981 62.550732 -0.96531665
70.514038 62.335865 -0.92746222
71.863075 61.99123 -0.89892429
72.577347 61.808758 -0.7379455
74.004318 61.44421 -0.57545269
75.201508 61.138363 -0.32288387
78.452751 60.307774 0
78.393417 60.322929 0.41489089
69.588501 62.579502 -0.95064884
70.501472 62.347443 -0.92538768
71.875336 61.99823 -0.90004897
72.570023 61.821655 -0.73708874
74.002388 61.457573 -0.57516468
75.250282 61.140381 -0.32418999
78.447121 60.327801 0
78.39785 60.340324 0.41489089
69.591919 62.593014 -0.95064884
70.461655 62.374176 -0.91915894
71.8703 62.019745 -0.89892429
72.575264 61.842369 -0.73708874
74.003487 61.483013 -0.57487667
75.257156 61.167576 -0.32418999
78.466042 60.360188 0
78.396584 60.377663 0.41460088
69.622375 62.592571 -0.95553708
70.45874 62.383209 -0.91846478
71.872688 62.029259 -0.89892429
72.577866 61.852734 -0.73708874
73.996498 61.497612 -0.57430065
75.285797 61.174866 -0.32491612
78.460335 60.380196 0
78.395912 60.396324 0.41445589
69.604889 62.604145 -0.95227718
70.446091 62.394646 -0.91639024
71.865196 62.041229 -0.89779747
72.575478 61.864338 -0.7366612
73.999512 61.509693 -0.57430065
75.284142 61.189766 -0.32477057
78.449539 60.401443 0
78.400253 60.413719 0.41445589
69.616173 62.608536 -0.95390868
70.452896 62.40123 -0.91708177
71.882355 62.047066 -0.89948666
72.573074 61.875938 -0.73623365
73.992462 61.524269 -0.5737235
75.302666 61.19965 -0.3252061
78.458931 60.417656 0
78.389442 60.434872 0.41402033
69.651436 62.607048 -0.95961112
70.479172 62.403027 -0.92054188
71.864975 62.061459 -0.8972351
72.57563 61.886295 -0.73623365
73.995445 61.536343 -0.5737235
75.306046 61.21331 -0.3252061
78.458199 60.436375 0
78.393738 60.452263 0.41402033
69.613869 62.619904 -0.95309138
70.489876 62.404549 -0.92192489
71.885887 62.061356 -0.89948666
72.576904 61.891479 -0.73623365
73.991913 61.543617 -0.57343549
75.29258 61.223866 -0.32477057
78.440132 60.450081 0
78.390839 60.462196 0.41387531
69.596329 62.631382 -0.94983155
70.472321 62.417152 -0.91915894
71.873405 62.074509 -0.89779747
72.584427 61.900623 -0.7366612
73.989853 61.556919 -0.57314748
75.290886 61.238747 -0.32462555
78.449463 60.466297 0
78.40519 60.477123 0.41416532
69.477905 62.667358 -0.9294582
70.493713 62.420235 -0.92192489
71.890549 62.080421 -0.89948666
72.581978 61.912212 -0.73623365
73.977715 61.572662 -0.57228231
75.238678 61.2659 -0.32302943
78.45372 60.483757 0
78.399345 60.496986 0.41387531
64 64 -0
70.471237 62.433983 -0.91846478
71.8731 62.094738 -0.8972351
72.569519 61.926208 -0.73494929
73.990692 61.582287 -0.57285833
75.186409 61.292927 -0.32143277
78.447845 60.50367 0
78.398521 60.51561 0.41373032
69.572426 62.658619 -0.94494331
70.512146 62.432411 -0.92400205
71.895164 62.099495 -0.89948666
72.586998 61.932957 -0.73623365
73.978531 61.597992 -0.5719943
77.316704 60.794434 -0.38253355
78.452065 60.52113 0
78.402725 60.533009 0.41373032
69.473091 62.689522 -0.9278298
70.499397 62.443787 -0.92192489
71.882622 62.112587 -0.89779747
72.579491 61.945728 -0.73537689
73.976379 61.611256 -0.57170516
77.300354 60.815365 -0.381953
78.456253 60.538597 0
78.396782 60.552837 0.41343975
69.61412 62.662926 -0.95146304
70.447594 62.464424 -0.91431314
71.899734 62.11858 -0.89948666
72.576981 61.957283 -0.73494929
73.9692 61.62571 -0.57112914
77.294067 60.833851 -0.38166243
78.460426 60.556065 0
78.40094 60.570236 0.41343975
69.577255 62.678825 -0.94494331
70.459198 62.469906 -0.91569608
71.906937 62.126957 -0.90004897
72.579437 61.967648 -0.73494929
73.977097 61.636566 -0.57141715
77.297882 60.849915 -0.38166243
78.444321 60.578339 0
78.389893 60.591232 0.41300419
69.458565 62.713905 -0.92456996
70.456161 62.478859 -0.91500461
71.889412 62.141171 -0.89779747
72.656853 61.960354 -0.74136925
73.979942 61.648621 -0.57141715
77.291573 60.868366 -0.38137245
78.458565 60.59341 0
78.399078 60.607426 0.41314977
69.676682 62.66975 -0.96124262
70.516617 62.472923 -0.92331058
71.916382 62.144909 -0.90061134
72.7043 61.960274 -0.74522054
73.967659 61.664223 -0.57055199
77.285217 60.886803 -0.38108188
78.452545 60.613258 0
78.398087 60.626019 0.41300419
69.524231 62.712517 -0.93516374
70.459824 62.494465 -0.91500461
71.913673 62.155628 -0.90004897
72.756744 61.959145 -0.74949938
73.955376 61.679787 -0.56968796
77.299103 60.900497 -0.38137245
78.451546 60.631908 0
78.402161 60.643417 0.41300419
69.602837 62.701332 -0.94820315
70.476303 62.498875 -0.91708177
71.915901 62.165192 -0.90004897
72.774216 61.966248 -0.75078368
73.973274 61.68832 -0.57055199
77.282585 60.921261 -0.38079187
78.460686 60.648193 0
78.406204 60.66082 0.41300419
69.570679 62.715878 -0.94249761
70.483002 62.505573 -0.91777325
71.8983 62.179325 -0.89779747
72.791664 61.973392 -0.75206637
73.960953 61.703854 -0.56968796
77.291359 60.936146 -0.38093689
78.459641 60.66684 0
78.400108 60.680565 0.41271421
69.605957 62.714878 -0.94820315
70.553261 62.497715 -0.92746222
71.910416 62.186596 -0.89892429
72.824142 61.977131 -0.75463498
73.953629 61.718204 -0.56911081
77.284912 60.954533 -0.38064632
78.448456 60.687801 0
78.404106 60.697968 0.41271421
69.583412 62.727142 -0.94412911
70.486588 62.521244 -0.91777325
71.912598 62.196156 -0.89892429
72.826576 61.987797 -0.75463498
73.966476 61.727932 -0.56968796
77.303787 60.967121 -0.38108188
78.467651 60.701794 0
78.413147 60.714218 0.4128592
64 64 -0
70.50795 62.524647 -0.92054188
71.914772 62.205719 -0.89892429
72.834 61.99733 -0.75506252
73.974251 61.738834 -0.56997597
77.29731 60.985497 -0.38079187
78.456413 60.722725 0
78.401901 60.735085 0.41242364
64 64 -0
70.524414 62.529202 -0.92261904
71.907013 62.217522 -0.89779747
72.826408 62.010262 -0.75420743
73.961838 61.754303 -0.56911081
77.300949 61.001564 -0.38079187
78.450195 60.742489 0
78.400772 60.753632 0.41227865
64 64 -0
70.520393 62.534245 -0.92192489
71.908089 62.222298 -0.89779747
72.847649 62.011089 -0.75591928
73.988419 61.754646 -0.57055199
77.323036 61.005043 -0.38137245
78.452164 60.751217 0
78.407791 60.761192 0.41242364
69.51638 62.766945 -0.93190384
70.53685 62.538841 -0.92400205
71.920158 62.229637 -0.89892429
72.850044 62.021782 -0.75591928
73.981041 61.768974 -0.56997597
77.311424 61.024544 -0.38093689
78.461174 60.767544 0
78.3965 60.782001 0.41198865
69.59507 62.756451 -0.94494331
70.509232 62.553268 -0.91985041
71.907402 62.242516 -0.8972351
72.857437 62.031364 -0.75634688
73.983727 61.781036 -0.56997597
77.320076 61.039505 -0.38108188
78.459976 60.786152 0
78.415581 60.796021 0.41242364
64 64 -0
70.574661 62.547062 -0.92884785
71.939285 62.245495 -0.90061134
72.854797 62.043175 -0.75591928
74.006607 61.788635 -0.57112914
77.298279 61.061207 -0.38035631
78.463844 60.803627 0
78.399162 60.817921 0.41184366
64 64 -0
70.512711 62.569004 -0.91985041
71.921547 62.259449 -0.89835978
72.847115 62.05608 -0.75506252
74.01432 61.799618 -0.57141715
77.317055 61.073929 -0.38079187
78.462616 60.822224 0
78.397903 60.836441 0.41169807
69.797539 62.733486 -0.97835612
70.489929 62.58223 -0.91639024
71.888901 62.276611 -0.89442122
72.859505 62.064579 -0.75591928
74.006874 61.813927 -0.57084113
77.32058 61.090023 -0.38079187
78.476624 60.837475 0
78.396645 60.85495 0.41155308
64 64 -0
70.570068 62.573036 -0.92746222
71.910843 62.28183 -0.89667279
72.851791 62.077465 -0.75506252
74.024658 61.822731 -0.57170516
77.308846 61.109432 -0.38035631
78.454994 60.860497 0
78.390289 60.87455 0.41126308
64 64 -0
70.49334 62.597916 -0.91639024
71.932785 62.287102 -0.89892429
72.844078 62.090328 -0.75420743
74.012123 61.838116 -0.57084113
77.307251 61.12661 -0.38021132
78.458771 60.877968 0
78.399124 60.890846 0.4114081
69.608765 62.796009 -0.94575751
70.504829 62.603657 -0.91777325
71.924896 62.298824 -0.89779747
72.861427 62.097786 -0.75549012
74.034958 61.845871 -0.5719943
77.325943 61.139423 -0.38064632
78.447281 60.898712 0
78.402878 60.908245 0.4114081
64 64 -0
70.575203 62.596863 -0.92746222
71.912056 62.311577 -0.89611042
72.858704 62.109566 -0.75506252
74.04261 61.856922 -0.57228231
77.32431 61.156609 -0.38050133
78.451019 60.916172 0
78.396423 60.927822 0.41111752
69.689034 62.793152 -0.95879692
70.493454 62.622505 -0.91569608
71.924019 62.319031 -0.8972351
72.860977 62.12027 -0.75506252
74.055305 61.866913 -0.57285833
77.353149 61.16732 -0.3812269
78.459824 60.932556 0
78.400124 60.945221 0.41111752
69.646957 62.809208 -0.95146304
70.519676 62.625175 -0.91915894
71.921082 62.329655 -0.89667279
72.858223 62.132038 -0.75463498
74.093307 61.87159 -0.57487667
77.331146 61.188816 -0.38050133
78.458435 60.951103 0
78.398727 60.963692 0.41097254
64 64 -0
70.516411 62.634087 -0.91846478
71.918121 62.340271 -0.89611042
72.830315 62.149063 -0.75206637
74.121185 61.878483 -0.57631785
77.344711 61.202793 -0.38079187
78.462105 60.968575 0
78.39222 60.983223 0.41068253
69.71756 62.808743 -0.96287096
70.503334 62.645027 -0.91639024
71.92012 62.349838 -0.89611042
72.867737 62.152405 -0.75506252
74.149055 61.885441 -0.57775903
77.317551 61.225281 -0.37992078
78.465759 60.986053 0
78.395859 61.000618 0.41068253
69.612511 62.837704 -0.94494331
70.500038 62.653908 -0.91569608
71.917122 62.360443 -0.8955459
72.869957 62.16312 -0.75506252
74.192131 61.889313 -0.58006537
77.336166 61.238213 -0.38035631
78.47448 61.00248 0
78.394363 61.01907 0.41053697
69.55098 62.857441 -0.93434954
70.526245 62.6567 -0.91915894
71.924088 62.368984 -0.89611042
72.867149 62.174873 -0.75463498
74.194672 61.901627 -0.58006537
77.334404 61.255375 -0.38021132
78.447495 61.026268 0
78.397957 61.036465 0.41053697
64 64 -0
70.522934 62.665596 -0.91846478
71.921059 62.379581 -0.8955459
72.854256 62.188675 -0.75335068
74.197197 61.913948 -0.58006537
77.337715 61.271492 -0.38021132
78.461281 61.041641 0
78.401527 61.053864 0.41053697
64 64 -0
70.499962 62.678478 -0.91500461
71.942932 62.385101 -0.89779747
72.85141 62.200397 -0.75292313
74.214928 61.92318 -0.58093053
77.346085 61.286575 -0.38035631
78.464844 61.059116 0
78.394905 61.073338 0.41024697
64 64 -0
70.510605 62.680408 -0.91639024
71.943909 62.3899 -0.89779747
72.862549 62.203709 -0.75377822
74.236458 61.92524 -0.5820837
77.342636 61.29567 -0.38021132
78.466621 61.067856 0
78.391579 61.083065 0.41010198
64 64 -0
70.512192 62.688278 -0.91639024
71.93589 62.401508 -0.89667279
72.849625 62.217457 -0.75249559
74.27446 61.930458 -0.58410203
77.356071 61.309742 -0.38050133
78.459938 61.087395 0
78.395096 61.100456 0.41010198
64 64 -0
70.533455 62.692207 -0.91915894
71.952751 62.408108 -0.89835978
72.856804 62.227142 -0.75292313
74.307373 61.936787 -0.58583122
77.374603 61.322823 -0.38093689
78.463448 61.10487 0
78.39859 61.117851 0.41010198
69.660255 62.874104 -0.95146304
70.549774 62.697166 -0.92123342
71.959671 62.416725 -0.89892429
72.853912 62.23885 -0.75249559
74.340294 61.943188 -0.58756042
77.357445 61.34304 -0.38035631
78.446533 61.126404 0
78.391853 61.137283 0.40981141
69.647057 62.883823 -0.94901735
70.526741 62.709946 -0.91777325
71.936653 62.431267 -0.89611042
72.856033 62.249546 -0.75249559
74.398598 61.944649 -0.59073192
77.365738 61.358173 -0.38050133
78.455101 61.142857 0
78.390213 61.155682 0.40966642
69.769661 62.866829 -0.96939069
70.582458 62.707195 -0.92538768
71.948509 62.438904 -0.8972351
72.848053 62.26223 -0.75163883
74.487366 61.940269 -0.59563261
77.348526 61.378334 -0.37992078
78.453438 61.161324 0
78.393639 61.173069 0.40966642
64 64 -0
70.539696 62.723801 -0.91915894
71.945404 62.449482 -0.89667279
72.855179 62.271942 -0.75206637
74.530457 61.945015 -0.59793895
77.361893 61.392471 -0.38021132
78.446632 61.180786 0
78.391945 61.19146 0.4095214
64 64 -0
70.52153 62.735523 -0.91639024
71.942284 62.460049 -0.89611042
72.872391 62.279709 -0.75335068
74.578636 61.948879 -0.60053331
77.35482 61.410599 -0.37992078
78.450027 61.198246 0
78.395325 61.208851 0.4095214
69.725204 62.897102 -0.96124262
70.592026 62.730118 -0.92607921
71.964081 62.465805 -0.89835978
72.869423 62.291401 -0.75292313
74.667458 61.94503 -0.605434
77.373253 61.423786 -0.38035631
78.4534 61.215706 0
78.398689 61.226246 0.4095214
64 64 -0
70.544281 62.747513 -0.91915894
71.960945 62.476383 -0.89779747
72.861389 62.30405 -0.75206637
74.705498 61.951111 -0.60745233
77.361038 61.442879 -0.37992078
78.466988 61.231216 0
78.402031 61.243649 0.4095214
64 64 -0
70.555641 62.753548 -0.92054188
71.947815 62.48885 -0.89611042
72.853355 62.316677 -0.75121123
74.74353 61.957291 -0.60946953
77.389641 61.454174 -0.38064632
78.460083 61.250645 0
78.40023 61.262024 0.40937585
64 64 -0
70.576859 62.757748 -0.92331058
71.959618 62.496567 -0.8972351
72.865463 62.32547 -0.75206637
74.812065 61.95779 -0.61321706
77.387604 61.471317 -0.38050133
78.45829 61.269081 0
78.393326 61.281353 0.40908587
64 64 -0
70.583282 62.764771 -0.92400205
71.956436 62.507122 -0.89667279
72.877579 62.33429 -0.75292313
74.870453 61.960361 -0.61638856
77.411079 61.483662 -0.38108188
78.456467 61.287514 0
78.386398 61.300663 0.40879586
64 64 -0
70.520653 62.784676 -0.91500461
71.948235 62.518604 -0.8955459
72.874542 62.345955 -0.75249559
74.923752 61.964024 -0.61927092
77.414108 61.499866 -0.38108188
78.459732 61.304985 0
78.399857 61.316143 0.40908587
64 64 -0
70.51226 62.79438 -0.9136216
71.960022 62.526356 -0.89667279
72.866425 62.358551 -0.75163883
74.966896 61.969688 -0.62157726
77.412018 61.517021 -0.38093689
78.457848 61.323406 0
78.39798 61.334492 0.40894085
64 64 -0
70.563049 62.793179 -0.92054188
71.956802 62.536892 -0.89611042
72.868408 62.369267 -0.75163883
74.994781 61.978264 -0.62301844
77.404778 61.53511 -0.38064632
78.445724 61.3437 0
78.390961 61.353771 0.40865031
69.774498 62.945389 -0.96776235
70.529945 62.807419 -0.91569608
71.968552 62.544685 -0.8972351
72.875412 62.379063 -0.75206637
75.04303 61.983185 -0.62561393
77.402634 61.552242 -0.38050133
78.443794 61.362095 0
78.389038 61.372093 0.40850529
64 64 -0
70.53138 62.815311 -0.91569608
72.010307 62.547058 -0.90173817
72.872322 62.390701 -0.75163883
75.040352 61.997456 -0.62532479
77.39537 61.570293 -0.38021132
78.452103 61.378616 0
78.392204 61.389484 0.40850529
64 64 -0
70.556801 62.814793 -0.91915894
71.961182 62.560936 -0.89611042
72.878342 62.395149 -0.75206637
75.056839 62.001366 -0.62618995
77.412163 61.575615 -0.38064632
78.46904 61.384575 0
78.38356 61.400024 0.40821528
64 64 -0
70.568092 62.820946 -0.92054188
71.972916 62.56876 -0.8972351
72.900482 62.402252 -0.75377822
75.049072 62.016552 -0.62561393
77.415077 61.591824 -0.38064632
78.446579 61.406658 0
78.381561 61.418327 0.40806973
64 64 -0
70.475655 62.845612 -0.90739018
71.994644 62.574829 -0.89948666
72.882187 62.416611 -0.75206637
75.04126 62.031723 -0.62503678
77.407761 61.609856 -0.38035631
78.459961 61.422287 0
78.384666 61.435707 0.40806973
64 64 -0
70.56105 62.83857 -0.91915894
71.971352 62.588917 -0.89667279
72.889168 62.426445 -0.75249559
75.079292 62.038754 -0.62705511
77.42086 61.624249 -0.38064632
78.452805 61.441578 0
78.392891 61.452183 0.40821528
64 64 -0
70.562454 62.846497 -0.91915894
71.968048 62.59943 -0.89611042
72.870834 62.440742 -0.75078368
75.091835 62.05035 -0.62763113
77.444199 61.636871 -0.3812269
78.45076 61.459942 0
78.390823 61.470478 0.40806973
64 64 -0
70.565216 62.862358 -0.91915894
71.991417 62.615223 -0.89835978
72.87458 62.462185 -0.75078368
75.096512 62.077164 -0.62763113
77.455002 61.668476 -0.38137245
78.461983 61.493984 0
78.391777 61.506149 0.40792474
64 64 -0
70.67041 62.852432 -0.93369097
71.993088 62.624878 -0.89835978
72.881485 62.472042 -0.75121123
75.093735 62.091446 -0.62734312
77.452675 61.685619 -0.3812269
78.4496 61.514107 0
78.389664 61.524422 0.40777975
64 64 -0
70.503639 62.88921 -0.91015881
71.969696 62.638817 -0.8955459
72.878265 62.483635 -0.75078368
75.101128 62.103985 -0.62763113
77.470833 61.699249 -0.38166243
78.462868 61.529816 0
78.387527 61.542683 0.40763474
64 64 -0
70.594032 62.881973 -0.92261904
71.991379 62.64505 -0.89779747
72.885155 62.493507 -0.75121123
75.113625 62.115665 -0.62820828
77.473602 61.715527 -0.38166243
78.445312 61.550774 0
78.395607 61.5592 0.40777975
64 64 -0
70.605263 62.888275 -0.92400205
72.003044 62.653015 -0.89892429
72.892021 62.503395 -0.75163883
75.115891 62.129097 -0.62820828
77.445618 61.736984 -0.38079187
78.468796 61.564774 0
78.398544 61.576599 0.40777975
64 64 -0
70.57692 62.901218 -0.91985041
72.009674 62.66185 -0.89948666
72.873566 62.517525 -0.74992692
75.113045 62.143383 -0.62792027
77.47908 61.748096 -0.38166243
78.456322 61.584831 0
78.386078 61.596565 0.40734419
64 64 -0
70.573296 62.909985 -0.91915894
71.971176 62.678181 -0.89498359
72.915871 62.521526 -0.75335068
75.11528 62.156811 -0.62792027
77.476669 61.765232 -0.38151744
78.43869 61.605705 0
78.394096 61.613102 0.40748918
64 64 -0
70.559746 62.920372 -0.91708177
72.002846 62.682865 -0.89835978
72.917656 62.532303 -0.75335068
75.1175 62.170242 -0.62792027
77.474243 61.782364 -0.38137245
78.451851 61.621464 0
78.396973 61.630497 0.40748918
64 64 -0
70.575912 62.925873 -0.91915894
71.994408 62.694172 -0.8972351
72.899155 62.546387 -0.75163883
75.135002 62.181179 -0.6287843
77.502548 61.794456 -0.38209799
78.44957 61.639767 0
78.404968 61.647053 0.40763474
64 64 -0
70.512802 62.94426 -0.91015881
71.995979 62.703831 -0.8972351
72.88063 62.560429 -0.74992692
75.126991 62.196289 -0.62820828
77.505203 61.810772 -0.38209799
78.452408 61.65723 0
78.39753 61.666126 0.40734419
64 64 -0
70.568565 62.943363 -0.91777325
71.982483 62.715916 -0.8955459
72.897575 62.568714 -0.75121123
75.134262 62.208912 -0.62849629
77.492447 61.829571 -0.38166243
78.450096 61.675522 0
78.405464 61.682701 0.40748918
64 64 -0
70.703606 62.929947 -0.93645966
71.999092 62.72316 -0.8972351
72.889145 62.581085 -0.75035447
75.141525 62.221554 -0.6287843
77.510452 61.843418 -0.38209799
78.447754 61.693802 0
78.397995 61.701744 0.40719917
64 64 -0
70.590294 62.952118 -0.92054188
71.959709 62.734375 -0.89273202
72.910286 62.583229 -0.75206637
75.117058 62.232346 -0.62734312
77.522011 61.849949 -0.382388
78.438873 61.704163 0
78.40451 61.709629 0.40734419
64 64 -0
70.537033 62.968685 -0.91292745
72.011421 62.736076 -0.89835978
72.89679 62.596397 -0.75078368
75.139626 62.242554 -0.62849629
77.51947 61.8671 -0.38224301
78.441643 61.721611 0
78.412399 61.726227 0.40748918
64 64 -0
70.582901 62.969597 -0.91915894
72.007927 62.746544 -0.89779747
72.913681 62.604767 -0.75206637
75.141739 62.256016 -0.62849629
77.542572 61.880222 -0.38282356
78.454659 61.737453 0
78.39975 61.746052 0.40705419
64 64 -0
70.564308 62.980633 -0.91639024
72.024506 62.75388 -0.89948666
72.869705 62.622627 -0.74821508
75.143837 62.269482 -0.62849629
77.575928 61.891804 -0.38369411
78.462517 61.754124 0
78.402458 61.763451 0.40705419
64 64 -0
70.535774 62.993149 -0.91223598
72.020988 62.764351 -0.89892429
72.901825 62.628654 -0.75078368
75.161263 62.280582 -0.62936145
77.640106 61.898712 -0.38543579
78.449806 61.773975 0
78.405151 61.780853 0.40705419
64 64 -0
70.566757 62.996498 -0.91639024
71.99736 62.777882 -0.89611042
72.933914 62.634762 -0.75335068
75.153099 62.295635 -0.6287843
77.719696 61.903419 -0.38761303
78.452484 61.791439 0
78.397537 61.799835 0.40676361
64 64 -0
70.612602 62.997665 -0.92261904
72.003853 62.786781 -0.89667279
72.900017 62.650944 -0.75035447
75.16539 62.30756 -0.62936145
77.804428 61.907536 -0.38993526
78.434555 61.812023 0
78.400185 61.817234 0.40676361
64 64 -0
70.693184 62.993725 -0.93369097
72.035454 62.791924 -0.90004897
72.916878 62.659409 -0.75163883
75.162292 62.321823 -0.62907231
77.909714 61.908768 -0.39283749
78.457779 61.82637 0
78.413101 61.833088 0.40705419
64 64 -0
70.634857 63.010689 -0.92538768
72.031891 62.802383 -0.89948666
72.908348 62.671696 -0.75078368
75.169441 62.334549 -0.62936145
77.999603 61.912548 -0.39530471
78.455231 61.844612 0
78.400284 61.852806 0.40661862
64 64 -0
70.611214 63.022381 -0.92192489
72.028305 62.812832 -0.89892429
72.894699 62.684715 -0.74949938
75.171448 62.348045 -0.62936145
78.0998 61.91502 -0.3980625
78.457825 61.86208 0
78.392593 61.871723 0.40632862
64 64 -0
70.701767 63.017265 -0.93438512
72.029732 62.822533 -0.89892429
72.916603 62.692482 -0.75121123
75.163193 62.363049 -0.6287843
78.220558 61.914719 -0.4014003
78.444962 61.881813 0
78.389999 61.889874 0.40618306
64 64 -0
70.643364 63.034027 -0.92607921
72.021088 62.833698 -0.89779747
72.928329 62.701782 -0.75206637
75.165161 62.376537 -0.6287843
78.33622 61.915451 -0.40459365
78.442345 61.900021 0
78.413109 61.90427 0.40676361
64 64 -0
70.604797 63.047783 -0.92054188
72.027512 62.842667 -0.89835978
72.904488 62.716232 -0.74992692
75.177361 62.38855 -0.62936145
78.431305 61.91943 -0.40720588
78.439728 61.918213 0
78.400215 61.923912 0.40632862
64 64 -0
70.491714 63.07209 -0.90462416
72.038979 62.850929 -0.89948666
72.921288 62.724815 -0.75121123
75.179298 62.402058 -0.62936145
78.474968 61.930984 -0.40836698
78.44223 61.935665 0
78.397552 61.942051 0.40618306
64 64 -0
70.537537 63.073601 -0.91085297
72.050415 62.859219 -0.90061134
72.907562 62.737755 -0.74992692
75.201714 62.412666 -0.63051462
64 64 -0
78.439568 61.953846 0
78.400032 61.959446 0.40618306
64 64 -0
70.593292 63.073826 -0.91846478
72.036705 62.871067 -0.89892429
72.919266 62.747089 -0.75078368
75.193367 62.427643 -0.62993747
78.495346 61.963802 -0.408802
78.436874 61.972015 0
78.407646 61.976124 0.40632862
64 64 -0
70.634163 63.076256 -0.92400205
72.038063 62.880775 -0.89892429
72.890251 62.762119 -0.74821508
75.200378 62.440456 -0.63022548
78.50296 61.980602 -0.40894756
78.444466 61.988747 0
78.41008 61.993534 0.40632862
64 64 -0
70.600494 63.089073 -0.91915894
72.049469 62.889103 -0.90004897
72.937508 62.766544 -0.75206637
75.192017 62.455402 -0.62964946
78.505386 61.998127 -0.40894756
78.436569 62.007626 0
78.412498 62.010948 0.40632862
64 64 -0
70.705406 63.07872 -0.93369097
72.029999 62.896732 -0.89779747
72.938248 62.771946 -0.75206637
75.203186 62.460758 -0.63022548
78.501434 62.007599 -0.408802
78.44294 62.015636 0
78.403389 62.021072 0.40603808
64 64 -0
70.537491 63.10984 -0.91015881
72.041405 62.905064 -0.89892429
72.924484 62.784821 -0.75078368
75.215302 62.472897 -0.63080263
78.508995 62.024422 -0.40894756
78.440155 62.033794 0
78.400627 62.039177 0.40589306
64 64 -0
70.558449 63.115055 -0.91292745
72.037674 62.915462 -0.89835978
72.936111 62.794235 -0.75163883
75.206871 62.487835 -0.63022548
78.511368 62.041954 -0.40894756
78.447693 62.050545 0
78.408127 62.055885 0.40603808
64 64 -0
70.569473 63.121651 -0.91431314
72.05912 62.922482 -0.90061134
72.927391 62.806393 -0.75078368
75.218956 62.500004 -0.63080263
78.513725 62.05949 -0.40894756
78.450035 62.068005 0
78.400177 62.074673 0.40574807
64 64 -0
70.56057 63.130909 -0.91292745
72.025169 62.93689 -0.89667279
72.923721 62.817856 -0.75035447
75.220757 62.513561 -0.63080263
78.505745 62.078392 -0.40865698
78.436874 62.087517 0
78.402489 62.092072 0.40574807
64 64 -0
70.695938 63.121204 -0.93161649
72.076828 62.939976 -0.90230054
72.930252 62.827969 -0.75078368
75.222549 62.527122 -0.63080263
78.508057 62.095921 -0.40865698
78.449486 62.103611 0
78.404785 62.109474 0.40574807
64 64 -0
70.577583 63.144825 -0.91500461
72.078102 62.949734 -0.90230054
72.921463 62.840084 -0.74992692
75.234566 62.539352 -0.63137865
78.505196 62.114124 -0.408512
78.441452 62.12241 0
78.407059 62.126884 0.40574807
64 64 -0
70.628365 63.146362 -0.92192489
72.03904 62.964691 -0.89779747
72.94323 62.848244 -0.75163883
75.24147 62.552265 -0.63166779
78.507469 62.131653 -0.408512
78.438553 62.140526 0
78.393845 62.146286 0.40531251
64 64 -0
70.659264 63.150562 -0.92607921
72.060448 62.971832 -0.90004897
72.92424 62.861649 -0.74992692
75.227814 62.567814 -0.63080263
78.525185 62.147209 -0.40894756
78.440796 62.157974 0
78.396072 62.163677 0.40531251
64 64 -0
70.610519 63.164898 -0.91915894
72.061684 62.981571 -0.90004897
72.940903 62.870502 -0.75121123
75.219261 62.582676 -0.63022548
78.455215 62.173882 -0.40691531
78.443008 62.175423 0
78.398285 62.181072 0.40531251
64 64 -0
70.661301 63.166656 -0.92607921
72.073006 62.990051 -0.90117586
72.921875 62.883854 -0.74949938
75.226112 62.595592 -0.63051462
78.452263 62.191994 -0.40677032
78.429703 62.194817 0
78.395317 62.199116 0.40516752
64 64 -0
70.587601 63.18396 -0.91569608
72.048988 63.002934 -0.89835978
72.928314 62.894005 -0.74992692
75.248337 62.606613 -0.63166779
78.449287 62.210094 -0.40662533
78.442192 62.210976 0
78.412941 62.2146 0.40560251
64 64 -0
70.618477 63.188255 -0.91985041
72.040108 63.013893 -0.8972351
72.929642 62.904797 -0.74992692
75.255142 62.619576 -0.6319558
78.456589 62.226925 -0.40677032
78.428864 62.230324 0
78.404778 62.23328 0.40531251
64 64 -0
70.644348 63.19323 -0.92331058
72.08165 63.018711 -0.90173817
72.930962 62.915585 -0.74992692
75.261932 62.632553 -0.63224381
78.438087 62.246899 -0.40618977
78.446472 62.24588 0
78.391418 62.252563 0.40487695
64 64 -0
70.585541 63.208443 -0.91500461
72.062653 63.030903 -0.89948666
72.937355 62.925766 -0.75035447
75.2379 62.64925 -0.63080263
78.460831 62.261864 -0.40677032
78.438255 62.26458 0
78.398682 62.269337 0.40502197
64 64 -0
70.631332 63.211067 -0.92123342
72.058777 63.041245 -0.89892429
72.92337 62.938381 -0.74907184
75.260071 62.660385 -0.6319558
78.447433 62.281181 -0.40633476
78.435181 62.282639 0
78.395599 62.28735 0.40487695
64 64 -0
70.567505 63.226707 -0.91223598
72.080116 63.048607 -0.90117586
72.93483 62.947968 -0.74992692
75.246262 62.675804 -0.63109064
78.459839 62.297424 -0.40662533
78.437248 62.300083 0
78.392502 62.305351 0.40473196
64 64 -0
70.658134 63.224194 -0.92469352
72.050964 63.061897 -0.89779747
72.956497 62.956387 -0.75163883
75.247856 62.689396 -0.63109064
78.461884 62.314896 -0.40662533
78.444458 62.316929 0
78.399704 62.322144 0.40487695
64 64 -0
70.55394 63.240345 -0.91015881
72.081825 63.063251 -0.90117586
72.931625 62.964752 -0.74949938
75.253777 62.695595 -0.63137865
78.457741 62.32423 -0.40648031
78.429955 62.327454 0
78.400711 62.330841 0.40487695
64 64 -0
70.709389 63.230541 -0.93161649
72.087997 63.072437 -0.90173817
72.922684 62.976715 -0.74864429
75.260498 62.708603 -0.63166779
78.449417 62.342888 -0.40618977
78.437149 62.344296 0
78.402718 62.348244 0.40487695
69.690155 63.354397 -0.94412911
70.605621 63.25053 -0.91708177
72.094154 63.081638 -0.90230054
72.939201 62.985764 -0.74992692
75.251762 62.723377 -0.63109064
78.435913 62.362106 -0.40575421
78.428787 62.362915 0
78.394386 62.366817 0.40458694
64 64 -0
70.616486 63.257393 -0.91846478
72.075058 63.093689 -0.90004897
72.930222 62.997707 -0.74907184
75.278999 62.734093 -0.63253182
78.46888 62.376072 -0.40662533
78.430756 62.380352 0
78.40667 62.383053 0.40487695
64 64 -0
70.757004 63.249886 -0.93784529
72.081192 63.102886 -0.90061134
72.926331 63.009064 -0.74864429
75.280518 62.747719 -0.63253182
78.445007 62.396423 -0.40589976
78.422363 62.398937 0
78.393112 62.402184 0.40444139
64 64 -0
70.648193 63.2701 -0.92261904
72.112595 63.109322 -0.90398973
72.95813 63.016491 -0.75121123
75.276886 62.761917 -0.63224381
78.452095 62.413311 -0.40604475
78.424286 62.416363 0
78.395027 62.419575 0.40444139
64 64 -0
70.609161 63.282463 -0.91708177
72.118706 63.118576 -0.90455204
72.928696 63.03064 -0.74864429
75.242371 62.779449 -0.63022548
78.438499 62.432457 -0.40560919
78.426193 62.433792 0
78.396927 62.43697 0.40444139
64 64 -0
70.659904 63.285095 -0.92400205
72.124817 63.127846 -0.90511441
72.94516 63.039787 -0.74992692
75.290146 62.788067 -0.63282096
78.445541 62.449352 -0.40575421
78.438416 62.450115 0
78.388481 62.455475 0.40415138
64 64 -0
70.685707 63.290497 -0.92746222
72.095551 63.140881 -0.90173817
72.951416 63.050053 -0.75035447
75.271019 62.803894 -0.63166779
78.43708 62.467903 -0.4054642
78.429932 62.468662 0
78.400665 62.471767 0.40444139
64 64 -0
70.6716 63.300144 -0.92538768
72.091537 63.151192 -0.90117586
72.95256 63.060871 -0.75035447
75.277596 62.816975 -0.6319558
78.449249 62.484264 -0.40575421
78.416237 62.487728 0
78.392174 62.490253 0.40415138
64 64 -0
70.562637 63.319592 -0.91015881
72.067268 63.163593 -0.89835978
72.963913 63.070629 -0.75121123
75.268723 62.831669 -0.63137865
78.456253 62.501186 -0.40589976
78.433594 62.503536 0
78.399155 62.507107 0.4042964
64 64 -0
70.598396 63.32394 -0.91500461
72.088493 63.171268 -0.90061134
72.949699 63.083031 -0.74992692
75.270126 62.845284 -0.63137865
78.458054 62.518658 -0.40589976
78.445732 62.519917 0
78.395782 62.525036 0.40415138
64 64 -0
70.619179 63.329891 -0.91777325
72.109711 63.178997 -0.90286285
72.945702 63.094364 -0.74949938
75.307541 62.855255 -0.63339698
78.48568 62.533508 -0.40662533
78.44751 62.537373 0
78.392387 62.542953 0.40400639
64 64 -0
70.58004 63.341885 -0.91223598
72.105644 63.189301 -0.90230054
72.941681 63.105682 -0.74907184
75.293472 62.870464 -0.63253182
78.528816 62.546875 -0.40778643
78.433731 62.556385 0
78.388947 62.560863 0.40386084
64 64 -0
70.630775 63.344902 -0.91915894
72.091446 63.200596 -0.90061134
72.9683 63.113964 -0.75121123
75.284538 62.885128 -0.6319558
78.608116 62.55677 -0.4099631
78.430283 62.574341 0
78.390678 62.578251 0.40386084
64 64 -0
70.632339 63.360928 -0.91915894
72.11866 63.217712 -0.90342736
72.970413 63.135639 -0.75121123
75.297485 62.911411 -0.63253182
78.720192 62.581608 -0.4130109
78.42334 62.610214 0
78.394073 62.613033 0.40386084
64 64 -0
70.658073 63.36657 -0.92261904
72.089233 63.230412 -0.90004897
72.935669 63.149883 -0.74821508
75.293655 62.925552 -0.63224381
78.768448 62.594967 -0.41431701
78.430183 62.627151 0
78.395737 62.630428 0.40386084
64 64 -0
70.613503 63.37484 -0.91639024
72.140297 63.230515 -0.90567893
72.941307 63.154797 -0.74864429
75.309753 62.930912 -0.63310897
78.774483 62.603401 -0.41446257
78.477638 62.631458 0
78.381058 62.640591 0.40342584
64 64 -0
70.559296 63.387959 -0.90877581
72.100746 63.244129 -0.90117586
72.942322 63.165604 -0.74864429
75.290436 62.946503 -0.6319558
78.739937 62.624634 -0.41344646
78.593292 62.638317 0
78.393028 62.657001 0.40371585
64 64 -0
70.575027 63.394505 -0.91085297
72.096581 63.254383 -0.90061134
72.96888 63.174053 -0.75078368
75.307159 62.958721 -0.63282096
78.715714 62.644829 -0.41272089
81.974106 62.344761 0
78.415337 62.672489 0.4042964
64 64 -0
70.685677 63.39246 -0.92607921
72.112663 63.262787 -0.90230054
72.964745 63.185356 -0.75035447
75.33931 62.969578 -0.63455015
78.722519 62.66214 -0.41286591
81.939819 62.369778 0
78.463509 62.685677 0.40560251
64 64 -0
70.601456 63.408157 -0.91431314
72.07811 63.275768 -0.89835978
72.97596 63.195274 -0.75121123
75.325081 62.984665 -0.63368499
78.703415 62.681786 -0.41228533
81.94178 62.391457 0
82.000214 62.386215 0.5047279
64 64 -0
70.612152 63.415249 -0.91569608
72.104301 63.283291 -0.90117586
72.961578 63.207478 -0.74992692
75.331451 62.997894 -0.633973
78.736046 62.696808 -0.41315588
81.954071 62.41222 0
81.986618 62.40934 0.50429231
64 64 -0
70.727821 63.413212 -0.93161649
72.110222 63.292641 -0.90173817
72.947197 63.219643 -0.74864429
75.317207 63.012936 -0.63310897
78.732437 62.715065 -0.4130109
78.684212 62.719269 0
81.998886 62.430172 0.50458288
64 64 -0
70.603554 63.432091 -0.91431314
72.151573 63.298958 -0.90624124
72.96347 63.229134 -0.74992692
75.31324 63.027054 -0.63282096
78.739151 62.732422 -0.41315588
78.670189 62.738354 0
81.985229 62.453255 0.50414735
64 64 -0
70.649231 63.436253 -0.92054188
72.142281 63.309669 -0.90511441
72.974632 63.239098 -0.75078368
75.309242 63.041161 -0.63253182
78.745865 62.74979 -0.41330147
78.661339 62.756958 0
82.002632 62.473671 0.50458288
64 64 -0
70.724907 63.438023 -0.93092501
72.087418 63.324162 -0.89892429
72.970413 63.25037 -0.75035447
75.325859 63.053535 -0.63339698
78.742172 62.768044 -0.41315588
78.673195 62.773808 0
78.622841 62.778015 0.40981141
64 64 -0
70.610565 63.45562 -0.91500461
72.118607 63.331432 -0.90230054
72.955978 63.262474 -0.74907184
75.332146 63.066795 -0.63368499
78.73848 62.786285 -0.4130109
78.648735 62.793674 0
78.619125 62.796112 0.40966642
64 64 -0
70.691238 63.457115 -0.92607921
72.114349 63.341652 -0.90173817
72.946617 63.274128 -0.74821508
75.333267 63.08049 -0.63368499
78.724411 62.805355 -0.4125759
78.650177 62.811375 0
78.615402 62.814198 0.4095214
64 64 -0
70.68689 63.465599 -0.92538768
72.140457 63.349434 -0.90455204
72.973076 63.282894 -0.75035447
75.324066 63.095009 -0.63310897
78.746544 62.821491 -0.41315588
81.95649 62.56496 0
78.611626 62.832275 0.40937585
64 64 -0
70.632507 63.478012 -0.91777325
72.100708 63.362461 -0.90004897
72.968819 63.29414 -0.74992692
75.32515 63.108692 -0.63310897
78.73243 62.840534 -0.41272089
81.947823 62.587475 0
81.990799 62.584095 0.50400233
64 64 -0
70.653137 63.484474 -0.92054188
72.116684 63.371071 -0.90173817
72.959442 63.305767 -0.74907184
75.341675 63.121178 -0.633973
78.728645 62.858734 -0.4125759
81.949516 62.609161 0
81.997673 62.605431 0.50414735
64 64 -0
70.603737 63.49633 -0.9136216
72.097168 63.382423 -0.89948666
72.990974 63.314255 -0.75163883
75.342728 63.134884 -0.633973
78.740364 62.875744 -0.41286591
81.945999 62.631248 0
81.999344 62.627178 0.50414735
64 64 -0
70.629356 63.50243 -0.91708177
72.173904 63.386505 -0.90792829
72.981567 63.325886 -0.75078368
75.379883 63.145878 -0.63599133
78.736534 62.893944 -0.41272089
81.958031 62.652153 0
82.000992 62.64893 0.50414735
64 64 -0
70.689995 63.506008 -0.92538768
72.174637 63.396381 -0.90792829
72.977242 63.337116 -0.75035447
75.360268 63.161152 -0.63483816
78.732681 62.912132 -0.4125759
81.990784 62.671555 0
82.111443 62.662643 0.50719512
64 64 -0
70.715607 63.512276 -0.92884785
72.200722 63.404419 -0.91074431
73.008774 63.345734 -0.75292313
75.356125 63.175255 -0.63455015
78.733986 62.929935 -0.4125759
82.044273 62.689526 0
83.149635 62.609245 0.53622133
64 64 -0
70.675865 63.519215 -0.92331058
72.190933 63.410103 -0.90961748
72.988678 63.35265 -0.75121123
75.366928 63.181374 -0.63512617
78.734634 62.938839 -0.4125759
82.086594 62.697433 0
83.316345 62.608871 0.54086578
64 64 -0
64 64 -0
72.156174 63.422512 -0.90567893
72.974091 63.364601 -0.74992692
75.373085 63.194744 -0.63541532
78.725525 62.957378 -0.41228533
82.176414 62.713039 0
83.354286 62.629642 0.54188138
64 64 -0
70.757095 63.529778 -0.93438512
72.161926 63.432014 -0.90624124
72.969734 63.375801 -0.74949938
75.384361 63.207767 -0.63599133
78.711212 62.976254 -0.41184977
82.219498 62.732113 0
83.376663 62.651588 0.54246193
64 64 -0
70.552422 63.551975 -0.90600717
72.167671 63.441532 -0.90680361
72.990967 63.385239 -0.75121123
75.385307 63.221523 -0.63599133
78.753922 62.991192 -0.4130109
78.767937 62.990234 0
83.357536 62.676418 0.54188138
64 64 -0
64 64 -0
72.153122 63.452423 -0.90511441
72.981445 63.39679 -0.75035447
75.365593 63.236668 -0.63483816
78.744766 63.009716 -0.41272089
78.748375 63.009476 0
83.359123 62.69981 0.54188138
64 64 -0
70.54348 63.56847 -0.90462416
72.153778 63.462276 -0.90511441
72.987312 63.407307 -0.75078368
75.392311 63.248699 -0.63627934
78.725212 63.028904 -0.41214034
78.733978 63.028324 0
83.407364 62.720123 0.54318804
64 64 -0
70.518944 63.577999 -0.90116137
72.139221 63.47311 -0.90342736
73.013634 63.416508 -0.75292313
75.388054 63.262798 -0.63599133
78.731552 63.04636 -0.41228533
82.355263 62.811783 0
83.476311 62.739212 0.5450747
64 64 -0
64 64 -0
72.149986 63.482304 -0.90455204
72.998955 63.428375 -0.75163883
75.404427 63.275578 -0.6368565
78.737877 63.063831 -0.41243035
82.377457 62.832642 0
83.514114 62.760441 0.54609025
64 64 -0
70.615105 63.587826 -0.91431314
72.170898 63.490887 -0.90680361
72.979141 63.440525 -0.74992692
75.379486 63.290966 -0.63541532
78.728638 63.082287 -0.41214034
82.404831 62.85323 0
83.520798 62.783695 0.5462358
64 64 -0
64 64 -0
72.151215 63.501999 -0.90455204
72.979813 63.451378 -0.74992692
75.406143 63.303139 -0.6368565
78.750481 63.098816 -0.41272089
82.411392 62.875153 0
83.517052 62.807602 0.54609025
64 64 -0
70.651146 63.601711 -0.91915894
72.167038 63.510937 -0.90624124
72.990723 63.461613 -0.75078368
75.41214 63.316612 -0.63714451
78.741173 63.11726 -0.41243035
82.407547 62.897709 0
83.466614 62.83429 0.54463917
64 64 -0
64 64 -0
72.187912 63.519615 -0.9084928
72.970871 63.473679 -0.74907184
75.407799 63.330704 -0.6368565
78.726685 63.135986 -0.41199535
82.455627 62.91721 0
83.478371 62.857204 0.54492915
64 64 -0
64 64 -0
72.14283 63.532131 -0.90342736
73.017624 63.481869 -0.75292313
75.4086 63.34449 -0.6368565
78.722511 63.154079 -0.41184977
82.477707 62.938316 0
83.464188 62.881634 0.54449415
64 64 -0
70.622475 63.627518 -0.91500461
72.163681 63.540829 -0.90567893
72.982353 63.494785 -0.74992692
75.404221 63.358566 -0.63656849
78.744278 63.170704 -0.41243035
82.53614 62.957428 0
83.481079 62.904278 0.54492915
64 64 -0
64 64 -0
72.143936 63.551811 -0.90342736
73.003464 63.504509 -0.75163883
75.415306 63.371777 -0.63714451
78.72451 63.189659 -0.41184977
82.56337 62.978397 0
83.482384 62.927818 0.54492915
64 64 -0
64 64 -0
72.169838 63.560287 -0.90624124
72.978432 63.516769 -0.74949938
75.426399 63.385014 -0.63772166
78.715111 63.208012 -0.41155979
82.574974 63.000267 0
83.483665 62.951363 0.54492915
64 64 -0
64 64 -0
72.180504 63.569626 -0.90736592
73.004639 63.526268 -0.75163883
75.421951 63.399094 -0.63743252
78.742004 63.224426 -0.41228533
78.735199 63.224785 0
83.474548 62.975449 0.54463917
64 64 -0
64 64 -0
72.191177 63.578987 -0.9084928
73.000076 63.537411 -0.75121123
75.422668 63.412895 -0.63743252
78.732559 63.242775 -0.41199535
78.710144 63.243927 0
83.470589 62.999249 0.54449415
64 64 -0
64 64 -0
72.171127 63.584969 -0.90624124
73.020866 63.541809 -0.75292313
75.433365 63.419273 -0.63800967
78.722626 63.252201 -0.41170478
78.669006 63.254925 0
83.471191 63.011013 0.54449415
64 64 -0
64 64 -0
72.141167 63.596352 -0.90286285
73.021416 63.552708 -0.75292313
75.439224 63.432831 -0.63829768
78.73391 63.269478 -0.41199535
82.605042 63.077541 0
83.461975 63.035053 0.54420358
64 64 -0
64 64 -0
72.146736 63.605942 -0.90342736
73.006561 63.564354 -0.75163883
75.424393 63.447403 -0.63743252
78.724388 63.287785 -0.41170478
82.56456 63.102036 0
83.468315 63.058319 0.5443486
64 64 -0
64 64 -0
72.162422 63.61507 -0.90511441
72.991692 63.575962 -0.75035447
75.450882 63.459991 -0.6388737
78.730423 63.305332 -0.41184977
82.612411 63.122261 0
83.490204 63.080864 0.54492915
64 64 -0
64 64 -0
72.147667 63.625633 -0.90342736
73.007584 63.586121 -0.75163883
75.446365 63.474064 -0.63858569
78.731255 63.323132 -0.41184977
82.634262 63.143795 0
83.480927 63.104893 0.54463917
64 64 -0
64 64 -0
72.173492 63.634342 -0.90624124
72.987564 63.597923 -0.74992692
75.452156 63.487663 -0.6388737
78.737267 63.340698 -0.41199535
82.645668 63.165848 0
83.476807 63.128666 0.54449415
64 64 -0
64 64 -0
72.163765 63.644661 -0.90511441
72.998314 63.608337 -0.75078368
75.457947 63.501278 -0.63916284
78.74324 63.35828 -0.41214034
82.657074 63.187923 0
83.472641 63.152424 0.5443486
64 64 -0
64 64 -0
72.189568 63.65345 -0.90792829
72.998779 63.619209 -0.75078368
75.458542 63.515121 -0.63916284
78.744003 63.376095 -0.41214034
82.658043 63.210468 0
83.484047 63.175514 0.54463917
64 64 -0
64 64 -0
72.159523 63.6646 -0.90455204
72.999229 63.630081 -0.75078368
75.469452 63.528542 -0.63973886
78.723976 63.394764 -0.41155979
82.658981 63.233013 0
83.479843 63.199272 0.54449415
64 64 -0
64 64 -0
72.134537 63.675472 -0.90173817
73.015045 63.640343 -0.75206637
75.480354 63.541988 -0.64031601
78.719505 63.412762 -0.41141477
82.691093 63.254314 0
83.470398 63.223225 0.54420358
64 64 -0
64 64 -0
72.190765 63.68314 -0.90792829
73.005226 63.651634 -0.75121123
75.475716 63.556061 -0.64002687
78.709808 63.43095 -0.41112423
82.691978 63.276901 0
83.476509 63.246552 0.5443486
64 64 -0
64 64 -0
72.150543 63.694557 -0.90342736
73.015892 63.662128 -0.75206637
75.47625 63.569927 -0.64002687
78.731262 63.447945 -0.41170478
78.760818 63.446838 0
83.472214 63.270279 0.54420358
64 64 -0
64 64 -0
72.140739 63.704777 -0.90230054
73.016296 63.673023 -0.75206637
75.481941 63.583607 -0.64031601
78.742317 63.46537 -0.41199535
78.719887 63.466183 0
83.457504 63.294373 0.54376805
64 64 -0
64 64 -0
72.17157 63.713543 -0.90567893
73.006432 63.684277 -0.75121123
75.482437 63.597481 -0.64031601
78.73774 63.483364 -0.41184977
78.710106 63.484333 0
83.468735 63.31752 0.54405862
64 64 -0
64 64 -0
72.161743 63.723763 -0.90455204
72.986282 63.695854 -0.74949938
75.493248 63.611008 -0.64089203
78.748749 63.50082 -0.41214034
82.773293 63.364609 0
83.485138 63.340515 0.54449415
64 64 -0
64 64 -0
72.182388 63.73296 -0.90680361
73.002037 63.706211 -0.75078368
75.493706 63.624893 -0.64089203
78.733757 63.519154 -0.41170478
82.763626 63.387634 0
83.480705 63.364231 0.5443486
64 64 -0
64 64 -0
72.136993 63.744286 -0.90173817
73.028038 63.716282 -0.75292313
75.478638 63.639271 -0.64002687
78.729141 63.537117 -0.41155979
82.774773 63.409981 0
83.491859 63.387444 0.54463917
64 64 -0
64 64 -0
72.147446 63.753811 -0.90286285
73.018105 63.727501 -0.75206637
75.510094 63.652203 -0.64175719
78.766052 63.553818 -0.4125759
82.775467 63.432667 0
83.492584 63.410995 0.54463917
64 64 -0
64 64 -0
72.173149 63.762917 -0.90567893
73.038956 63.737804 -0.75377822
75.500153 63.666409 -0.64118004
78.740593 63.572414 -0.41184977
82.786537 63.455051 0
83.488091 63.4347 0.54449415
64 64 -0
64 64 -0
72.132652 63.769009 -0.90117586
73.039108 63.743263 -0.75377822
75.505539 63.67321 -0.64146918
78.751251 63.581024 -0.41214034
82.786865 63.4664 0
83.488434 63.446472 0.54449415
64 64 -0
64 64 -0
72.10244 63.779667 -0.89779747
73.008629 63.755024 -0.75121123
75.505928 63.687115 -0.64146918
78.751747 63.598846 -0.41214034
82.792694 63.48896 0
83.483871 63.470165 0.5443486
64 64 -0
64 64 -0
72.189056 63.787212 -0.90736592
73.008919 63.765907 -0.75121123
75.480423 63.701687 -0.64002687
78.741821 63.616943 -0.41184977
82.782898 63.511936 0
83.474121 63.493977 0.54405862
64 64 -0
64 64 -0
72.143585 63.798241 -0.90230054
73.034851 63.776157 -0.75335068
75.511818 63.71479 -0.64175719
78.75267 63.634499 -0.41214034
82.793869 63.534374 0
83.469528 63.517635 0.5439136
64 64 -0
64 64 -0
72.164146 63.807602 -0.90455204
73.019714 63.787437 -0.75206637
75.532837 63.728214 -0.64291036
78.768692 63.651955 -0.4125759
82.789223 63.557209 0
83.470093 63.541161 0.5439136
64 64 -0
64 64 -0
72.174759 63.827118 -0.90567893
73.025352 63.809128 -0.75249559
75.512772 63.756523 -0.64175719
78.753899 63.687977 -0.41214034
78.747063 63.688122 0
83.476341 63.588104 0.54405862
64 64 -0
64 64 -0
72.134315 63.837803 -0.90117586
73.020424 63.820137 -0.75206637
75.513062 63.770432 -0.64175719
78.775047 63.705391 -0.41272089
82.821938 63.624695 0
83.48201 63.611534 0.54420358
64 64 -0
64 64 -0
72.144661 63.847443 -0.90230054
73.020638 63.831036 -0.75206637
75.523666 63.784153 -0.64233321
78.764992 63.723438 -0.41243035
82.82238 63.647438 0
83.50325 63.634686 0.54478413
64 64 -0
64 64 -0
72.144836 63.857285 -0.90230054
73.051643 63.841396 -0.75463498
75.534271 63.797894 -0.64291036
78.74453 63.741642 -0.41184977
82.817574 63.670273 0
83.462112 63.658981 0.54362303
64 64 -0
64 64 -0
72.145004 63.867126 -0.90230054
73.0467 63.852417 -0.75420743
75.503464 63.812336 -0.64118004
78.760422 63.759205 -0.41228533
64 64 0
83.498886 63.681904 0.54463917
64 64 -0
64 64 -0
72.150238 63.876892 -0.90286285
73.046875 63.863346 -0.75420743
75.534729 63.825768 -0.64291036
78.7659 63.776962 -0.41243035
82.823532 63.715672 0
83.483665 63.7057 0.54420358
64 64 -0
64 64 -0
72.135147 63.886951 -0.90117586
73.072693 63.87392 -0.75634688
75.534927 63.839706 -0.64291036
78.77137 63.794731 -0.4125759
82.797821 63.738777 0
83.473625 63.729385 0.5439136
64 64 -0
64 64 -0
72.155602 63.896523 -0.90342736
73.026642 63.885471 -0.75249559
75.529945 63.85371 -0.64262235
78.750816 63.812843 -0.41199535
82.824165 63.761162 0
83.479126 63.75285 0.54405862
64 64 -0
64 64 -0
72.150627 63.906437 -0.90286285
73.062698 63.895966 -0.75549012
75.561142 63.867287 -0.64435154
78.751038 63.830666 -0.41199535
82.814018 63.784027 0
83.484604 63.776329 0.54420358
64 64 -0
64 64 -0
72.171059 63.916077 -0.90511441
73.006355 63.907497 -0.75078368
75.545769 63.881413 -0.64348638
78.751228 63.848492 -0.41199535
82.819466 63.806705 0
83.484863 63.799873 0.54420358
64 64 -0
64 64 -0
72.171158 63.925949 -0.90511441
73.083458 63.917683 -0.75720197
75.556259 63.895271 -0.64406353
78.740997 63.866409 -0.41170478
82.814484 63.829494 0
83.46949 63.823559 0.54376805
64 64 -0
64 64 -0
72.150909 63.935982 -0.90286285
73.037346 63.92902 -0.75335068
75.509827 63.909599 -0.64146918
78.746338 63.884182 -0.41184977
82.804276 63.85231 0
83.474899 63.847042 0.5439136
64 64 -0
64 64 -0
72.181488 63.945629 -0.90624124
73.022018 63.940041 -0.75206637
75.571983 63.923096 -0.64492756
78.772469 63.901825 -0.4125759
82.788826 63.875134 0
83.495857 63.870434 0.54449415
64 64 -0
64 64 -0
72.12561 63.950909 -0.90004897
73.047737 63.945335 -0.75420743
75.566856 63.930119 -0.64463955
78.767311 63.910782 -0.41243035
82.783699 63.886517 0
83.46994 63.88237 0.54376805
64 64 -0
64 64 -0
72.140915 63.960651 -0.90173817
73.05806 63.956219 -0.75506252
75.566933 63.944096 -0.64463955
78.741432 63.928749 -0.41170478
82.820236 63.909039 0
83.470062 63.905895 0.54376805
64 64 -0
64 64 -0
72.13588 63.970509 -0.90117586
73.068382 63.967129 -0.75591928
75.598038 63.957958 -0.64636987
78.762291 63.946487 -0.41228533
82.841156 63.931702 0
83.444183 63.929516 0.54304248
64 64 -0
64 64 -0
72.176567 63.98024 -0.90567893
73.042732 63.978146 -0.75377822
75.618774 63.97192 -0.64752305
78.736366 63.964386 -0.41155979
82.80481 63.954556 0
83.444252 63.953011 0.54304248
64 64 -0
64 64 -0
72.130829 63.990177 -0.90061134
73.047897 63.989067 -0.75420743
75.592918 63.985992 -0.64608073
78.720802 63.982212 -0.41112423
82.799622 63.977283 0
83.491066 63.976448 0.5443486
64 64 -0
64 64 -0
72.181664 64 -0.90624124
73.042755 64 -0.75377822
75.577423 64 -0.6452167
78.788368 64 -0.4130109
82.794441 64 0
83.480698 64 0.54405862
64 64 -0
64 64 -0
72.166412 64.009865 -0.90455204
73.063286 64.010948 -0.75549012
75.592918 64.014008 -0.64608073
78.84034 64.017929 -0.41446257
82.78923 64.022705 0
83.480682 64.023537 0.54405862
64 64 -0
64 64 -0
72.156235 64.019707 -0.90342736
73.053009 64.021881 -0.75463498
75.582558 64.027992 -0.64550471
78.835091 64.035851 -0.41431701
82.810005 64.045456 0
83.475449 64.047066 0.5439136
64 64 -0
64 64 -0
72.166359 64.029602 -0.90455204
73.027306 64.032722 -0.75249559
75.629066 64.042152 -0.64809906
78.824654 64.053741 -0.41402701
82.804733 64.068169 0
83.485756 64.070633 0.54420358
64 64 -0
