# .PCD v0.7 - Point Cloud Data file format
VERSION 0.7
FIELDS x y z
SIZE 4 4 4
TYPE F F F
COUNT 1 1 1
WIDTH 1646
HEIGHT 1
VIEWPOINT 0 0 0 1 0 0 0
POINTS 1646
DATA ascii
68.725418 67.398445 -0.95961112
68.798393 67.450928 -0.81533861
68.794075 67.447823 -0.65408188
68.761406 67.424324 -0.48888087
68.708336 67.386162 -0.32321095
68.778984 67.436966 -0.16439994
68.943916 67.55558 0
69.673187 68.080063 0.19516115
68.757393 67.430168 -0.96694499
68.798286 67.459656 -0.81603014
68.781654 67.447662 -0.652955
68.765587 67.436073 -0.48973599
68.687454 67.379745 -0.32205778
68.80011 67.460968 -0.16527051
68.99028 67.598083 0
69.621895 68.05349 0.19356503
68.721191 67.41275 -0.96042532
68.77784 67.45369 -0.81326151
68.798088 67.46833 -0.65577102
68.761429 67.441833 -0.48973599
68.712708 67.406609 -0.32407501
68.800148 67.469818 -0.16541606
68.931091 67.564476 0
69.633842 68.072456 0.19414559
68.725082 67.424255 -0.96205682
68.789909 67.471237 -0.81603014
68.781548 67.465179 -0.65408188
68.748962 67.441566 -0.48888087
68.704399 67.409271 -0.323787
68.795952 67.475616 -0.16541606
68.922554 67.567368 0
69.67099 68.109756 0.19559671
68.744926 67.447388 -0.96694499
68.810074 67.494728 -0.82018441
68.781464 67.473938 -0.65464419
68.765564 67.462387 -0.49102029
68.70446 67.417992 -0.32407501
68.804352 67.490562 -0.16585106
68.926674 67.579437 0
69.644997 68.101334 0.19487114
68.728783 67.444397 -0.96450245
68.805855 67.500534 -0.82018441
68.781364 67.482704 -0.65520656
68.765526 67.471161 -0.49144787
68.67942 67.408447 -0.32263383
68.812737 67.505547 -0.16628662
68.92234 67.585388 0
69.535027 68.031662 0.1912428
68.680702 67.418037 -0.95553708
68.838081 67.532967 -0.82641321
68.80999 67.512451 -0.65970963
68.761322 67.476913 -0.49144787
68.692009 67.4263 -0.323787
68.787514 67.49604 -0.16556107
68.909592 67.58519 0
69.584709 68.078186 0.19312946
68.724434 67.458733 -0.96531665
68.845963 67.547707 -0.82849038
68.809837 67.521255 -0.66027194
68.773689 67.494797 -0.49315974
68.692039 67.43502 -0.32407501
68.800064 67.514099 -0.16614161
68.934662 67.61264 0
69.59655 68.097206 0.19371003
68.684387 67.438118 -0.95798272
68.809311 67.529808 -0.8229531
68.826073 67.542114 -0.66308802
68.728081 67.470192 -0.48888087
68.687881 67.440689 -0.32407501
68.795807 67.519897 -0.16614161
68.93029 67.618599 0
69.541321 68.06707 0.19196835
68.712082 67.467216 -0.96450245
68.817154 67.544533 -0.82502759
68.801315 67.532875 -0.66027194
68.773514 67.512413 -0.4940165
68.683723 67.44635 -0.32407501
68.795738 67.52877 -0.16628662
68.925911 67.624557 0
69.5364 68.073761 0.19196835
68.668098 67.443558 -0.95635128
68.792686 67.535461 -0.82156742
68.788872 67.532646 -0.65914726
68.752739 67.505989 -0.49230462
68.667076 67.442802 -0.32321095
68.778915 67.525307 -0.16585106
68.925713 67.633591 0
69.485481 68.046524 0.19037224
68.691528 67.478378 -0.96287096
68.780098 67.544044 -0.82087594
68.784393 67.547226 -0.65970963
68.756622 67.526642 -0.49358892
68.696136 67.481796 -0.32580534
68.77874 67.543037 -0.16614161
68.94619 67.667191 0
69.454803 68.044281 0.18964612
68.695267 67.489952 -0.96450245
68.787895 67.5588 -0.8229531
68.808662 67.574234 -0.66365033
68.756477 67.535446 -0.4940165
68.687767 67.484375 -0.32551619
68.791138 67.561211 -0.16672218
68.883278 67.6297 0
69.566696 68.137672 0.19371003
68.702927 67.504471 -0.96694499
68.771523 67.555588 -0.82087594
68.796181 67.573959 -0.66252351
68.748093 67.538124 -0.49358892
68.695999 67.499313 -0.32638136
68.782669 67.563896 -0.16657718
68.908096 67.657356 0
69.453354 68.063667 0.18993668
68.710571 67.519028 -0.96939069
68.855644 67.627403 -0.83610219
68.800011 67.585838 -0.66365033
68.73558 67.537712 -0.49273217
68.66275 67.483307 -0.32436302
68.79084 67.578995 -0.16701217
68.920349 67.675743 0
69.51088 68.116898 0.19211335
68.666763 67.495094 -0.96124262
68.811104 67.603195 -0.82918185
68.803802 67.597725 -0.66477501
68.70665 67.524971 -0.4901652
68.67926 67.504456 -0.32580534
68.774048 67.575439 -0.16657718
68.932571 67.694168 0
69.431038 68.06749 0.18950112
68.686241 67.518532 -0.96613085
64 64 -0
68.811646 67.612686 -0.66646421
68.759857 67.573807 -0.49615592
68.708115 67.53495 -0.32811165
68.753098 67.568726 -0.16599661
68.898979 67.678261 0
69.426117 68.074043 0.18950112
68.644615 67.491661 -0.95798272
68.796539 67.605881 -0.82779622
68.801346 67.609489 -0.66533953
68.737183 67.561256 -0.4940165
68.677025 67.516029 -0.32609335
68.780006 67.593445 -0.16701217
68.921715 67.699974 0
69.386276 68.049217 0.18819501
68.616699 67.479416 -0.95309138
68.792175 67.611671 -0.82779622
68.813194 67.62751 -0.66758895
68.708267 67.548431 -0.49144787
68.672775 67.521683 -0.32609335
68.763222 67.589844 -0.16657718
68.921387 67.709053 0
69.406273 68.074486 0.18906556
68.671654 67.529694 -0.96531665
64 64 -0
68.829094 67.648651 -0.67040497
68.732658 67.575783 -0.49444404
68.697411 67.549156 -0.32811165
68.75058 67.589325 -0.16628662
68.912758 67.711861 0
69.417931 68.093552 0.18964612
68.643738 67.517426 -0.96042532
68.807442 67.641426 -0.83195055
68.808479 67.642212 -0.66815341
68.748795 67.597 -0.49658346
68.693123 67.554832 -0.32811165
68.779381 67.620171 -0.16744773
68.908264 67.717796 0
69.371559 68.068718 0.18819501
68.643433 67.526031 -0.96124262
68.831001 67.668465 -0.83679366
68.816208 67.657227 -0.66984046
68.748528 67.605835 -0.49701104
68.684692 67.557358 -0.32782254
68.770866 67.622803 -0.16730273
68.907913 67.726868 0
69.366638 68.075203 0.18819501
68.627365 67.522652 -0.95879692
68.806602 67.659103 -0.83333349
68.823914 67.672279 -0.67152965
68.727844 67.599144 -0.4953008
68.684517 67.566162 -0.32811165
68.7789 67.638008 -0.16773829
68.919975 67.745407 0
69.390663 68.103729 0.18921113
68.627029 67.531235 -0.95961112
68.798195 67.661865 -0.83264202
68.831596 67.687363 -0.67321885
68.72757 67.607964 -0.49572834
68.713089 67.596916 -0.33041689
68.774498 67.643784 -0.16773829
68.89476 67.735565 0
69.410477 68.12915 0.19008169
68.638458 67.548836 -0.96287096
68.777832 67.655464 -0.82987338
68.827141 67.693192 -0.67321885
68.723206 67.613678 -0.49572834
68.688202 67.586891 -0.32897571
68.786583 67.66217 -0.16831829
68.886108 67.738312 0
69.372467 68.11042 0.18892057
68.681236 67.590546 -0.97265059
68.797287 67.67955 -0.83402503
68.830734 67.705208 -0.67434353
68.731041 67.628746 -0.49701104
68.683861 67.592552 -0.32897571
68.769798 67.65847 -0.16788329
68.893967 67.753708 0
69.309776 68.072632 0.18688889
68.633789 67.563049 -0.96368515
68.765007 67.663948 -0.82918185
68.830292 67.714142 -0.67490804
68.75515 67.656364 -0.50000721
68.683617 67.601364 -0.32926372
68.769493 67.667397 -0.1680283
68.90181 67.769142 0
69.230698 68.022034 0.18427666
68.637314 67.574684 -0.96531665
68.792366 67.694206 -0.83471918
68.817741 67.713768 -0.67378122
68.746666 67.658981 -0.49957964
68.658775 67.591232 -0.32782254
68.781517 67.685844 -0.16860884
68.893135 67.771889 0
69.279343 68.069595 0.18616334
68.58606 67.544014 -0.95553708
68.79187 67.703064 -0.83541065
68.829338 67.732018 -0.67603272
68.730049 67.655289 -0.49829534
68.68309 67.619003 -0.32984087
68.756508 67.675735 -0.16788329
68.892693 67.780975 0
69.360771 68.1427 0.18921113
68.597404 67.561661 -0.95879692
68.76358 67.690407 -0.83125639
68.836876 67.747192 -0.67772192
68.733757 67.667297 -0.49915209
68.690987 67.634163 -0.33070603
68.756165 67.684662 -0.1680283
68.896355 67.793266 0
69.326996 68.126892 0.18819501
68.632126 67.597534 -0.96694499
68.751198 67.69001 -0.82987338
68.832344 67.753029 -0.67772192
68.753639 67.691902 -0.50171906
68.698837 67.649338 -0.33157006
68.772224 67.706337 -0.16875385
68.908211 67.811951 0
69.371262 68.171577 0.18993668
68.623878 67.60009 -0.96613085
68.738831 67.68959 -0.82849038
68.823799 67.755745 -0.67715961
68.737022 67.688179 -0.50043476
68.68219 67.645493 -0.33070603
68.780052 67.72168 -0.16918941
68.891273 67.808281 0
69.427711 68.225945 0.19211335
68.627327 67.611763 -0.96776235
68.762039 67.716911 -0.83333349
68.843292 67.780327 -0.68053579
68.736618 67.697067 -0.50086397
68.706314 67.673416 -0.33272323
68.759163 67.714668 -0.16860884
68.898987 67.823799 0
69.36116 68.184547 0.18993668
68.615166 67.611252 -0.96613085
68.745689 67.713387 -0.83125639
68.810699 67.764252 -0.67659509
68.748322 67.715446 -0.50257581
68.632622 67.624908 -0.32782254
68.758759 67.72361 -0.16875385
68.886154 67.823296 0
64 64 0
68.630241 67.63208 -0.97020489
68.768837 67.740799 -0.83610219
68.818146 67.779472 -0.67828429
68.776131 67.746521 -0.5059979
68.660797 67.656044 -0.33012888
68.766525 67.738983 -0.16918941
68.852859 67.806709 0
70.13607 68.813293 0.21780179
68.602547 67.619347 -0.96531665
68.764313 67.746559 -0.83610219
68.789612 67.766457 -0.67490804
68.82003 67.790367 -0.51113355
68.680779 67.68087 -0.3318592
68.75383 67.738312 -0.16889885
68.860535 67.82222 0
70.211952 68.884949 0.22070459
68.551582 67.588181 -0.95553708
68.744019 67.739883 -0.83333349
68.781059 67.769081 -0.67434353
68.924309 67.882011 -0.52268904
68.680389 67.68972 -0.33214721
68.765633 67.75692 -0.1694794
68.87635 67.8442 0
70.242775 68.92141 0.22201069
68.582146 67.621262 -0.96287096
68.755249 67.758057 -0.83610219
68.79245 67.78746 -0.67659509
69.052528 67.992996 -0.53680992
68.696213 67.711411 -0.33358839
68.761093 67.76268 -0.1694794
68.867615 67.84687 0
70.179749 68.883842 0.21997902
68.554527 67.608383 -0.95798272
68.750702 67.763802 -0.83610219
68.791862 67.79641 -0.67715961
69.12014 68.056496 -0.54451418
68.663345 67.694588 -0.33157006
68.764694 67.774887 -0.16976996
68.879288 67.865677 0
70.206429 68.917122 0.22114013
68.577248 67.635391 -0.96368515
68.742226 67.766426 -0.83541065
68.76339 67.783234 -0.67378122
69.131317 68.075455 -0.54622602
68.679138 67.716316 -0.33301234
68.756065 67.777412 -0.16962497
68.870537 67.868332 0
70.184204 68.91169 0.22055958
68.594406 67.653549 -0.96776235
68.728165 67.759918 -0.83333349
68.780983 67.801918 -0.67659509
69.136887 68.084938 -0.54708111
68.668785 67.7127 -0.33243522
68.753784 67.780289 -0.16962497
68.868202 67.871277 0
70.16497 68.902481 0.21997902
68.613174 67.677582 -0.97265059
68.758926 67.79377 -0.8395623
68.788315 67.8172 -0.67828429
69.152016 68.10714 -0.54922056
68.660255 67.715118 -0.33214721
68.749214 67.786026 -0.16962497
68.883865 67.893372 0
70.138725 68.893738 0.21925347
68.531494 67.621429 -0.95635128
68.754333 67.799522 -0.8395623
68.755905 67.800774 -0.67434353
69.131004 68.10054 -0.54750872
68.663841 67.727196 -0.33272323
68.748688 67.795006 -0.16976996
68.875099 67.896027 0
70.197746 68.953049 0.22157514
68.557983 67.651634 -0.96287096
68.847633 67.88369 -0.8568657
68.775116 67.825584 -0.67772192
69.114037 68.097115 -0.54622602
68.667412 67.739304 -0.33330038
68.776543 67.826736 -0.17093109
68.870384 67.901917 0
70.163376 68.937798 0.22055958
68.595963 67.691185 -0.97183639
69.089386 68.087471 -0.9004699
68.790291 67.84726 -0.68053579
69.093071 68.090431 -0.54451418
68.670952 67.751411 -0.3338764
68.747597 67.812973 -0.17005996
68.86161 67.904541 0
70.137154 68.92897 0.21983401
68.606903 67.709137 -0.97509623
69.334557 68.294991 -0.94476557
68.773766 67.843483 -0.6788466
69.052139 68.067612 -0.54066288
68.682533 67.770035 -0.33502957
68.779419 67.848038 -0.17136608
68.848778 67.903877 0
70.163559 68.962448 0.22099458
68.548553 67.671234 -0.96368515
69.368416 68.332954 -0.95168853
68.765167 67.846062 -0.67828429
69.003265 68.038239 -0.53595483
68.686035 67.782188 -0.33560672
68.746468 67.830971 -0.17035052
68.840012 67.906464 0
70.129265 68.947052 0.21997902
68.551811 67.682945 -0.96531665
69.382675 68.355217 -0.9551487
68.756569 67.848618 -0.67772192
68.994392 68.041054 -0.53552723
68.685478 67.7911 -0.33589473
68.790314 67.875931 -0.1720922
68.851471 67.925407 0
70.171761 68.993683 0.2217207
68.585739 67.719582 -0.97346473
69.365715 68.352234 -0.95307153
68.779526 67.876762 -0.68166047
69.013428 68.066483 -0.53809422
68.668839 67.78698 -0.33502957
68.765434 67.865334 -0.17136608
68.862892 67.944382 0
64 64 0
68.539062 67.690819 -0.96450245
69.360451 68.358711 -0.95307153
68.759071 67.869713 -0.67940897
69.008507 68.07254 -0.53809422
68.664253 67.792618 -0.33502957
68.756737 67.867813 -0.17122108
68.874275 67.963394 0
64 64 0
68.588234 67.740021 -0.97591043
69.374619 68.381035 -0.95653164
68.774094 67.891525 -0.68222499
69.027466 68.098053 -0.54066288
68.69175 67.824402 -0.33733591
68.760124 67.880135 -0.17151164
68.849304 67.952827 0
69.070084 68.132797 0.18267998
68.533958 67.704903 -0.96531665
69.338242 68.362122 -0.95099437
68.757584 67.887642 -0.68053579
68.978775 68.06839 -0.53595483
68.655075 67.803879 -0.33502957
68.743355 67.876015 -0.17107607
68.848564 67.961983 0
64 64 0
68.560066 67.735443 -0.97183639
69.352386 68.384476 -0.95445716
68.768608 67.906265 -0.68278736
68.961937 68.064636 -0.53467047
68.666489 67.822617 -0.33618274
68.758766 67.898201 -0.17180164
68.855843 67.977722 0
69.224915 68.280052 0.18863057
68.54409 67.731537 -0.96939069
69.354836 68.397308 -0.95584017
68.834564 67.97007 -0.69291818
68.949097 68.064117 -0.53381538
68.661865 67.828247 -0.33618274
68.762093 67.910553 -0.1720922
68.834938 67.970375 0
69.010887 68.114868 0.18108331
68.581558 67.771584 -0.97835612
69.353386 68.40696 -0.95653164
68.880768 68.017891 -0.70023519
68.928329 68.057045 -0.53210354
68.6772 67.850311 -0.33762392
68.745323 67.906395 -0.17165664
68.810051 67.959679 0
68.941734 68.068085 0.17876165
68.523613 67.733063 -0.96694499
69.363533 68.426201 -0.95930034
68.922943 68.062599 -0.70698977
68.923424 68.062996 -0.53210354
68.660583 67.846092 -0.3367599
68.748604 67.918732 -0.17194664
68.769135 67.935677 0
69.085098 68.196426 0.1841311
68.534332 67.751129 -0.97020489
69.350456 68.426285 -0.95791733
68.906281 68.05883 -0.70530057
68.906639 68.05912 -0.53081918
68.647957 67.845123 -0.33618274
68.775902 67.950974 -0.17310776
68.796463 67.967979 0
68.987938 68.126381 0.18079332
68.552635 67.775543 -0.97509623
69.345108 68.432747 -0.95791733
68.901367 68.064751 -0.70530057
68.905678 68.068321 -0.53124678
68.687111 67.887062 -0.33935425
68.775124 67.960052 -0.17325275
68.803688 67.983742 0
69.03495 68.175529 0.18267998
68.521461 67.758919 -0.96939069
69.328171 68.429573 -0.95584017
68.896454 68.070671 -0.70530057
68.877075 68.054558 -0.52867979
68.658531 67.872879 -0.33762392
68.754364 67.952545 -0.17267275
68.810867 67.999512 0
68.985939 68.145065 0.18108331
68.520706 67.76754 -0.97020489
69.330528 68.442444 -0.9572258
68.883736 68.070084 -0.70417589
68.8564 68.047302 -0.52696788
68.685646 67.904999 -0.33993027
68.74958 67.958282 -0.17267275
68.874001 68.061974 0
68.980927 68.151085 0.18108331
68.51236 67.769836 -0.96939069
69.317451 68.442436 -0.95584017
68.886604 68.082489 -0.70530057
68.827873 68.033424 -0.52440095
68.672989 67.90403 -0.33935425
68.764732 67.980675 -0.17339832
68.829147 68.034492 0
68.967941 68.150444 0.18079332
68.530533 67.794319 -0.97427893
69.319778 68.455307 -0.9572258
68.866081 68.07534 -0.70304906
68.834793 68.049133 -0.52568358
68.676193 67.916306 -0.33993027
68.759918 67.986427 -0.17339832
68.824272 68.040321 0
68.970879 68.163109 0.18108331
68.507019 67.783905 -0.97020489
69.325905 68.471405 -0.95930034
68.861153 68.081223 -0.70304906
68.814163 68.041771 -0.52397174
68.651649 67.905327 -0.33848909
68.767029 68.002197 -0.17383331
68.795479 68.026077 0
68.934021 68.142395 0.17992276
68.474464 67.761177 -0.96368515
69.327042 68.477844 -0.95999181
68.831467 68.061279 -0.69911045
68.77636 68.014946 -0.52012044
68.661171 67.918129 -0.33935425
68.748695 67.991699 -0.17325275
68.804985 68.039009 0
68.959351 68.16877 0.18093832
68.50016 67.792068 -0.97020489
69.306297 68.471359 -0.9572258
68.830444 68.070381 -0.69967282
68.724388 67.981018 -0.51498485
68.684113 67.947083 -0.34137145
68.775665 68.024223 -0.17441387
68.812042 68.054878 0
68.946373 68.168068 0.18064831
68.450256 67.759224 -0.96042532
69.297043 68.474518 -0.95653164
68.833275 68.082764 -0.7007975
68.723511 67.990044 -0.515414
68.667496 67.942734 -0.34050742
68.754921 68.016579 -0.17383331
68.827019 68.077484 0
68.93338 68.167328 0.18035775
68.468353 67.783768 -0.96531665
69.318443 68.503616 -0.96137744
68.812828 68.07547 -0.69854599
68.726517 68.00238 -0.51626915
68.670616 67.955048 -0.34108344
68.746101 68.018967 -0.17368831
68.869751 68.123672 0
68.944206 68.186722 0.18093832
68.501457 67.821152 -0.97346473
69.293877 68.493813 -0.95791733
68.78466 68.061554 -0.69516975
68.706017 67.994797 -0.51455724
68.669777 67.964035 -0.34137145
68.741241 68.024696 -0.17368831
68.825096 68.095879 0
68.947075 68.199425 0.18122888
68.478012 67.81057 -0.96939069
69.292259 68.503448 -0.95860881
68.779755 68.067337 -0.69516975
68.705093 68.003799 -0.51498485
68.676804 67.979736 -0.34223661
68.764084 68.054001 -0.17470443
68.748795 68.040993 0
68.934074 68.198654 0.18093832
68.484695 67.825607 -0.97183639
69.279182 68.503334 -0.9572258
68.763229 68.06321 -0.69348055
68.711975 68.019485 -0.51626915
68.671997 67.985382 -0.34223661
68.759178 68.059753 -0.17470443
68.831024 68.12104 0
68.932953 68.207985 0.18108331
68.472549 67.824593 -0.97020489
69.281357 68.516228 -0.95860881
68.742867 68.055748 -0.69122899
68.714928 68.031853 -0.5171259
68.702553 68.021278 -0.34483096
68.746361 68.058739 -0.17441387
68.778572 68.086281 0
68.908119 68.19706 0.18035775
68.452911 67.817123 -0.96694499
69.275894 68.522606 -0.95860881
68.757263 68.078026 -0.69404507
68.686653 68.017494 -0.51455724
68.685921 68.016869 -0.3439669
68.741455 68.064468 -0.17441387
68.793381 68.108986 0
68.92672 68.223289 0.18122888
68.452057 67.825729 -0.96776235
69.266624 68.525711 -0.95791733
68.740768 68.07383 -0.69235587
68.712952 68.049927 -0.51798099
68.677132 68.019142 -0.34367779
68.740494 68.073593 -0.17455943
68.808151 68.131729 0
68.921616 68.229233 0.18122888
68.484871 67.863365 -0.97591043
69.249748 68.52224 -0.95584017
68.731995 68.076241 -0.6917935
68.731384 68.075714 -0.52054799
68.680115 68.031555 -0.34425494
68.759186 68.099663 -0.17542998
68.846535 68.174911 0
68.920433 68.238571 0.18137386
68.449356 67.85154 -0.97020489
69.250191 68.544769 -0.95791733
68.772079 68.130898 -0.69911045
68.706009 68.073708 -0.51883775
68.674271 68.046234 -0.34454295
68.733551 68.097549 -0.17484942
68.820694 68.172981 0
68.921967 68.260651 0.18180943
68.48204 67.88932 -0.97835612
69.27121 68.57412 -0.96276045
68.747894 68.12001 -0.69629657
68.704956 68.082756 -0.51926529
68.669373 68.05188 -0.34454295
68.756073 68.127113 -0.17586555
68.776344 68.144699 0
68.928581 68.27681 0.18224443
68.43631 67.859039 -0.96939069
69.239189 68.557449 -0.95791733
68.750572 68.132416 -0.69742125
68.715515 68.101913 -0.5209772
68.676186 68.067703 -0.34540811
68.743233 68.126022 -0.17557499
68.771332 68.150467 0
68.919495 68.27935 0.18209943
68.442825 67.874153 -0.97183639
69.218552 68.550583 -0.9551487
68.749405 68.141487 -0.69798362
68.718285 68.114349 -0.52183229
68.671272 68.073349 -0.34540811
68.738243 68.131752 -0.17557499
68.770233 68.159645 0
68.918236 68.288704 0.18224443
68.490242 67.925056 -0.9832443
69.247047 68.586601 -0.96137744
68.732933 68.137199 -0.69629657
68.71331 68.120049 -0.52183229
68.681923 68.092613 -0.34656128
68.737175 68.140907 -0.17572054
68.776947 68.175674 0
68.913048 68.294647 0.18224443
68.418579 67.871841 -0.96857649
69.237732 68.589638 -0.96068597
68.747032 68.159653 -0.69911045
68.712189 68.12912 -0.52225983
68.688637 68.108482 -0.34742531
68.739975 68.153473 -0.17601055
68.81105 68.215752 0
68.903946 68.297157 0.18209943
68.432465 67.893486 -0.97265059
69.232178 68.595963 -0.96068597
68.772545 68.192215 -0.70361352
68.707191 68.134811 -0.52225983
68.699211 68.1278 -0.34857848
68.750572 68.172913 -0.1765911
68.723839 68.149429 0
68.914368 68.316795 0.18267998
68.435165 67.905365 -0.97427893
69.211563 68.589012 -0.95791733
68.778908 68.208046 -0.70530057
68.717606 68.154068 -0.52397174
68.678696 68.119804 -0.34742531
68.741631 68.175217 -0.1764461
68.796951 68.22393 0
68.909149 68.322731 0.18267998
68.426743 67.907455 -0.97346473
69.228577 68.615227 -0.96206897
68.758583 68.200363 -0.70304906
68.716446 68.16317 -0.52440095
68.689224 68.139145 -0.34857848
68.740471 68.18438 -0.1765911
68.69429 68.143616 0
68.907822 68.332092 0.18282498
68.396118 67.889885 -0.96776235
69.215485 68.614899 -0.96068597
68.772545 68.222961 -0.70586509
68.738312 68.192673 -0.52739549
68.70359 68.161942 -0.35001966
68.735413 68.190109 -0.1765911
68.786728 68.235512 0
68.90258 68.33802 0.18282498
68.402496 67.905022 -0.97020489
69.172363 68.587891 -0.95376301
68.767441 68.228722 -0.70586509
68.725571 68.191589 -0.52654034
68.690819 68.160767 -0.34944364
68.749786 68.213066 -0.17731667
68.816643 68.272369 0
68.893448 68.3405 0.18267998
68.368225 67.884064 -0.96368515
69.196808 68.620811 -0.95930034
68.788895 68.25811 -0.70980364
68.716667 68.193886 -0.52611279
68.693512 68.173302 -0.35001966
68.729156 68.204987 -0.1767361
68.799805 68.267807 0
68.892082 68.349861 0.18282498
68.393051 67.915649 -0.97020489
69.217445 68.650459 -0.96414608
68.760994 68.243614 -0.70642745
68.765251 68.247406 -0.53210354
68.700058 68.189301 -0.35088482
68.724068 68.210701 -0.1767361
68.825729 68.301315 0
68.917862 68.38343 0.1839861
68.420189 67.944633 -0.97672462
69.2034 68.643585 -0.96206897
68.784958 68.270164 -0.71036601
68.74353 68.233192 -0.52996409
68.697525 68.192139 -0.35088482
68.737038 68.227394 -0.17731667
68.749344 68.23838 0
68.903572 68.376015 0.18355055
68.44857 67.97963 -0.9840585
69.205276 68.65657 -0.9634546
68.783592 68.279343 -0.71093053
68.734573 68.235489 -0.52953488
68.669334 68.177124 -0.34915563
68.735794 68.236572 -0.17746165
68.713196 68.216362 0
68.890541 68.375015 0.18326055
68.406967 67.952003 -0.97591043
69.1847 68.649452 -0.96068597
68.767067 68.274933 -0.70924133
68.729454 68.241203 -0.52953488
68.687378 68.203476 -0.35088482
68.726807 68.238831 -0.17731667
68.785583 68.291542 0
68.892982 68.387856 0.18355055
68.37645 67.934196 -0.97020489
69.179077 68.655716 -0.96068597
68.784569 68.301071 -0.71261752
68.747246 68.267517 -0.53210354
68.690002 68.216057 -0.35146198
68.737137 68.258438 -0.17789721
68.699112 68.224251 0
68.891556 68.397247 0.18369611
68.360687 67.929558 -0.96776235
69.162262 68.651894 -0.95860881
68.779366 68.306847 -0.71261752
68.72683 68.259506 -0.53039163
68.684906 68.221725 -0.35146198
68.731987 68.264153 -0.17789721
68.806137 68.330971 0
68.886238 68.403152 0.18369611
68.352257 67.931503 -0.96694499
69.17897 68.678299 -0.96276045
68.774155 68.312622 -0.71261752
68.736916 68.278976 -0.53210354
68.691307 68.237778 -0.35232601
68.734558 68.27684 -0.17818777
68.773857 68.312347 0
68.896339 68.422989 0.18427666
68.391472 67.976578 -0.97672462
69.177048 68.687927 -0.9634546
68.787788 68.335449 -0.7154336
68.735542 68.288139 -0.53253108
68.716858 68.271217 -0.35463235
68.702415 68.258141 -0.17717166
68.772514 68.321617 0
68.879433 68.418434 0.18384111
68.39399 67.988533 -0.97835612
69.18251 68.704292 -0.96552908
68.77877 68.337807 -0.71486908
68.726562 68.290413 -0.53210354
68.677223 68.245628 -0.352038
68.720345 68.284767 -0.17804222
68.740303 68.302887 0
68.901031 68.448776 0.18485722
68.363571 67.970543 -0.97265059
69.199097 68.73082 -0.96968341
68.769775 68.340157 -0.71430671
68.721375 68.29612 -0.53210354
68.695053 68.272171 -0.35376829
68.722862 68.29747 -0.17833278
68.654259 68.235054 0
68.880272 68.440704 0.18427666
68.362419 67.979141 -0.97346473
69.160019 68.706665 -0.9634546
68.783295 68.363037 -0.71712065
68.735146 68.319122 -0.53424293
68.689888 68.27784 -0.35376829
68.725334 68.310173 -0.17862277
68.699127 68.28627 0
68.894096 68.464111 0.18500222
68.401382 68.024437 -0.9832443
69.146912 68.706116 -0.96206897
68.800529 68.389397 -0.72049904
68.726135 68.321373 -0.53381538
68.680885 68.279999 -0.35347918
68.727798 68.322899 -0.17891333
68.740044 68.334091 0
68.850342 68.434944 0.18355055
68.418381 68.049789 -0.98813254
69.141228 68.712334 -0.96206897
68.761513 68.364296 -0.7154336
68.736053 68.340958 -0.53552723
68.702408 68.310127 -0.35549751
68.726402 68.332115 -0.17905833
68.738632 68.34333 0
68.871803 68.465385 0.18456666
68.34433 67.991592 -0.97265059
69.153999 68.735512 -0.96552908
68.782417 68.394104 -0.71937215
68.719452 68.336258 -0.53424293
68.697197 68.315804 -0.35549751
68.724991 68.341339 -0.17920333
68.737213 68.35257 0
68.923805 68.524017 0.1867439
68.361313 68.016922 -0.97753876
69.129822 68.724747 -0.96206897
68.780838 68.40332 -0.71993452
68.733093 68.359344 -0.53638238
68.7034 68.331993 -0.35636267
68.719742 68.347046 -0.17920333
68.731949 68.358292 0
68.903046 68.515877 0.18616334
68.301987 67.971901 -0.96531665
69.131493 68.737755 -0.9634546
68.768051 68.402206 -0.71880984
68.724052 68.36158 -0.53595483
68.705757 68.344688 -0.35693869
68.741219 68.377426 -0.18021944
68.738159 68.374603 0
68.840309 68.468918 0.1839861
68.32621 68.003952 -0.97183639
69.14785 68.764389 -0.96760625
68.777649 68.421768 -0.72106135
68.726303 68.374252 -0.53680992
68.7005 68.350365 -0.35693869
68.709221 68.358437 -0.17920333
68.767242 68.41214 0
68.918808 68.552414 0.18717889
68.346725 68.032707 -0.97753876
69.116333 68.746719 -0.96276045
68.787201 68.44136 -0.72331291
68.732315 68.390434 -0.53809422
68.695244 68.356041 -0.35693869
68.715385 68.374733 -0.17963889
68.754288 68.41082 0
64 64 0
68.331001 68.027863 -0.97509623
69.139992 68.780235 -0.96829772
68.778114 68.443687 -0.72275054
68.738289 68.406647 -0.53937852
68.70134 68.372284 -0.35780385
68.706291 68.376892 -0.17949389
68.752762 68.420105 0
64 64 0
68.362282 68.066795 -0.9832443
69.123215 68.776184 -0.96622324
68.769012 68.445984 -0.72218603
68.725441 68.405357 -0.53852177
68.703613 68.38501 -0.35837987
68.731407 68.410927 -0.180655
68.785477 68.461334 0
64 64 0
68.314026 68.031563 -0.97346473
69.1101 68.775513 -0.96483761
68.800774 68.486443 -0.72781599
68.74263 68.432106 -0.54109043
68.698311 68.390694 -0.35837987
68.703285 68.39534 -0.1797839
68.776291 68.463562 0
64 64 0
68.312752 68.040146 -0.97427893
69.118973 68.79541 -0.96760625
68.773094 68.47139 -0.72443759
68.744759 68.444847 -0.54194552
68.677902 68.382217 -0.3572267
68.705566 68.408134 -0.18007445
68.721512 68.423073 0
64 64 0
68.304268 68.041977 -0.97346473
69.083908 68.774109 -0.96206897
68.7714 68.480644 -0.72500211
68.743134 68.454102 -0.54237473
68.71032 68.423286 -0.36011019
68.711594 68.424477 -0.18050945
68.73513 68.446587 0
64 64 0
68.281387 68.030235 -0.96939069
69.114677 68.814651 -0.96899188
68.777077 68.496849 -0.7266891
68.734001 68.456299 -0.54194552
68.712502 68.436058 -0.36068621
68.732735 68.455109 -0.18152556
68.744919 68.466576 0
64 64 0
68.301682 68.059158 -0.97509623
69.094261 68.807053 -0.96622324
68.756851 68.488663 -0.72443759
68.736084 68.46907 -0.54280227
68.699615 68.434654 -0.36011019
68.716003 68.450119 -0.18109001
68.750877 68.483025 0
64 64 0
68.32798 68.088913 -0.98161596
69.069466 68.789444 -0.96206897
68.791084 68.526443 -0.73006749
68.737114 68.475456 -0.54322982
68.678139 68.419739 -0.35866898
68.713318 68.452965 -0.18109001
68.736816 68.475166 0
64 64 0
68.315849 68.087334 -0.97998446
69.067314 68.799011 -0.96276045
68.774544 68.521744 -0.7283783
68.72052 68.470581 -0.54194552
68.684052 68.43605 -0.35953304
68.715485 68.465813 -0.18138057
68.727623 68.47731 0
64 64 0
68.267883 68.051704 -0.97020489
69.097908 68.839684 -0.96968341
68.794876 68.552002 -0.73231906
68.730003 68.490417 -0.54365742
68.686203 68.448837 -0.36011019
68.706306 68.467918 -0.181235
68.714668 68.475861 0
64 64 0
68.262985 68.056862 -0.97020489
69.077522 68.832008 -0.96691477
68.770966 68.540283 -0.72950518
68.720863 68.492592 -0.54322982
68.7033 68.475883 -0.36183938
68.723495 68.495102 -0.18210612
68.697945 68.470787 0
64 64 0
68.233055 68.038132 -0.96450245
69.064407 68.831207 -0.96552908
68.783859 68.563576 -0.73231906
68.737709 68.519554 -0.54579681
68.70163 68.48513 -0.36212739
68.703018 68.486458 -0.18152556
68.688774 68.47287 0
64 64 0
68.249603 68.063736 -0.96939069
69.076706 68.854668 -0.96899188
68.785683 68.57637 -0.73344374
68.724831 68.518181 -0.54494172
68.692467 68.487236 -0.36183938
68.712624 68.506508 -0.18210612
68.705933 68.500107 0
64 64 0
68.26609 68.089386 -0.97427893
69.078079 68.867737 -0.97037488
68.787491 68.589188 -0.73457056
68.7379 68.541649 -0.54708111
68.683311 68.489326 -0.36155137
68.725929 68.530174 -0.18283167
68.659157 68.466171 0
64 64 0
68.293236 68.125374 -0.98161596
69.086662 68.887779 -0.97314352
68.789268 68.602005 -0.7356953
68.750916 68.565155 -0.54922056
68.68161 68.498566 -0.36183938
68.70546 68.521477 -0.18225113
68.646255 68.464584 0
64 64 0
68.277565 68.12027 -0.97917026
69.05545 68.869553 -0.96829772
68.791031 68.614845 -0.73682213
68.741699 68.567337 -0.54879302
68.683632 68.511398 -0.36241654
68.718704 68.545181 -0.18297668
68.670845 68.499084 0
64 64 0
68.329483 68.180367 -0.99220973
69.053185 68.87915 -0.96899188
68.770828 68.606514 -0.73457056
68.725098 68.562355 -0.54750872
68.678177 68.517059 -0.36241654
68.713211 68.55088 -0.18297668
68.684128 68.522804 0
64 64 0
68.256935 68.120277 -0.97672462
69.043671 68.881752 -0.96829772
68.794472 68.640549 -0.73907369
68.738037 68.58593 -0.54964978
68.67643 68.526299 -0.36270455
68.70771 68.556572 -0.18297668
68.611343 68.463303 0
64 64 0
68.24131 68.115082 -0.97427893
69.055771 68.905312 -0.97175789
68.788857 68.646339 -0.73907369
68.736168 68.595222 -0.55007732
68.696945 68.557167 -0.36472285
68.709663 68.569504 -0.18326724
68.643295 68.505112 0
64 64 0
68.317841 68.199478 -0.99302393
69.049843 68.911415 -0.97175789
68.78688 68.655663 -0.739636
68.719574 68.590195 -0.54879302
68.676605 68.548409 -0.36356968
68.711586 68.582428 -0.18355724
68.611725 68.485313 0
64 64 0
68.213661 68.10807 -0.97020489
69.029549 68.903519 -0.96899188
68.784889 68.664986 -0.74019837
68.721382 68.603073 -0.54964978
68.671104 68.554062 -0.36356968
68.706047 68.58812 -0.18355724
68.565323 68.45092 0
68.839828 68.718552 0.18877557
68.198097 68.102806 -0.96776235
69.030785 68.916595 -0.97037488
68.779243 68.670769 -0.74019837
68.741508 68.633881 -0.55264431
68.658195 68.55246 -0.36299255
68.700493 68.593803 -0.18355724
68.600876 68.496445 0
68.904732 68.793404 0.19153281
68.221367 68.135536 -0.97427893
69.060677 68.957779 -0.97729516
68.788116 68.690765 -0.74244988
68.732239 68.636017 -0.55221677
68.674866 68.579811 -0.36472285
68.717224 68.621307 -0.18442835
68.617752 68.523865 0
68.88781 68.788429 0.1910978
68.279861 68.202988 -0.98894984
69.033211 68.942802 -0.97314352
68.778824 68.692986 -0.74188757
68.737625 68.652527 -0.55350107
68.669327 68.585457 -0.36472285
68.71534 68.630646 -0.18457335
68.612282 68.529434 0
68.874596 68.787041 0.19080724
68.260689 68.194283 -0.98569
69.020073 68.941833 -0.97175789
68.791252 68.716583 -0.74470145
68.713715 68.640244 -0.55136162
68.689583 68.616493 -0.36674008
68.706039 68.63269 -0.18442835
68.61422 68.542305 0
68.861412 68.785645 0.19051725
68.22747 68.171654 -0.97917026
69.024818 68.958473 -0.97383505
68.778313 68.715218 -0.74357456
68.719055 68.656746 -0.55264431
68.676643 68.614891 -0.36616406
68.693039 68.631073 -0.18413779
68.605026 68.54422 0
64 64 0
68.197823 68.15242 -0.97346473
69.033096 68.978653 -0.97660369
68.790688 68.738869 -0.74639064
68.738976 68.687721 -0.55564046
68.678413 68.627808 -0.36674008
68.705902 68.655006 -0.18486336
68.573624 68.524155 0
64 64 0
68.175255 68.140091 -0.96939069
69.01638 68.974129 -0.97452652
68.766907 68.726753 -0.74357456
68.740593 68.700668 -0.55649561
68.687508 68.648026 -0.36789325
68.685516 68.646049 -0.18428279
68.564461 68.526016 0
64 64 0
68.205299 68.17997 -0.97753876
69.010368 68.980186 -0.97452652
68.768402 68.739685 -0.74470145
68.723999 68.695541 -0.55521291
68.685555 68.657333 -0.36818126
68.672531 68.644394 -0.1839928
68.551613 68.5242 0
64 64 0
68.193253 68.178078 -0.97591043
68.972359 68.954369 -0.96829772
68.795067 68.777718 -0.74976689
68.736504 68.71936 -0.55735236
68.6726 68.655693 -0.36760524
68.689003 68.672035 -0.18486336
68.542465 68.526024 0
64 64 0
68.194221 68.184097 -0.97672462
68.994232 68.982178 -0.97314352
68.795776 68.784203 -0.7503292
68.726372 68.714966 -0.55649561
68.673447 68.66217 -0.36789325
68.715614 68.704231 -0.18602447
68.558151 68.54715 0
64 64 0
68.175179 68.175179 -0.97346473
69.027245 69.027245 -0.98075801
68.797188 68.797188 -0.75145608
68.746086 68.746086 -0.55949175
68.667809 68.667809 -0.36789325
68.687881 68.687881 -0.18515392
68.55265 68.55265 0
64 64 0
68.184097 68.194221 -0.97672462
68.999893 69.011993 -0.97660369
68.791382 68.802979 -0.75145608
68.729469 68.740913 -0.55820745
68.684097 68.695427 -0.36962354
68.700562 68.711937 -0.18587947
68.52877 68.539726 0
70.44371 70.459305 0.25481081
68.233154 68.263954 -0.99057823
68.970093 69.006264 -0.97314352
68.786919 68.821747 -0.75258076
68.721626 68.755981 -0.55863667
68.661797 68.695717 -0.36875841
68.692818 68.726967 -0.18602447
68.547112 68.580193 0
70.512283 70.559669 0.25814861
68.120178 68.160194 -0.96531665
68.9711 69.019386 -0.97452652
68.763214 68.809479 -0.74976689
68.719482 68.765327 -0.55906421
68.674316 68.719719 -0.37019959
68.683449 68.728943 -0.18587947
68.515945 68.559807 0
64 64 0
68.195045 68.24604 -0.9840585
68.989716 69.050377 -0.97937232
68.793106 68.851372 -0.75539464
68.720932 68.778328 -0.55991936
68.66861 68.725365 -0.37019959
68.688698 68.745697 -0.18631503
68.590904 68.646713 0
64 64 0
68.196854 68.258156 -0.98569
68.983612 69.056404 -0.97937232
68.772972 68.842682 -0.75314307
68.747589 68.816933 -0.56377065
68.677422 68.745743 -0.37135276
68.672012 68.74025 -0.18587947
68.512207 68.578117 0
64 64 0
68.167442 68.238548 -0.97998446
68.966942 69.051682 -0.97729516
68.763557 68.844826 -0.75258076
68.727371 68.808022 -0.56205875
68.664436 68.744019 -0.37077671
68.695427 68.775536 -0.18704058
68.495735 68.572441 0
64 64 0
68.14502 68.225937 -0.97591043
68.974892 69.072006 -0.98006386
68.789719 68.883232 -0.75764614
68.73954 68.832069 -0.56419981
68.676811 68.768112 -0.37221792
68.689651 68.781204 -0.18704058
68.450111 68.536987 0
64 64 0
68.091515 68.18148 -0.96450245
68.972275 69.081612 -0.98075801
68.783821 68.889015 -0.75764614
68.744461 68.848785 -0.5654825
68.645714 68.747871 -0.37019959
68.672966 68.775719 -0.18660502
68.45919 68.557243 0
64 64 0
68.134789 68.235939 -0.97591043
68.941597 69.062485 -0.97591221
68.777908 68.894791 -0.75764614
68.724251 68.839821 -0.56377065
68.672493 68.786797 -0.37279394
68.674461 68.788811 -0.18689558
68.562744 68.674362 0
64 64 0
68.195183 68.308212 -0.99139243
68.942467 69.07563 -0.97729516
68.789726 68.91877 -0.76046222
68.721992 68.849213 -0.56419981
68.652267 68.777611 -0.37164077
68.679535 68.805611 -0.18733059
68.53167 68.653763 0
64 64 0
68.148659 68.270744 -0.98161596
68.922348 69.0672 -0.97452652
68.780228 68.920898 -0.75989771
68.730438 68.869644 -0.56591171
68.664513 68.801781 -0.37308195
68.680977 68.818726 -0.18762115
68.602203 68.73764 0
64 64 0
68.105652 68.236702 -0.97265059
68.919724 69.076759 -0.97522068
68.802574 68.955872 -0.76440078
68.731689 68.882729 -0.5667668
68.655113 68.803703 -0.37279394
68.671532 68.820648 -0.18747614
68.50956 68.653503 0
64 64 0
68.193283 68.337608 -0.99465227
68.955437 69.125992 -0.98352665
68.81424 68.979935 -0.76721466
68.732918 68.895813 -0.56762195
68.656502 68.816772 -0.37337106
68.68737 68.848701 -0.1883467
68.547333 68.703842 0
64 64 0
68.126282 68.278633 -0.97998446
68.945747 69.128349 -0.98283249
68.797646 68.974785 -0.76552761
68.719879 68.89415 -0.5667668
68.661438 68.833549 -0.37423512
68.681511 68.854362 -0.1883467
68.534424 68.701843 0
64 64 0
68.100548 68.262245 -0.97509623
68.904762 69.098175 -0.97591221
68.781052 68.969589 -0.76383841
68.717514 68.903542 -0.56719434
68.662773 68.846642 -0.37481228
68.675644 68.860016 -0.1883467
68.467392 68.643555 0
64 64 0
68.098816 68.27076 -0.97591043
68.888176 69.093231 -0.97383505
68.79615 68.997353 -0.76721466
68.732925 68.931473 -0.569763
68.667664 68.863472 -0.37567741
68.680565 68.876915 -0.18878226
68.523048 68.712791 0
64 64 0
68.069717 68.25071 -0.97020489
68.885483 69.102753 -0.97452652
68.786598 68.999474 -0.76665235
68.716309 68.926056 -0.5684787
68.640312 68.846687 -0.37394711
68.671082 68.878815 -0.18863726
68.546143 68.748329 0
64 64 0
68.153343 68.348564 -0.99139243
68.879311 69.108658 -0.97452652
68.759506 68.983215 -0.7632761
68.713898 68.935463 -0.56890625
68.666611 68.885948 -0.37654147
68.686707 68.906998 -0.18950781
68.529617 68.742523 0
64 64 0
68.120819 68.324959 -0.9848758
68.89045 69.132721 -0.97798932
68.714912 68.948486 -0.75708383
68.700851 68.933731 -0.5680511
68.657135 68.887848 -0.37625346
68.666435 68.897606 -0.18892726
68.602867 68.830887 0
64 64 0
68.081528 68.294098 -0.97672462
68.85659 69.109528 -0.97245204
70.056763 70.372208 -0.97378308
68.71257 68.958008 -0.57019055
68.654785 68.897217 -0.37654147
68.681992 68.925835 -0.18979782
68.500214 68.734596 0
77.514084 78.217918 0.54783195
68.103546 68.327728 -0.9832443
68.891846 69.159088 -0.98075801
70.017593 70.346336 -0.96871769
68.699501 68.956238 -0.56933379
68.638199 68.891586 -0.37567741
68.672462 68.927719 -0.18965282
68.490913 68.736252 0
64 64 0
68.104324 68.333786 -0.9840585
68.854218 69.125603 -0.97383505
69.985802 70.320457 -0.96421462
68.724754 68.988899 -0.57275754
68.64946 68.909393 -0.37682948
68.683777 68.945641 -0.19023338
68.495201 68.746521 0
64 64 0
68.153404 68.39624 -0.99709797
68.885925 69.171593 -0.98144948
69.978165 70.327682 -0.96421462
68.715195 68.990875 -0.57233
68.664841 68.937576 -0.3785598
68.681366 68.955063 -0.19037837
68.503761 68.767082 0
77.481789 78.270012 0.54826748
68.076897 68.325714 -0.97998446
68.879677 69.17749 -0.98144948
69.991432 70.357101 -0.96759301
68.723251 69.011513 -0.57404184
68.623398 68.905571 -0.37567741
68.646873 68.930481 -0.18921782
68.505142 68.780106 0
64 64 0
68.149544 68.413467 -0.99872947
68.88028 69.190689 -0.98283249
69.983749 70.364334 -0.96759301
68.692566 68.991028 -0.57104564
68.670609 68.967674 -0.38000098
68.672951 68.970161 -0.19052394
68.524315 68.812073 0
64 64 0
68.086723 68.357193 -0.9848758
68.911766 69.236839 -0.99044693
69.989944 70.386368 -0.96984237
68.728683 69.041634 -0.57618129
68.639832 68.946899 -0.37798265
68.670486 68.979591 -0.19066893
68.472214 68.768188 0
64 64 0
68.067947 68.347687 -0.98161596
68.843735 69.176826 -0.97798932
69.978752 70.389893 -0.96928
68.708557 69.032349 -0.57446939
68.665665 68.986511 -0.3805781
68.675125 68.99662 -0.19110449
68.427338 68.731796 0
64 64 0
68.089661 68.381493 -0.98813254
68.858017 69.204681 -0.98214096
69.971031 70.397118 -0.96928
68.712982 69.049301 -0.57575369
68.634926 68.965668 -0.3785598
68.661987 68.994659 -0.19081393
64 64 0
64 64 0
68.0271 68.324936 -0.97427893
68.861984 69.221565 -0.98421812
69.97023 70.411774 -0.97040689
68.69989 69.047485 -0.5748986
68.628922 68.971268 -0.3785598
68.68074 69.026917 -0.19183005
64 64 0
64 64 0
68.072342 68.384132 -0.9865042
68.828354 69.198029 -0.97868085
69.938263 70.392914 -0.96646613
68.725235 69.087006 -0.5787499
68.633476 68.988228 -0.37942493
68.67466 69.03257 -0.19183005
64 64 0
64 64 0
68.070396 68.39267 -0.9873184
68.822067 69.203857 -0.97868085
69.940903 70.41127 -0.96815532
68.729538 69.104004 -0.58003259
68.630959 68.99762 -0.37971297
68.661507 69.030579 -0.1915395
64 64 0
64 64 0
68.05838 68.390335 -0.98569
68.87027 69.268631 -0.98975545
69.940041 70.425903 -0.96928
68.681564 69.064484 -0.5748986
68.624916 69.003212 -0.37971297
68.648376 69.028587 -0.19124949
64 64 0
71.1492 71.733963 0.29414153
68.046364 68.387955 -0.9840585
68.863899 69.274513 -0.98975545
69.946053 70.448013 -0.97153157
68.734604 69.1343 -0.58217365
68.632896 69.024002 -0.38086614
68.649338 69.041832 -0.1915395
64 64 0
64 64 0
68.031029 68.381943 -0.98161596
68.816757 69.236069 -0.98144948
69.927933 70.44397 -0.96984237
68.731873 69.143791 -0.58260119
68.654839 69.060059 -0.38317245
68.636215 69.039803 -0.19124949
64 64 0
71.278259 71.911842 0.30023712
68.055809 68.419586 -0.98894984
68.810432 69.24189 -0.98144948
69.91671 70.447388 -0.96928
68.739532 69.164635 -0.58431304
68.648727 69.065674 -0.38317245
68.647682 69.064545 -0.19197504
64 64 0
71.149231 71.790459 0.29530263
68.057137 68.431763 -0.99057823
68.861687 69.310608 -0.99321556
69.908913 70.454536 -0.96928
68.702095 69.136276 -0.58046174
68.642601 69.071289 -0.38317245
68.655594 69.085487 -0.19255561
68.814919 69.259521 0
71.143318 71.802917 0.29544765
68.018448 68.400169 -0.98243016
68.814667 69.272018 -0.98490965
69.921677 70.484192 -0.9726584
68.730499 69.179863 -0.58474064
68.639954 69.080711 -0.38346049
68.656448 69.098778 -0.19284561
64 64 0
71.189957 71.87294 0.29776987
68.066391 68.463486 -0.99546957
68.82856 69.300079 -0.9890613
69.924095 70.502602 -0.97434545
68.717316 69.177979 -0.58388388
68.647743 69.101608 -0.38461366
68.636292 69.089035 -0.19226505
68.75663 69.22113 0
71.155937 71.854729 0.29675376
67.99118 68.391579 -0.97835612
68.785042 69.265076 -0.98144948
69.912819 70.505997 -0.97378308
68.728333 69.202682 -0.58602494
68.631134 69.095734 -0.3837485
68.644119 69.110016 -0.19284561
64 64 0
71.170906 71.890297 0.29776987
68.005791 68.418365 -0.9832443
68.805634 69.300591 -0.98698676
69.884483 70.490555 -0.97040689
68.718582 69.204575 -0.58559573
68.631935 69.109001 -0.38432562
68.665863 69.146423 -0.19400673
64 64 0
64 64 0
67.987183 68.408539 -0.97998446
68.758842 69.261742 -0.97868085
69.886848 70.508957 -0.97209394
68.715744 69.214088 -0.58602494
68.625755 69.114594 -0.38432562
68.645699 69.136642 -0.19342616
64 64 0
71.109985 71.861351 0.2960282
67.922256 68.347298 -0.96531665
68.789444 69.308456 -0.9862926
69.892601 70.531158 -0.97434545
68.719749 69.231209 -0.58730757
68.629959 69.131691 -0.38518968
68.642982 69.146118 -0.19357172
64 64 0
64 64 0
68.055885 68.50634 -0.99954361
68.776314 69.306786 -0.98490965
69.88131 70.5345 -0.97378308
68.737473 69.263626 -0.59030378
68.623756 69.137283 -0.38518968
68.647179 69.163307 -0.19400673
68.801598 69.334877 0
71.090973 71.87851 0.2960282
68.020721 68.478142 -0.99220973
68.769897 69.312553 -0.98490965
69.873405 70.541603 -0.97378308
68.713959 69.250244 -0.58816433
68.631371 69.158257 -0.38634285
68.668709 69.199852 -0.19516784
68.680412 69.212883 0
71.043251 71.844528 0.29443154
67.992218 68.457214 -0.9865042
68.80365 69.363159 -0.99321556
69.862114 70.544914 -0.97322077
68.714455 69.26358 -0.58901948
68.645844 69.186981 -0.38807318
68.64856 69.190002 -0.19458728
68.67411 69.218536 0
71.044174 71.864655 0.2948671
67.937416 68.406738 -0.97427893
68.730301 69.294128 -0.97937232
69.857582 70.555779 -0.97378308
68.718361 69.280762 -0.59030378
68.643021 69.196442 -0.38836119
68.631905 69.184006 -0.19415228
68.768356 69.336716 0
64 64 0
67.954514 68.431252 -0.97917026
68.790581 69.368118 -0.99252409
69.846863 70.551735 -0.9726584
68.725426 69.295105 -0.59158808
68.643318 69.203102 -0.3886492
68.646072 69.206184 -0.19487783
68.772064 69.347374 0
71.099113 71.954956 0.29776987
68.001747 68.495102 -0.99220973
68.740723 69.325188 -0.98352665
69.835548 70.554993 -0.97209394
68.732681 69.316154 -0.59329998
68.647354 69.220306 -0.38951436
68.657051 69.231201 -0.1956034
68.807137 69.399788 0
71.168961 72.052795 0.30110767
67.960197 68.459274 -0.9832443
68.79425 69.398438 -0.9959842
69.844505 70.581047 -0.97490996
68.712616 69.306511 -0.59158808
68.620422 69.202698 -0.38778403
68.640366 69.225159 -0.19516784
68.776413 69.378342 0
64 64 0
67.958084 68.467751 -0.9840585
68.744476 69.355408 -0.98698676
69.819695 70.569077 -0.97209394
68.719818 69.327576 -0.59329998
68.607277 69.200546 -0.38720801
68.634048 69.230766 -0.19516784
68.783714 69.399696 0
64 64 0
67.98542 68.509583 -0.99220973
68.714737 69.334808 -0.98214096
69.815125 70.579918 -0.9726584
68.737167 69.360191 -0.59629452
68.635239 69.244858 -0.39009038
68.627731 69.236359 -0.19516784
68.735825 69.358673 0
71.046814 71.973595 0.29718933
67.904778 68.429108 -0.97346473
68.731522 69.366852 -0.98698676
69.813889 70.594559 -0.97378308
68.734093 69.369774 -0.59672368
68.628899 69.250458 -0.39009038
68.631714 69.253647 -0.1956034
68.780983 69.422958 0
71.150574 72.110733 0.30197823
67.932076 68.470947 -0.98161596
68.711777 69.357498 -0.98421812
69.815987 70.613029 -0.97547227
68.717422 69.363922 -0.59543937
68.646469 69.283241 -0.39210871
68.611633 69.243629 -0.19502284
68.705673 69.350563 0
71.061836 72.029617 0.29864043
67.933189 68.483116 -0.9832443
68.698677 69.355637 -0.98283249
69.787872 70.597122 -0.97209394
68.717705 69.377327 -0.59629452
68.629845 69.277184 -0.39124355
68.632713 69.280449 -0.19618395
68.757561 69.422752 0
64 64 0
67.891953 68.446945 -0.97427893
68.731857 69.406616 -0.9911384
69.796638 70.623245 -0.97490996
68.717972 69.390762 -0.59715128
68.650719 69.313919 -0.39354989
68.619476 69.278214 -0.19589339
68.812698 69.498993 0
64 64 0
67.938591 68.511223 -0.9873184
68.702217 69.385872 -0.9862926
69.805344 70.649384 -0.97772384
68.714828 69.400322 -0.59757882
68.637497 69.311745 -0.39297387
68.613098 69.283791 -0.19589339
68.703362 69.387184 0
64 64 0
67.946129 68.530891 -0.99057823
68.67923 69.372635 -0.98283249
69.793968 70.652565 -0.97716147
68.71167 69.409882 -0.59800637
68.631081 69.317345 -0.39297387
68.613541 69.297211 -0.19618395
68.772049 69.47921 0
64 64 0
67.898506 68.487152 -0.97998446
68.702347 69.412369 -0.9890613
69.789253 70.663391 -0.97772384
68.721962 69.434944 -0.60014582
68.617859 69.315117 -0.39239672
68.624176 69.322388 -0.19690952
68.727882 69.441757 0
64 64 0
67.964302 68.574028 -0.99791211
68.699104 69.421852 -0.98975545
69.774536 70.662689 -0.97659701
68.715393 69.440643 -0.60014582
68.628372 69.340233 -0.3938379
68.638153 69.351532 -0.19778007
68.765617 69.498596 0
64 64 0
67.919975 68.533943 -0.98813254
68.66629 69.397156 -0.98421812
69.783112 70.688896 -0.97941303
68.722244 69.461876 -0.60185766
68.62191 69.345825 -0.3938379
68.628288 69.353203 -0.19763507
68.738541 69.480721 0
64 64 0
67.917732 68.542435 -0.98894984
68.70237 69.452187 -0.99321556
69.788284 70.711258 -0.98166239
68.698883 69.448143 -0.59971821
68.628967 69.367073 -0.39499107
68.618423 69.354858 -0.19749007
68.748924 69.506157 0
64 64 0
67.950928 68.592125 -0.99872947
68.666328 69.42363 -0.98698676
69.76693 70.70285 -0.97941303
68.725784 69.492744 -0.60399872
68.622475 69.372665 -0.39499107
68.642456 69.395889 -0.19879618
68.70153 69.464546 0
64 64 0
67.916389 68.563126 -0.99139243
68.663033 69.433075 -0.98767829
69.765442 70.717522 -0.98053771
68.702415 69.478958 -0.60185766
68.626091 69.390022 -0.39585623
68.619011 69.381775 -0.19807063
68.674576 69.446518 0
64 64 0
67.930168 68.590393 -0.99628377
68.66626 69.450142 -0.98975545
69.747398 70.712898 -0.97884852
68.715836 69.508041 -0.60442626
68.609482 69.38382 -0.39499107
68.612503 69.387352 -0.19807063
68.735695 69.531235 0
64 64 0
67.925468 68.607399 -0.99791211
68.649811 69.457573 -0.9890613
69.737762 70.734512 -0.9799754
68.722481 69.542862 -0.60699326
68.619942 69.422508 -0.3970094
68.629807 69.434082 -0.19937675
68.772949 69.602104 0
64 64 0
67.875092 68.55941 -0.9865042
68.643211 69.463181 -0.9890613
69.719742 70.72982 -0.97828621
68.695839 69.525101 -0.60442626
68.610039 69.424149 -0.39672139
68.60305 69.415924 -0.19850619
68.705498 69.536469 0
64 64 0
67.844002 68.533928 -0.97998446
68.639862 69.472626 -0.98975545
69.724747 70.752228 -0.98053771
68.715721 69.562103 -0.60785002
68.616859 69.445496 -0.39787456
68.613297 69.441299 -0.19923174
68.745934 69.59774 0
64 64 0
67.886406 68.595184 -0.99220973
68.633247 69.478233 -0.98975545
69.706741 70.747498 -0.97884852
68.705673 69.563866 -0.6074208
68.586891 69.423424 -0.39585623
68.630203 69.474632 -0.2002473
68.762688 69.631279 0
64 64 0
67.880852 68.599876 -0.99220973
68.642799 69.502998 -0.99321556
69.682198 70.73497 -0.97603464
68.702263 69.573479 -0.60785002
68.587013 69.436874 -0.39643335
68.610191 69.464348 -0.1996673
68.725677 69.601227 0
64 64 0
67.817551 68.530396 -0.97672462
68.639473 69.505798 -0.99321556
69.701057 70.76561 -0.9799754
68.718742 69.599869 -0.61041701
68.603722 69.463371 -0.39816257
68.616928 69.479042 -0.2001023
