# .PCD v0.7 - Point Cloud Data file format
VERSION 0.7
FIELDS x y z
SIZE 4 4 4
TYPE F F F
COUNT 1 1 1
WIDTH 1676
HEIGHT 1
VIEWPOINT 0 0 0 1 0 0 0
POINTS 1676
DATA ascii
58.34206 63.852982 -0.3154268
57.892067 63.84129 -0.17064053
58.286968 63.851551 0
58.172813 63.848583 0.16279714
64 64 -0
64 64 -0
58.716766 63.856331 -0.58541316
64 64 -0
58.33189 63.845863 -0.31600395
57.881863 63.833626 -0.17093109
58.23513 63.843231 0
58.183399 63.841827 0.16250658
64 64 -0
64 64 -0
58.630592 63.847492 -0.59498167
64 64 -0
58.482029 63.843273 -0.30764374
57.882069 63.826233 -0.17093109
58.292542 63.837891 0
58.193974 63.835094 0.16221657
64 64 -0
64 64 -0
58.905067 63.849129 -0.56458694
64 64 -0
58.352959 63.832779 -0.31485078
57.882282 63.81884 -0.17093109
58.219913 63.828838 0
58.178612 63.827618 0.16265158
64 64 -0
64 64 -0
58.686855 63.836239 -0.5887894
64 64 -0
58.373848 63.826595 -0.31369761
57.898094 63.811932 -0.17049553
58.256546 63.822979 0
58.173615 63.820423 0.16279714
64 64 -0
64 64 -0
58.651394 63.831913 -0.5927301
58.533108 63.828197 -0.45592946
58.399803 63.824005 -0.3122564
57.893021 63.808079 -0.17064053
58.246239 63.81918 0
58.204899 63.817883 0.16192602
64 64 -0
64 64 -0
58.676994 63.826279 -0.58991623
58.405041 63.817406 -0.46662822
58.306965 63.814201 -0.31744513
57.893257 63.800701 -0.17064053
58.256878 63.812569 0
58.179157 63.810032 0.16265158
64 64 -0
64 64 -0
58.743446 63.815731 -0.58259928
58.390118 63.803345 -0.46791089
58.291935 63.799904 -0.31830916
57.914528 63.786674 -0.17005996
58.262543 63.798874 0
58.143272 63.794693 0.16366769
64 64 -0
64 64 -0
58.662418 63.806431 -0.59160542
58.30827 63.793591 -0.47475836
58.281834 63.792629 -0.31888631
57.909584 63.779129 -0.17020552
58.262791 63.791939 0
58.1539 63.787991 0.16337769
64 64 -0
64 64 -0
58.820084 63.805882 -0.57415545
58.405987 63.790363 -0.46662822
58.313095 63.786884 -0.31715709
57.915062 63.771969 -0.17005996
58.247437 63.784424 0
58.15937 63.781124 0.16323213
64 64 -0
64 64 -0
58.784775 63.798248 -0.57809621
58.406242 63.783604 -0.46662822
58.240997 63.777214 -0.32119265
57.920532 63.764816 -0.16991496
58.268509 63.778278 0
58.128471 63.772861 0.16410325
64 64 -0
64 64 -0
58.759636 63.790936 -0.58091009
58.447552 63.778484 -0.46320447
58.30846 63.772934 -0.31744513
57.941589 63.758297 -0.16933441
58.258389 63.770939 0
58.154709 63.7668 0.16337769
64 64 -0
64 64 -0
58.663414 63.780636 -0.59160542
58.376015 63.768822 -0.46919522
58.288067 63.765209 -0.3185983
57.95747 63.751617 -0.16889885
58.211868 63.762077 0
58.160202 63.759953 0.16323213
64 64 -0
64 64 -0
58.71954 63.776554 -0.58541316
58.376297 63.762028 -0.46919522
58.278027 63.75787 -0.31917432
57.921425 63.742779 -0.16991496
58.248547 63.756622 0
58.144913 63.752235 0.16366769
64 64 -0
64 64 -0
58.765499 63.77216 -0.58034772
58.325306 63.753002 -0.47347406
58.236977 63.749157 -0.32148066
57.947693 63.736565 -0.16918941
58.25404 63.749897 0
58.129639 63.744484 0.16410325
64 64 -0
64 64 -0
58.684551 63.762203 -0.58935386
58.443562 63.751423 -0.46363205
58.237286 63.742191 -0.32148066
57.937641 63.728786 -0.1694794
58.212769 63.741096 0
58.129951 63.737392 0.16410325
64 64 -0
64 64 -0
58.816841 63.761845 -0.57471782
58.443867 63.744709 -0.46363205
58.237602 63.735229 -0.32148066
57.948349 63.721939 -0.16918941
58.233883 63.735058 0
58.130272 63.730297 0.16410325
64 64 -0
64 64 -0
58.786667 63.754147 -0.57809621
58.428787 63.737267 -0.46491635
58.217258 63.727291 -0.32263383
57.948689 63.714626 -0.16918941
58.234207 63.728092 0
58.1306 63.723206 0.16410325
64 64 -0
64 64 -0
58.781895 63.747601 -0.57865852
58.449623 63.731529 -0.46320447
58.191761 63.719055 -0.32407501
57.949036 63.707317 -0.16918941
58.224133 63.720623 0
58.125755 63.715862 0.16424824
64 64 -0
64 64 -0
58.777134 63.741043 -0.57922089
58.383293 63.721519 -0.46876764
58.140427 63.709476 -0.32695851
57.985733 63.701805 -0.16817328
58.203682 63.712612 0
58.100155 63.707478 0.16497381
64 64 -0
64 64 -0
58.848495 63.738342 -0.57134157
58.393898 63.715252 -0.46791089
58.120117 63.701347 -0.32811165
58.006859 63.695595 -0.16759273
58.178047 63.704288 0
58.100513 63.700352 0.16497381
64 64 -0
64 64 -0
58.813122 63.733402 -0.57528234
58.414581 63.712921 -0.46619901
58.151306 63.699387 -0.32638136
58.03299 63.693306 -0.16686718
58.199017 63.701839 0
58.111065 63.697319 0.1646838
64 64 -0
64 64 -0
58.77285 63.725002 -0.57978541
58.420055 63.70644 -0.46577147
58.141335 63.691776 -0.32695851
58.054123 63.687191 -0.16628662
58.220173 63.695927 0
58.101067 63.689659 0.16497381
64 64 -0
64 64 -0
58.788414 63.719505 -0.57809621
58.461426 63.701904 -0.46234772
58.193375 63.687477 -0.32407501
58.085632 63.681679 -0.16541606
58.158176 63.685585 0
58.044357 63.679459 0.16657048
64 64 -0
64 64 -0
58.753235 63.711254 -0.58203691
58.45153 63.694649 -0.46320447
58.162754 63.678757 -0.32580534
58.111961 63.675961 -0.16469049
58.158558 63.678528 0
58.086262 63.674549 0.16540937
64 64 -0
64 64 -0
58.763744 63.705486 -0.58091009
58.498032 63.69054 -0.45935318
58.235466 63.67577 -0.32176867
58.122746 63.66943 -0.16439994
58.179741 63.672638 0
58.034782 63.664482 0.16686048
64 64 -0
64 64 -0
58.779327 63.700031 -0.57922089
58.452282 63.68124 -0.46320447
58.225521 63.668213 -0.32234582
58.149086 63.663822 -0.16367438
58.133377 63.662918 0
58.040375 63.657574 0.16671549
64 64 -0
64 64 -0
58.749245 63.69194 -0.58259928
58.427052 63.673035 -0.46534392
58.241425 63.662144 -0.32148066
58.144314 63.656448 -0.16381939
58.159763 63.657352 0
58.056362 63.651287 0.16627993
64 64 -0
64 64 -0
58.759777 63.686203 -0.5814724
58.453072 63.667835 -0.46320447
58.262493 63.656425 -0.32032749
58.160301 63.650303 -0.16338383
58.186153 63.651852 0
58.02047 63.64193 0.16729604
64 64 -0
64 64 -0
58.790585 63.681728 -0.57809621
58.463734 63.661762 -0.46234772
58.288723 63.65107 -0.31888631
58.145161 63.642296 -0.16381939
58.19698 63.645462 0
58.020905 63.634705 0.16729604
64 64 -0
64 64 -0
58.826481 63.677647 -0.57415545
58.464146 63.655071 -0.46234772
58.314957 63.645775 -0.31744513
58.135212 63.634575 -0.16410995
58.202602 63.638775 0
58.026535 63.627804 0.16715103
64 64 -0
64 64 -0
58.801521 63.669785 -0.57696933
58.485062 63.649685 -0.46063587
58.325726 63.639565 -0.31686798
58.099369 63.625183 -0.1651255
58.23941 63.634079 0
58.032188 63.620918 0.16700548
64 64 -0
64 64 -0
58.786705 63.662521 -0.57865852
58.500847 63.644016 -0.45935318
58.377777 63.636047 -0.31398562
58.047955 63.614697 -0.16657718
58.198303 63.624432 0
58.02227 63.613033 0.16729604
64 64 -0
58.973465 63.66851 -0.69490916
58.776966 63.655552 -0.57978541
58.506416 63.637711 -0.458924
58.40918 63.631298 -0.3122564
58.032883 63.60648 -0.16701217
58.136436 63.613312 0
58.007179 63.604786 0.1677316
64 64 -0
58.873745 63.655712 -0.70875239
58.757107 63.647881 -0.58203691
58.501724 63.630726 -0.45935318
58.435452 63.626274 -0.31081411
58.007423 63.59753 -0.16773829
58.225189 63.612156 0
58.043961 63.599983 0.16671549
64 64 -0
59.009327 63.65876 -0.69006336
58.701778 63.637733 -0.58822703
58.522659 63.625484 -0.45764133
58.44622 63.620258 -0.31023809
58.018291 63.591 -0.16744773
58.210079 63.604111 0
58.028893 63.591724 0.16715103
64 64 -0
59.024746 63.653774 -0.68798888
58.717434 63.632389 -0.58653784
58.502632 63.617439 -0.45935318
58.431198 63.612469 -0.31110325
58.023972 63.584129 -0.16730273
58.215748 63.597477 0
58.029388 63.584507 0.16715103
64 64 -0
59.030186 63.648117 -0.68729472
58.7635 63.629234 -0.5814724
58.513351 63.611523 -0.45849642
58.441998 63.606472 -0.3105261
58.003742 63.575443 -0.16788329
58.21624 63.590488 0
58.086922 63.581333 0.16555436
64 64 -0
59.060421 63.647259 -0.68314308
58.74345 63.624626 -0.58372396
58.467499 63.604919 -0.46234772
58.442238 63.603115 -0.3105261
58.014378 63.572559 -0.16759273
58.2113 63.586624 0
58.040527 63.574429 0.16686048
64 64 -0
59.015816 63.63802 -0.68937182
58.738842 63.617905 -0.58428627
58.49358 63.600094 -0.4602083
58.494305 63.600147 -0.30764374
58.014896 63.565327 -0.16759273
58.206619 63.579254 0
58.072136 63.569485 0.16598992
64 64 -0
58.926193 63.625347 -0.70182943
58.784916 63.614918 -0.57922089
58.514549 63.594952 -0.45849642
58.469002 63.591591 -0.30908492
58.020603 63.558479 -0.16744773
58.253845 63.575703 0
58.067482 63.561939 0.16613492
64 64 -0
58.981674 63.623348 -0.69421762
58.800571 63.609756 -0.57753384
58.515041 63.588326 -0.45849642
58.454021 63.583744 -0.30995008
58.031498 63.552032 -0.16715774
58.218021 63.566032 0
58.093925 63.556717 0.16540937
64 64 -0
59.02216 63.620338 -0.68868035
58.811192 63.604248 -0.57640702
58.479702 63.578964 -0.46149263
58.531902 63.582947 -0.30562541
58.047592 63.546005 -0.16672218
58.234127 63.560234 0
58.09964 63.549976 0.16526437
64 64 -0
59.04763 63.616261 -0.68522018
58.796471 63.596798 -0.57809621
58.50069 63.573879 -0.45978075
58.506626 63.574341 -0.30706659
58.02742 63.537209 -0.16730273
58.208721 63.551258 0
58.089836 63.542046 0.16555436
64 64 -0
58.998085 63.606342 -0.69214052
58.822285 63.592506 -0.57528234
58.475624 63.565224 -0.46192017
58.465889 63.564457 -0.30937293
58.033161 63.530399 -0.16715774
58.250778 63.547527 0
58.100746 63.535717 0.16526437
64 64 -0
59.008575 63.601097 -0.69075483
58.772137 63.582203 -0.58091009
64 64 -0
58.471573 63.558182 -0.30908492
58.013012 63.521534 -0.16773829
58.215004 63.537678 0
58.106506 63.529007 0.16511881
64 64 -0
59.039059 63.5975 -0.68660319
58.808105 63.578762 -0.57696933
64 64 -0
64 64 -0
58.003242 63.513462 -0.1680283
58.189632 63.528584 0
58.09671 63.521046 0.16540937
64 64 -0
59.024544 63.590271 -0.68868035
58.823799 63.573738 -0.57528234
64 64 -0
64 64 -0
58.029728 63.508347 -0.16730273
58.288754 63.529678 0
58.097294 63.513912 0.16540937
64 64 -0
59.020046 63.583843 -0.68937182
58.839516 63.568756 -0.57359314
58.513607 63.541519 -0.458924
64 64 -0
64 64 -0
58.289326 63.522778 0
58.108253 63.507645 0.16511881
64 64 -0
59.065544 63.581638 -0.68314308
58.845097 63.56295 -0.57303077
64 64 -0
64 64 -0
58.005047 63.491726 -0.1680283
58.258797 63.513241 0
58.103657 63.500088 0.16526437
64 64 -0
59.066055 63.575676 -0.68314308
58.815262 63.554108 -0.57640702
58.509602 63.527821 -0.45935318
64 64 -0
58.01601 63.485371 -0.16773829
58.280132 63.508087 0
58.114632 63.493855 0.16497381
64 64 -0
59.036587 63.567101 -0.68729472
58.785416 63.545193 -0.57978541
58.515305 63.521637 -0.458924
58.438843 63.514965 -0.31110325
58.037346 63.47995 -0.16715774
58.270351 63.500271 0
58.120419 63.487194 0.16482881
64 64 -0
59.002125 63.55801 -0.69214052
58.816353 63.54158 -0.57640702
58.526108 63.515911 -0.45806888
64 64 -0
58.022461 63.471371 -0.16759273
58.239861 63.490597 0
58.146923 63.48238 0.16410325
64 64 -0
59.042641 63.555553 -0.68660319
58.80172 63.533955 -0.57809621
58.490894 63.506088 -0.46106505
58.440029 63.50153 -0.31110325
58.043812 63.466007 -0.16701217
58.256039 63.485031 0
58.111336 63.472061 0.16511881
64 64 -0
59.023193 63.547749 -0.68937182
58.857964 63.532734 -0.57190394
64 64 -0
58.471558 63.49762 -0.30937293
58.023758 63.456928 -0.16759273
58.246288 63.47715 0
58.101616 63.464005 0.16540937
64 64 -0
59.068707 63.545876 -0.68314308
58.8484 63.525589 -0.57303077
58.481888 63.491837 -0.46192017
58.497917 63.493313 -0.30793175
58.070988 63.453995 -0.16628662
58.267654 63.472107 0
58.086739 63.455448 0.16584492
64 64 -0
59.068981 63.542896 -0.68314308
58.813282 63.519196 -0.57696933
58.466858 63.48708 -0.46320447
58.529121 63.492851 -0.30620256
58.07132 63.450413 -0.16628662
58.293884 63.471046 0
58.107765 63.453793 0.16526437
64 64 -0
59.049557 63.535061 -0.68591172
58.839161 63.515301 -0.57415545
58.487926 63.482315 -0.46149263
58.493698 63.482857 -0.30821976
58.071987 63.443253 -0.16628662
58.159801 63.4515 0
58.144653 63.450077 0.16424824
64 64 -0
58.99519 63.523857 -0.69352347
58.849857 63.510029 -0.57303077
58.514107 63.478085 -0.45935318
58.520073 63.478653 -0.30677858
58.05714 63.434612 -0.16672218
58.258923 63.453808 0
58.103935 63.439064 0.16540937
64 64 -0
59.070671 63.525024 -0.68314308
58.840347 63.502831 -0.57415545
58.494301 63.46949 -0.46106505
58.464062 63.466576 -0.30995008
64 64 -0
58.202591 63.44138 0
58.078758 63.429447 0.16613492
64 64 -0
59.056263 63.517609 -0.68522018
58.830826 63.495609 -0.57528234
58.53072 63.466328 -0.45806888
58.48016 63.461395 -0.30908492
58.094734 63.423786 -0.16570605
58.260262 63.439938 0
58.094975 63.423809 0.16569936
64 64 -0
59.071835 63.513115 -0.68314308
58.866844 63.492863 -0.57134157
58.505825 63.457195 -0.4602083
58.50655 63.457268 -0.30764374
58.090267 63.416142 -0.16585106
58.245396 63.431465 0
58.137047 63.420761 0.16453825
64 64 -0
59.012512 63.501167 -0.69144899
58.857338 63.485649 -0.5724684
58.501381 63.450047 -0.46063587
58.53294 63.453201 -0.30620256
58.101311 63.410034 -0.16556107
58.204655 63.420368 0
58.106716 63.410572 0.16540937
64 64 -0
59.053055 63.499184 -0.68591172
58.827637 63.476364 -0.57584465
58.491825 63.442368 -0.46149263
58.492451 63.442432 -0.30850777
58.107193 63.403427 -0.16541606
58.283043 63.42123 0
58.128113 63.405548 0.16482881
64 64 -0
59.073631 63.495255 -0.68314308
58.843445 63.471668 -0.57415545
58.482296 63.434666 -0.46234772
58.457104 63.432087 -0.3105261
58.102753 63.395779 -0.16556107
58.283745 63.414322 0
58.123672 63.397923 0.16497381
64 64 -0
58.994392 63.481022 -0.69421762
58.874405 63.468582 -0.5707792
58.401276 63.419529 -0.46919522
58.390907 63.418453 -0.31427363
58.103489 63.388653 -0.16556107
58.268921 63.405807 0
58.093376 63.387608 0.16584492
64 64 -0
59.054905 63.481255 -0.68591172
58.814404 63.456028 -0.57753384
58.437729 63.416515 -0.46619901
58.273281 63.399265 -0.32090464
58.11974 63.383156 -0.1651255
58.212696 63.392906 0
58.104469 63.381554 0.16555436
64 64 -0
59.020622 63.471577 -0.69075483
58.835278 63.451908 -0.57528234
58.361851 63.401665 -0.47261894
58.212303 63.385796 -0.32436302
58.094658 63.37331 -0.16585106
58.249668 63.389763 0
58.10006 63.373882 0.16569936
64 64 -0
59.066158 63.470379 -0.68452603
58.861202 63.44838 -0.5724684
58.398315 63.398689 -0.46962276
58.161606 63.37328 -0.32724652
58.116089 63.368393 -0.16527051
58.276283 63.38559 0
58.10598 63.36731 0.16555436
64 64 -0
59.031879 63.460629 -0.68937182
58.836617 63.439426 -0.57528234
58.373512 63.389149 -0.47176382
58.19323 63.369579 -0.32551619
58.111671 63.360722 -0.16541606
58.230461 63.373619 0
58.075741 63.356823 0.16642548
64 64 -0
59.037849 63.452175 -0.68868035
58.842705 63.43063 -0.57471782
58.349117 63.376137 -0.47390327
58.168659 63.356213 -0.32695851
58.112843 63.350052 -0.16541606
58.267826 63.367161 0
58.107918 63.349506 0.16555436
64 64 -0
59.048496 63.447292 -0.68729472
58.828243 63.422707 -0.57640702
58.370285 63.371586 -0.47219139
58.179733 63.350319 -0.32638136
58.12397 63.344093 -0.1651255
58.2841 63.361969 0
58.06739 63.337776 0.16671549
64 64 -0
59.049168 63.441311 -0.68729472
58.828945 63.416458 -0.57640702
58.38636 63.366512 -0.47090706
58.180523 63.343285 -0.32638136
64 64 -0
58.233162 63.349224 0
58.114666 63.335854 0.16540937
64 64 -0
59.044849 63.434757 -0.68798888
58.824608 63.409634 -0.57696933
58.402435 63.361477 -0.46962276
58.196747 63.338013 -0.32551619
58.120415 63.329308 -0.16527051
58.244308 63.343437 0
58.094818 63.326385 0.16598992
64 64 -0
59.090408 63.433945 -0.68175739
58.81522 63.402218 -0.57809621
58.398098 63.354126 -0.47005197
58.202682 63.331593 -0.32522818
58.136703 63.323986 -0.1648355
58.188221 63.329926 0
58.090481 63.318657 0.16613492
59.794575 63.509983 -0.69802058
59.051228 63.423367 -0.68729472
58.820988 63.396538 -0.57753384
58.378483 63.344978 -0.47176382
58.188076 63.322792 -0.32609335
58.10656 63.313293 -0.16570605
58.261406 63.331337 0
58.055168 63.307304 0.16715103
64 64 -0
59.071861 63.419735 -0.68452603
58.806595 63.3885 -0.57922089
58.37928 63.338188 -0.47176382
58.20945 63.318192 -0.32494017
58.122883 63.307999 -0.16527051
58.262218 63.324402 0
58.097301 63.304985 0.16598992
59.614159 63.478214 -0.72817349
59.067566 63.413185 -0.68522018
58.82246 63.384026 -0.57753384
58.395382 63.333218 -0.47047952
58.148636 63.30386 -0.32839969
58.123726 63.300896 -0.16527051
58.170013 63.306404 0
58.056862 63.292942 0.16715103
59.727657 63.486481 -0.70943165
59.098179 63.41082 -0.68106592
58.787907 63.373528 -0.5814724
58.421677 63.329506 -0.4683401
58.195702 63.302345 -0.32580534
58.140038 63.295654 -0.1648355
58.232868 63.306812 0
58.037079 63.283279 0.1677316
59.772461 63.486683 -0.70209461
59.098896 63.4049 -0.68106592
58.788666 63.367229 -0.5814724
58.417397 63.322151 -0.46876764
58.186287 63.294086 -0.32638136
58.156376 63.290455 -0.16439994
58.197536 63.295452 0
58.022488 63.2742 0.16816659
64 64 -0
59.039856 63.391647 -0.68937182
58.75412 63.356602 -0.58541316
58.413128 63.314781 -0.46919522
58.202553 63.288952 -0.32551619
58.162392 63.284027 -0.16425495
58.255226 63.295414 0
58.033676 63.268242 0.1678766
59.89143 63.491051 -0.68253857
59.070461 63.389355 -0.68522018
58.775078 63.352764 -0.58316159
58.378288 63.303612 -0.47219139
58.208546 63.282585 -0.32522818
58.147781 63.275055 -0.16469049
58.168274 63.277596 0
57.983002 63.254646 0.16932772
59.867531 63.483021 -0.68661261
59.086143 63.385265 -0.68314308
58.775864 63.346451 -0.58316159
58.414803 63.301281 -0.46919522
58.209415 63.275585 -0.32522818
58.148663 63.267986 -0.16469049
58.20013 63.274426 0
57.983906 63.247375 0.16932772
59.765175 63.465015 -0.70372611
59.05703 63.375557 -0.68729472
58.801861 63.343323 -0.58034772
58.425827 63.295818 -0.4683401
58.210297 63.268589 -0.32522818
58.159874 63.262222 -0.16439994
58.144222 63.260242 0
57.974499 63.238804 0.16961828
59.80505 63.464905 -0.69720638
59.087643 63.373394 -0.68314308
58.777458 63.333828 -0.58316159
58.365585 63.281292 -0.47347406
58.241962 63.265522 -0.32349899
58.12468 63.250561 -0.16541606
58.212234 63.26173 0
58.016663 63.236782 0.16845715
64 64 -0
59.058556 63.363613 -0.68729472
58.763138 63.325569 -0.58485079
58.366459 63.274483 -0.47347406
58.206955 63.253941 -0.32551619
58.161674 63.248108 -0.16439994
58.197639 63.252743 0
57.976357 63.224243 0.16961828
59.781849 63.451584 -0.70128042
59.094143 63.362171 -0.68245155
58.763958 63.319241 -0.58485079
58.382599 63.269661 -0.47219139
58.223232 63.24894 -0.32465217
58.157436 63.240387 -0.16454494
58.203705 63.246403 0
57.951534 63.213615 0.17034383
59.816479 63.453514 -0.69557798
59.094528 63.359207 -0.68245155
58.77446 63.317398 -0.58372396
58.388126 63.26693 -0.47176382
58.228832 63.246124 -0.32436302
58.147579 63.235508 -0.1648355
58.17836 63.239529 0
57.998383 63.216019 0.16903771
59.797539 63.445873 -0.69883788
59.095306 63.353279 -0.68245155
58.780319 63.311749 -0.58316159
58.404293 63.262165 -0.47047952
58.239994 63.240501 -0.323787
58.127899 63.225719 -0.16541606
58.174126 63.231815 0
58.009651 63.210129 0.16874716
64 64 -0
59.111019 63.349342 -0.68037438
58.796272 63.307453 -0.5814724
58.400105 63.254726 -0.47090706
58.210159 63.229446 -0.32551619
58.144299 63.220684 -0.1649805
58.200851 63.22821 0
58.010609 63.202892 0.16874716
59.803802 63.436382 -0.69802058
59.121765 63.344772 -0.67898875
58.792061 63.300488 -0.58203691
58.421364 63.250694 -0.46919522
58.226463 63.224518 -0.32465217
58.129787 63.211533 -0.16541606
58.21727 63.223282 0
57.990974 63.192886 0.16932772
59.775089 63.427326 -0.70291191
59.112606 63.337528 -0.68037438
58.782848 63.292831 -0.58316159
58.407005 63.241886 -0.47047952
58.227402 63.217541 -0.32465217
58.13591 63.205139 -0.16527051
58.176949 63.210701 0
58.007385 63.187717 0.16889271
59.819859 63.428249 -0.69557798
59.078606 63.326862 -0.68522018
58.808876 63.28997 -0.58034772
58.418106 63.236523 -0.46962276
58.218113 63.209167 -0.32522818
58.142017 63.198757 -0.1651255
58.17791 63.203667 0
58.039276 63.184704 0.1680216
64 64 -0
59.094337 63.322975 -0.68314308
58.789604 63.280918 -0.58259928
58.419033 63.229778 -0.46962276
58.229309 63.203594 -0.32465217
58.137848 63.190971 -0.16527051
58.178875 63.196632 0
58.024818 63.175373 0.16845715
59.953445 63.436558 -0.67357314
59.120003 63.320507 -0.67968291
58.800552 63.276028 -0.5814724
58.404709 63.220909 -0.47090706
58.245651 63.198761 -0.323787
58.133667 63.18317 -0.16541606
58.174698 63.188881 0
58.036121 63.169586 0.16816659
64 64 -0
59.105934 63.312519 -0.68175739
58.7813 63.266918 -0.58372396
58.400574 63.213436 -0.47133464
58.226135 63.188931 -0.32494017
58.144962 63.177528 -0.1651255
58.191132 63.184013 0
58.021687 63.160213 0.16860215
64 64 -0
59.131603 63.310123 -0.67829728
58.782188 63.260612 -0.58372396
58.396431 63.205948 -0.47176382
58.222 63.181229 -0.32522818
58.130516 63.168266 -0.16556107
58.166359 63.173344 0
58.017563 63.15226 0.16874716
59.87722 63.410702 -0.68661261
59.043045 63.291466 -0.69075483
58.788113 63.255028 -0.58316159
58.392319 63.198452 -0.47219139
58.222996 63.174248 -0.32522818
58.126389 63.160439 -0.16570605
58.120995 63.159668 0
58.034012 63.147236 0.16831216
59.907284 63.40995 -0.68172437
59.048866 63.28619 -0.69006336
64 64 -0
58.398369 63.19241 -0.47176382
58.213749 63.165791 -0.32580534
58.132545 63.154083 -0.16556107
58.116867 63.151825 0
58.024769 63.138546 0.16860215
59.795502 63.388649 -0.70046622
59.064613 63.282372 -0.68798888
58.76479 63.238777 -0.58597547
58.389194 63.184166 -0.47261894
58.219894 63.159546 -0.32551619
58.133572 63.146996 -0.16556107
58.148792 63.149208 0
58.036091 63.13282 0.16831216
59.859821 63.392891 -0.68987244
59.080383 63.278595 -0.68591172
58.750626 63.23024 -0.58766466
58.364792 63.17366 -0.47475836
58.205555 63.150311 -0.32638136
58.144901 63.141418 -0.16527051
58.191021 63.148182 0
58.042297 63.126373 0.16816659
59.840996 63.384995 -0.69313234
59.116009 63.27779 -0.68106592
58.776688 63.227615 -0.58485079
58.370869 63.167603 -0.47433081
58.227055 63.146339 -0.32522818
58.130512 63.132061 -0.16570605
58.166317 63.137356 0
58.022797 63.116135 0.16874716
59.783073 63.371223 -0.70291191
59.087097 63.267448 -0.68522018
58.767582 63.219807 -0.58597547
58.351566 63.157772 -0.47604269
58.228088 63.139362 -0.32522818
58.141838 63.126503 -0.16541606
58.16222 63.129539 0
58.034138 63.110443 0.16845715
59.798504 63.368332 -0.70046622
59.102875 63.263752 -0.68314308
58.768532 63.213482 -0.58597547
58.38813 63.156292 -0.47304651
58.229134 63.132389 -0.32522818
58.132629 63.117882 -0.16570605
58.199291 63.127903 0
58.035217 63.103233 0.16845715
64 64 -0
59.123169 63.263786 -0.68037438
58.758945 63.208805 -0.58710235
58.373405 63.150604 -0.47433081
58.22966 63.128902 -0.32522818
58.138298 63.115112 -0.16556107
58.174091 63.120514 0
58.02034 63.097305 0.16889271
59.946255 63.38303 -0.67601883
59.138947 63.260162 -0.67829728
58.780003 63.205532 -0.58485079
58.379509 63.144577 -0.47390327
58.225605 63.121155 -0.32551619
58.113686 63.104118 -0.16628662
58.185459 63.115044 0
58.052269 63.094772 0.1680216
59.878609 63.367641 -0.68742681
59.105122 63.248962 -0.68314308
58.775948 63.198456 -0.58541316
58.390705 63.139343 -0.47304651
58.206219 63.111038 -0.32666937
58.125038 63.098583 -0.16599661
58.176231 63.106438 0
58.053368 63.087585 0.1680216
59.962418 63.375504 -0.67357314
59.12587 63.246113 -0.68037438
58.766884 63.19059 -0.58653784
58.366386 63.128643 -0.47518593
58.197063 63.102455 -0.32724652
58.115868 63.089897 -0.16628662
58.192753 63.101788 0
58.033932 63.077225 0.16860215
59.88015 63.357681 -0.68742681
59.022678 63.223995 -0.69490916
58.747784 63.181137 -0.5887894
58.367443 63.121838 -0.47518593
58.218597 63.098633 -0.32609335
58.101562 63.080387 -0.16672218
58.14756 63.087559 0
58.035049 63.070015 0.16860215
59.919994 63.358845 -0.68090707
59.063271 63.224213 -0.68937182
58.773872 63.178734 -0.58597547
58.368507 63.115032 -0.47518593
58.20948 63.090042 -0.32666937
58.112957 63.074875 -0.16643162
58.102394 63.073215 0
58.031052 63.062004 0.16874716
59.989117 63.364738 -0.6694991
59.069164 63.219032 -0.68868035
58.794945 63.175602 -0.58372396
58.364494 63.107422 -0.47561511
58.215691 63.083855 -0.32638136
58.103802 63.066135 -0.16672218
58.134357 63.070972 0
58.052719 63.058044 0.16816659
59.843452 63.336517 -0.69394648
59.139488 63.224148 -0.67898875
58.765827 63.164505 -0.58710235
58.340233 63.096569 -0.47775456
58.221905 63.077682 -0.32609335
58.104935 63.05901 -0.16672218
58.150909 63.066349 0
58.028187 63.046761 0.16889271
59.897949 63.340134 -0.68498111
59.08593 63.209511 -0.68660319
58.761826 63.157375 -0.58766466
58.361607 63.092995 -0.47604269
58.212818 63.069057 -0.32666937
58.100952 63.051064 -0.16686718
58.131485 63.055977 0
58.019093 63.037895 0.16918272
59.84507 63.326477 -0.69394648
59.13641 63.211601 -0.67968291
58.76786 63.151855 -0.58710235
58.393124 63.09111 -0.47347406
58.208824 63.061237 -0.32695851
58.107227 63.044765 -0.16672218
58.122345 63.047218 0
58.056171 63.036491 0.16816659
60.021496 63.35014 -0.66461086
59.142334 63.206535 -0.67898875
58.763878 63.144718 -0.58766466
58.353691 63.077717 -0.47689781
58.220184 63.055908 -0.32638136
58.098137 63.035973 -0.16701217
58.09782 63.035923 0
58.04195 63.026794 0.16860215
59.949135 63.333294 -0.67683303
59.143295 63.200665 -0.67898875
58.739849 63.134266 -0.5904786
58.380135 63.075062 -0.47475836
58.211109 63.047245 -0.32695851
58.07365 63.02462 -0.16773829
58.150337 63.037243 0
58.02774 63.017063 0.16903771
60.057217 63.346188 -0.65890533
59.114555 63.189873 -0.68314308
58.750916 63.12957 -0.58935386
58.381256 63.068272 -0.47475836
58.202068 63.038559 -0.32753453
58.069714 63.016613 -0.16788329
58.130985 63.026772 0
58.034058 63.0107 0.16889271
59.970261 63.326763 -0.67357314
59.169979 63.193066 -0.67552859
58.756996 63.124069 -0.5887894
58.377327 63.060638 -0.47518593
58.203236 63.031555 -0.32753453
58.055542 63.006878 -0.16831829
58.132164 63.01968 0
58.030136 63.002636 0.16903771
59.873581 63.305489 -0.68987244
59.151169 63.183899 -0.67829728
58.768074 63.119419 -0.58766466
58.398716 63.057255 -0.47347406
58.209507 63.02541 -0.32724652
58.046486 62.997971 -0.16860884
58.102547 63.007408 0
58.046722 62.998009 0.16860215
59.937778 63.311245 -0.67927867
59.122467 63.173004 -0.68245155
58.774147 63.113949 -0.58710235
58.364422 63.044479 -0.47647023
58.205593 63.017548 -0.32753453
57.996475 62.982094 -0.17005996
58.078098 62.995934 0
58.022324 62.986477 0.16932772
59.908966 63.303814 -0.68416691
59.177383 63.179321 -0.67483711
58.779709 63.111645 -0.58653784
58.375114 63.042793 -0.47561511
58.185787 63.010578 -0.3286877
57.950985 62.970619 -0.17136608
58.078705 62.992355 0
58.017799 62.981991 0.16947328
59.875698 63.293026 -0.68987244
59.173435 63.172646 -0.67552859
58.785789 63.106197 -0.58597547
58.371216 63.035133 -0.47604269
58.171688 63.000931 -0.32955286
57.890766 62.952774 -0.17310776
58.126095 62.993114 0
58.044659 62.979156 0.16874716
59.832722 63.280476 -0.69720638
59.139824 63.160839 -0.68037438
58.761837 63.095573 -0.5887894
58.377441 63.029205 -0.47561511
58.183105 62.995651 -0.32897571
57.871552 62.941856 -0.17368831
57.993969 62.962994 0
58.020279 62.967537 0.16947328
59.848209 63.277981 -0.69476068
59.150738 63.156689 -0.67898875
58.777939 63.091854 -0.58710235
58.383694 63.023293 -0.47518593
58.17923 62.987736 -0.32926372
57.842106 62.929108 -0.17455943
58.077274 62.970005 0
58.03178 62.962093 0.16918272
59.863678 63.27552 -0.69231814
59.156696 63.151691 -0.67829728
58.814087 63.091682 -0.58316159
58.349472 63.010307 -0.47818211
58.170258 62.978916 -0.32984087
57.86388 62.925255 -0.17397887
58.063137 62.960155 0
58.007446 62.950401 0.16990827
59.849964 63.267948 -0.69476068
59.118195 63.13887 -0.68383455
58.790169 63.081005 -0.58597547
58.35067 63.003479 -0.47818211
58.151119 62.968281 -0.33099404
57.814014 62.908817 -0.17542998
58.049015 62.950268 0
58.013832 62.944061 0.16976327
59.894653 63.270718 -0.68742681
59.188393 63.145256 -0.67414564
58.816296 63.079155 -0.58316159
58.36198 62.998447 -0.47732699
58.17783 62.965736 -0.32955286
57.851158 62.907707 -0.17441387
58.045166 62.942169 0
58.015114 62.936832 0.16976327
59.890675 63.264885 -0.68824095
59.204254 63.142094 -0.67206848
58.802399 63.070206 -0.58485079
58.378361 62.99435 -0.47604269
58.158714 62.955059 -0.33070603
57.83202 62.896618 -0.17499442
57.979847 62.923061 0
57.990829 62.925026 0.17048883
59.838047 63.250282 -0.69720638
59.229977 63.140747 -0.66860831
58.803528 63.063927 -0.58485079
58.414955 62.993931 -0.47304651
58.154896 62.947086 -0.33099404
57.843578 62.891006 -0.17470443
57.873585 62.896412 0
57.976784 62.915001 0.17092438
59.873009 63.251431 -0.69150084
59.206341 63.130505 -0.67206848
58.814674 63.059464 -0.58372396
58.385853 62.981682 -0.47561511
58.146004 62.938179 -0.33157006
57.829578 62.880783 -0.17513998
57.915894 62.896439 0
58.003662 62.912361 0.17019883
59.941986 63.258873 -0.68009287
59.187649 63.121109 -0.67483711
58.805805 63.051373 -0.58485079
58.366886 62.97121 -0.47732699
58.147289 62.931107 -0.33157006
57.83606 62.874264 -0.17499442
57.825077 62.872257 0
57.994766 62.903248 0.17048883
59.831059 63.23341 -0.69883788
59.223263 63.121647 -0.66999131
58.806953 63.045097 -0.58485079
58.373199 62.965336 -0.47689781
58.143482 62.923096 -0.3318592
57.852745 62.869637 -0.17455943
57.892986 62.877033 0
57.980755 62.893173 0.17092438
59.866016 63.234673 -0.69313234
59.244064 63.11953 -0.66722268
58.843094 63.0453 -0.58091009
58.384541 62.960407 -0.47604269
58.144791 62.916019 -0.3318592
57.84901 62.861263 -0.17470443
57.838047 62.859234 0
57.982098 62.885902 0.17092438
59.877605 63.226509 -0.69150084
59.246204 63.10804 -0.66722268
58.81546 63.027218 -0.58428627
58.376984 62.944946 -0.47689781
58.152523 62.902832 -0.33157006
57.841576 62.844486 -0.17499442
57.830601 62.842426 0
57.98481 62.871361 0.17092438
59.956242 63.236206 -0.67846453
59.306431 63.113468 -0.65891939
58.831604 63.023781 -0.58259928
58.373203 62.937199 -0.47732699
58.123344 62.890003 -0.33330038
57.842976 62.837048 -0.17499442
57.811543 62.831108 0
58.011703 62.868916 0.17019883
59.981003 63.238365 -0.67438734
59.321762 63.113434 -0.65684223
58.857155 63.025387 -0.57978541
58.368809 62.932842 -0.47775456
58.113861 62.884529 -0.3338764
57.848782 62.834293 -0.17484942
57.776447 62.820587 0
57.986862 62.860462 0.17092438
59.967354 63.230732 -0.67683303
59.352417 63.113426 -0.65268797
58.843376 63.016323 -0.5814724
58.365063 62.925079 -0.47818211
58.120293 62.878387 -0.33358839
57.834873 62.82394 -0.17528498
57.803436 62.817944 0
57.988243 62.853195 0.17092438
59.973137 63.226791 -0.67601883
59.383049 63.113487 -0.64853632
58.844566 63.01009 -0.5814724
58.366367 62.91827 -0.47818211
58.1115 62.869331 -0.33416441
57.8312 62.815514 -0.17542998
57.809978 62.811436 0
58.004951 62.848873 0.17048883
59.9207 63.211609 -0.68498111
59.413673 63.113621 -0.64438468
58.860722 63.006752 -0.57978541
58.33744 62.905621 -0.4807491
58.082386 62.856327 -0.33589473
57.84795 62.81102 -0.17499442
57.801208 62.801983 0
57.996132 62.839657 0.17077939
59.989578 63.219894 -0.67357314
59.360584 63.097542 -0.65199643
58.851959 62.998604 -0.58091009
58.36396 62.903679 -0.47860965
58.09901 62.852142 -0.33502957
57.83408 62.800606 -0.17542998
57.772015 62.788536 0
57.982246 62.82943 0.17121439
59.932308 63.203651 -0.68335277
59.420765 63.103504 -0.64369053
58.84819 62.991409 -0.5814724
58.370323 62.897858 -0.47818211
58.059792 62.837063 -0.33733591
57.845726 62.795155 -0.17513998
57.758152 62.778008 0
57.993858 62.824154 0.17092438
59.981766 63.20829 -0.67520463
59.416916 63.097 -0.64438468
58.874336 62.990097 -0.57865852
58.366627 62.890064 -0.47860965
58.066269 62.830883 -0.3370479
57.836998 62.785709 -0.17542998
57.734104 62.765438 0
57.969795 62.811874 0.17164995
59.958485 63.198631 -0.67927867
59.422947 63.092442 -0.64369053
58.885521 62.985878 -0.57753384
58.347828 62.879261 -0.48032153
58.067688 62.823715 -0.3370479
57.833378 62.777256 -0.17557499
57.715179 62.753819 0
58.001808 62.810654 0.17077939
59.988552 63.199554 -0.67438734
59.488007 63.099674 -0.63469309
58.871815 62.976719 -0.57922089
58.334076 62.869419 -0.48160586
58.05389 62.813511 -0.33791304
57.850132 62.772854 -0.17513998
57.70137 62.743168 0
57.952297 62.79324 0.1722305
59.926521 63.182056 -0.68498111
59.484165 63.093231 -0.63538724
58.873055 62.970524 -0.57922089
58.340477 62.863583 -0.48117828
58.024906 62.800217 -0.33964226
57.856731 62.766449 -0.17499442
57.692696 62.733513 0
57.938469 62.78286 0.17266606
59.922653 63.176155 -0.68579841
59.490196 63.088776 -0.63469309
58.889233 62.967346 -0.57753384
58.341854 62.856747 -0.48117828
58.031425 62.794022 -0.33935425
57.858223 62.759026 -0.17499442
57.684017 62.723827 0
57.929764 62.773483 0.17295606
59.93819 63.174183 -0.68335277
59.496212 63.084324 -0.63400155
58.890484 62.96117 -0.57753384
58.318089 62.844795 -0.4833177
58.00248 62.780628 -0.34108344
57.85973 62.751606 -0.17499442
57.660065 62.711014 0
57.91597 62.763039 0.17339163
59.953724 63.172249 -0.68090707
59.521896 63.083908 -0.63054144
58.886768 62.953979 -0.57809621
58.344635 62.843075 -0.48117828
57.98875 62.770271 -0.3419486
57.866329 62.745228 -0.17484942
57.671818 62.705437 0
57.932747 62.758816 0.17295606
59.945034 63.165367 -0.68253857
59.527916 63.07951 -0.62984991
58.893009 62.948826 -0.57753384
58.356102 62.838314 -0.48032153
57.95985 62.756756 -0.34367779
57.883125 62.740963 -0.17441387
57.668293 62.696743 0
57.93425 62.751484 0.17295606
59.999294 63.171494 -0.67357314
59.504471 63.069019 -0.63331008
58.894283 62.942657 -0.57753384
58.332378 62.82629 -0.48246095
57.956276 62.748405 -0.3439669
57.879547 62.732513 -0.17455943
57.680077 62.691208 0
57.925575 62.742046 0.17324662
59.966419 63.159603 -0.67927867
59.48595 63.059494 -0.63607872
58.885624 62.934418 -0.57865852
58.348866 62.822582 -0.48117828
57.983128 62.746384 -0.34252462
57.901432 62.729362 -0.17397887
57.681664 62.683571 0
57.92202 62.73365 0.17339163
59.95726 63.155144 -0.68090707
59.496353 63.058823 -0.63469309
58.911133 62.936523 -0.57584465
58.324455 62.813919 -0.4833177
57.999062 62.745918 -0.34166059
57.902203 62.725677 -0.17397887
57.718109 62.687206 0
57.927868 62.731041 0.17324662
59.967949 63.152294 -0.67927867
59.522038 63.058544 -0.63123292
58.882595 62.924103 -0.57922089
58.32589 62.80706 -0.4833177
58.005661 62.739735 -0.34137145
57.919006 62.721519 -0.1735433
57.745163 62.684967 0
57.919243 62.721569 0.17353661
59.954464 63.144352 -0.68172437
59.528084 63.054169 -0.63054144
58.888866 62.918972 -0.57865852
58.357483 62.806583 -0.4807491
58.002113 62.731419 -0.34166059
57.925636 62.715244 -0.17339832
57.828236 62.694645 0
57.925873 62.715294 0.17339163
59.979691 63.144611 -0.67764717
59.494873 63.041458 -0.63538724
58.870293 62.908566 -0.58091009
58.308704 62.789078 -0.48502958
58.003647 62.724174 -0.34166059
57.942448 62.711151 -0.17296275
57.865459 62.694771 0
57.907097 62.703632 0.17397217
59.956543 63.134579 -0.68172437
59.545105 63.046516 -0.62846428
58.921299 62.913002 -0.57528234
58.350334 62.790798 -0.48160586
58.000141 62.715847 -0.3419486
57.949085 62.704922 -0.17281775
57.821236 62.677559 0
57.918839 62.698448 0.17368162
59.947937 63.127613 -0.68335277
59.556061 63.043243 -0.62708127
58.917652 62.9058 -0.57584465
58.331722 62.779652 -0.4833177
58.006748 62.709686 -0.34166059
57.94558 62.696518 -0.17296275
57.827923 62.671188 0
57.920418 62.691101 0.17368162
59.982819 63.130043 -0.67764717
59.478779 63.020889 -0.6381532
58.91898 62.899658 -0.57584465
58.29306 62.764111 -0.48674145
58.003262 62.701351 -0.3419486
57.942085 62.688103 -0.17310776
57.84988 62.668137 0
57.911835 62.681553 0.17397217
59.930737 63.113617 -0.68661261
59.548592 63.030376 -0.62846428
58.900452 62.889194 -0.57809621
58.33469 62.765957 -0.4833177
58.014954 62.696312 -0.34137145
57.943676 62.680786 -0.17310776
57.820972 62.654057 0
57.90836 62.673092 0.17411718
59.965614 63.116104 -0.68090707
59.544868 63.023926 -0.62915576
58.891876 62.880859 -0.57922089
58.331173 62.758015 -0.48374528
58.031677 62.692398 -0.34050742
57.945274 62.67347 -0.17310776
57.863277 62.655502 0
57.88459 62.660172 0.17484273
60.005306 63.119743 -0.67438734
59.546051 63.018543 -0.62915576
58.893234 62.874687 -0.57922089
58.362751 62.757793 -0.48117828
58.028217 62.684074 -0.34079543
57.94688 62.666153 -0.17310776
57.824242 62.63913 0
57.901424 62.656136 0.17440774
59.962925 63.105286 -0.68172437
59.576626 63.019672 -0.62500411
58.939243 62.878414 -0.57415545
58.33419 62.74432 -0.48374528
58.06517 62.684696 -0.3387771
57.958633 62.661087 -0.17281775
57.764931 62.618156 0
57.882759 62.644272 0.1749883
59.983307 63.10471 -0.67846453
59.519043 63.001228 -0.63331008
58.91581 62.866772 -0.57696933
58.340721 62.73859 -0.4833177
58.071808 62.67865 -0.33848909
57.934898 62.648136 -0.1735433
57.842793 62.627605 0
57.889488 62.638016 0.17484273
59.989227 63.100941 -0.67764717
59.495777 62.99033 -0.63677019
58.941971 62.866188 -0.57415545
58.342247 62.731754 -0.4833177
58.053215 62.666962 -0.33964226
57.936539 62.640808 -0.1735433
57.839382 62.61903 0
57.880985 62.628357 0.17513329
59.980663 63.093922 -0.67927867
59.55574 62.998131 -0.62846428
58.893761 62.8489 -0.57978541
58.363819 62.729435 -0.48160586
58.085098 62.666603 -0.33791304
57.92297 62.630054 -0.17397887
57.856293 62.615021 0
57.867451 62.617538 0.1755683
60.001045 63.093437 -0.67601883
59.556953 62.99276 -0.62846428
58.919949 62.848351 -0.57696933
58.360355 62.721489 -0.4820334
58.056454 62.652596 -0.33964226
57.924629 62.622711 -0.17397887
57.868114 62.609898 0
57.864044 62.608978 0.17571385
59.987682 63.085308 -0.67846453
59.553284 62.986279 -0.62915576
58.911427 62.839951 -0.57809621
58.33186 62.707829 -0.48460203
58.078262 62.650017 -0.33848909
57.936443 62.617683 -0.17368831
57.839359 62.595551 0
57.885998 62.606186 0.17513329
59.983974 63.079357 -0.67927867
59.574078 62.98539 -0.62638712
58.932644 62.838348 -0.57584465
58.343445 62.703278 -0.48374528
58.039558 62.633614 -0.34079543
57.927975 62.608032 -0.17397887
57.84613 62.589272 0
57.867424 62.594154 0.17571385
59.88818 63.054783 -0.69557798
59.511105 62.968102 -0.63538724
58.94326 62.837563 -0.57471782
58.374241 62.70676 -0.48117828
58.055515 62.633492 -0.33993027
57.913639 62.600876 -0.17441387
57.836826 62.583218 0
57.837894 62.583466 0.17658441
59.966385 63.067627 -0.68253857
59.61013 62.985275 -0.621544
58.954563 62.83374 -0.57359314
58.330791 62.689556 -0.48502958
58.077332 62.63097 -0.3387771
57.905197 62.591179 -0.17470443
57.843628 62.57695 0
57.824417 62.572506 0.17701997
60.030106 63.077301 -0.6719448
59.596691 62.976562 -0.62362111
58.936176 62.823044 -0.57584465
58.337376 62.683868 -0.48460203
58.043716 62.615616 -0.34079543
57.911961 62.584991 -0.17455943
57.850418 62.570686 0
57.841335 62.568577 0.17658441
59.987904 63.062382 -0.67927867
59.617474 62.975811 -0.62085247
58.922752 62.813457 -0.57753384
58.38398 62.687546 -0.4807491
58.080658 62.616661 -0.3387771
57.918751 62.578823 -0.17441387
57.791328 62.549046 0
57.838017 62.559956 0.17672941
60.003483 63.060928 -0.67683303
59.628494 62.972816 -0.61946684
58.934093 62.80965 -0.57640702
58.380558 62.679585 -0.48117828
58.052109 62.602406 -0.34050742
57.925526 62.572662 -0.17426887
57.798149 62.542732 0
57.80434 62.544189 0.17774552
59.946892 63.042461 -0.68661261
59.590675 62.958305 -0.62500411
58.955318 62.808205 -0.57415545
58.352188 62.665714 -0.48374528
58.048771 62.594032 -0.34079543
57.91713 62.562931 -0.17455943
57.744209 62.522079 0
57.836441 62.543869 0.17687497
59.88073 63.021572 -0.69802058
59.621216 62.95993 -0.62085247
58.95182 62.800934 -0.57471782
58.373783 62.663635 -0.4820334
58.050476 62.586842 -0.34079543
57.923943 62.556789 -0.17441387
57.700424 62.503696 0
57.802826 62.528019 0.17789052
59.987679 63.041855 -0.68009287
59.59808 62.948814 -0.62431264
58.958214 62.796017 -0.57415545
58.390388 62.660419 -0.4807491
58.042133 62.577255 -0.34137145
57.93074 62.550655 -0.17426887
57.732605 62.503338 0
57.839977 62.52898 0.17687497
60.003265 63.04047 -0.67764717
59.594479 62.942329 -0.62500411
58.910248 62.778057 -0.57978541
58.377029 62.650043 -0.4820334
58.08408 62.579712 -0.33906621
57.927448 62.54211 -0.17441387
57.729362 62.494553 0
57.831661 62.519112 0.17716497
59.980389 63.029839 -0.68172437
59.610397 62.940536 -0.62292695
58.951248 62.781448 -0.57528234
58.3587 62.638432 -0.48374528
58.035522 62.560432 -0.3419486
57.954468 62.540867 -0.17368831
57.700817 62.479649 0
57.813248 62.506783 0.17774552
59.933533 63.013329 -0.68987244
59.582413 62.928135 -0.62708127
58.937923 62.771755 -0.57696933
58.375324 62.63525 -0.48246095
58.077484 62.562984 -0.33964226
57.946125 62.531113 -0.17397887
57.743126 62.481857 0
57.794857 62.494408 0.17832609
59.901108 63.000214 -0.69557798
59.627579 62.933498 -0.62085247
58.973953 62.774067 -0.57303077
58.396927 62.63332 -0.4807491
58.069183 62.553379 -0.34021828
57.963055 62.527493 -0.1735433
57.70451 62.464428 0
57.806786 62.489376 0.17803553
59.983932 63.015274 -0.68172437
59.565525 62.912682 -0.62984991
58.960648 62.76437 -0.57471782
58.383621 62.622883 -0.4820334
58.060875 62.543747 -0.34079543
57.954754 62.517727 -0.17383331
57.68615 62.451866 0
57.778324 62.474468 0.17890663
59.970737 63.006878 -0.68416691
59.581463 62.910927 -0.62777275
58.967075 62.759495 -0.57415545
58.365349 62.611183 -0.48374528
58.037533 62.530384 -0.34223661
57.951488 62.509174 -0.17397887
57.677925 62.44175 0
57.739803 62.457001 0.18006776
59.962337 62.99963 -0.68579841
59.568165 62.90197 -0.62984991
58.924187 62.742416 -0.57922089
58.396919 62.611782 -0.48117828
58.039314 62.523182 -0.34223661
57.973473 62.506866 -0.17339832
57.634346 62.422848 0
57.782028 62.459435 0.17890663
60.021107 63.009087 -0.67601883
59.579243 62.89904 -0.62846428
58.955288 62.743652 -0.57584465
58.413551 62.608734 -0.47989398
58.016006 62.509731 -0.34367779
57.970242 62.498333 -0.1735433
57.616055 62.410126 0
57.778854 62.450668 0.17905164
59.877838 62.97076 -0.70046622
59.59938 62.901234 -0.62569565
58.965919 62.743069 -0.57471782
58.374546 62.595409 -0.4833177
58.092178 62.52491 -0.33935425
57.966114 62.493431 -0.17368831
57.606907 62.403744 0
57.729382 62.434322 0.18050276
59.92223 62.976608 -0.69313234
59.639645 62.905689 -0.62015831
58.987137 62.741928 -0.5724684
58.396164 62.593613 -0.48160586
58.033756 62.502659 -0.34281373
57.937687 62.47855 -0.17455943
57.593712 62.392223 0
57.731277 62.426746 0.18050276
60.052887 63.004326 -0.6711275
59.572849 62.883236 -0.62984991
58.983738 62.734631 -0.57303077
58.407833 62.589359 -0.4807491
58.075695 62.505573 -0.34050742
57.939529 62.471226 -0.17455943
57.585556 62.381935 0
57.702942 62.411545 0.18137386
60.063667 63.001987 -0.6694991
59.598534 62.884056 -0.62638712
58.901535 62.70734 -0.58259928
58.394608 62.578815 -0.4820334
58.047432 62.490791 -0.34223661
57.906132 62.454967 -0.17557499
57.577431 62.371628 0
57.689747 62.400105 0.18180943
60.002609 62.981365 -0.68009287
59.624191 62.884933 -0.62292695
58.967113 62.717491 -0.57528234
58.396328 62.572044 -0.4820334
58.054268 62.484875 -0.3419486
57.882828 62.441189 -0.17630054
57.609657 62.371578 0
57.67659 62.388634 0.18224443
60.056522 62.990025 -0.6711275
59.601242 62.873425 -0.62638712
58.98344 62.715195 -0.57359314
58.403027 62.566547 -0.48160586
58.021019 62.468708 -0.3439669
57.874638 62.431217 -0.1765911
57.636837 62.370316 0
57.673492 62.379704 0.18238999
60.019447 62.975403 -0.67764717
59.6269 62.874363 -0.62292695
58.960396 62.702805 -0.57640702
58.424652 62.564903 -0.47989398
58.007858 62.457619 -0.34483096
57.856407 62.418636 -0.17717166
57.588413 62.349655 0
57.720764 62.383724 0.18108331
59.924976 62.945835 -0.69394648
59.603977 62.862797 -0.62638712
58.927521 62.687805 -0.58034772
58.386627 62.547882 -0.4833177
58.014729 62.451675 -0.34454295
57.858322 62.411213 -0.17717166
57.575291 62.337997 0
57.727749 62.377438 0.18093832
60.021935 62.965786 -0.67764717
59.610207 62.858746 -0.62569565
58.943871 62.685513 -0.57865852
58.40826 62.546265 -0.48160586
58.036629 62.44965 -0.34338978
57.885391 62.410332 -0.1764461
57.572269 62.328926 0
57.744808 62.373783 0.18050276
60.056652 62.969727 -0.6719448
59.606739 62.852177 -0.62638712
58.930706 62.675549 -0.58034772
58.424927 62.543407 -0.48032153
58.048508 62.445061 -0.34281373
57.862179 62.396378 -0.17717166
57.599468 62.32774 0
57.716599 62.358341 0.18137386
60.048347 62.962452 -0.67357314
59.617828 62.849415 -0.62500411
58.971634 62.679749 -0.57584465
58.401867 62.530151 -0.48246095
58.03038 62.432613 -0.3439669
57.869144 62.390282 -0.17702666
57.611572 62.322651 0
57.773884 62.365269 0.1797772
60.054379 62.958939 -0.672759
59.590118 62.836441 -0.62915576
58.963413 62.671085 -0.57696933
58.433426 62.531246 -0.47989398
57.992283 62.414848 -0.34627214
57.861053 62.380222 -0.17731667
57.598503 62.310951 0
57.720585 62.343163 0.18137386
60.047363 62.946865 -0.67438734
59.549294 62.814159 -0.63538724
58.991188 62.665459 -0.57415545
58.392345 62.505901 -0.48374528
57.971123 62.393673 -0.34771442
57.885071 62.370747 -0.1767361
57.627747 62.302185 0
57.639244 62.305248 0.18384111
59.967468 62.920357 -0.68824095
59.608894 62.824356 -0.62708127
58.9879 62.658092 -0.57471782
58.409039 62.503113 -0.48246095
57.988064 62.390404 -0.34684929
57.851898 62.353947 -0.17775221
57.614712 62.290443 0
57.591106 62.284126 0.18529221
59.973545 62.916767 -0.68742681
59.605476 62.817749 -0.62777275
58.989525 62.652039 -0.57471782
58.415802 62.497692 -0.4820334
57.915096 62.362988 -0.35117283
57.853893 62.346519 -0.17775221
57.591656 62.27597 0
57.578125 62.272331 0.18572778
59.998058 62.920769 -0.68335277
59.630409 62.821625 -0.62431264
58.980518 62.646362 -0.57584465
58.386959 62.486294 -0.48460203
57.926067 62.362003 -0.35059682
57.839836 62.338745 -0.17818777
57.62286 62.280235 0
57.589195 62.271156 0.18543778
59.937344 62.899128 -0.69394648
59.573723 62.800598 -0.63261855
58.982159 62.640297 -0.57584465
58.403664 62.483543 -0.4833177
57.923061 62.353313 -0.35088482
57.846878 62.332668 -0.17804222
57.619904 62.271164 0
57.576252 62.259335 0.18587278
59.962521 62.900711 -0.68987244
59.604233 62.803162 -0.62846428
58.978905 62.632904 -0.57640702
58.370819 62.467339 -0.48631391
57.935028 62.348686 -0.35030881
57.848896 62.325233 -0.17804222
57.611965 62.260723 0
57.58337 62.252941 0.18572778
60.00676 62.907574 -0.68253857
59.566963 62.787258 -0.63400155
59.019775 62.637566 -0.57190394
58.402397 62.46867 -0.48374528
57.902115 62.331806 -0.35232601
57.850925 62.317802 -0.17804222
57.644184 62.261246 0
57.585487 62.245186 0.18572778
60.027149 62.90799 -0.67927867
59.592617 62.788551 -0.63054144
59.006718 62.627506 -0.57359314
58.394341 62.459183 -0.48460203
57.899132 62.323067 -0.35261512
57.832916 62.304867 -0.17862277
57.631248 62.249432 0
57.597626 62.240189 0.18543778
60.018951 62.900562 -0.68090707
59.61343 62.78857 -0.62777275
58.983894 62.614712 -0.57640702
58.41106 62.456512 -0.4833177
57.911148 62.318451 -0.352038
57.829964 62.296032 -0.17876777
57.673504 62.252823 0
57.619793 62.237991 0.18485722
59.958363 62.878571 -0.69150084
59.566559 62.769855 -0.63469309
59.010052 62.615444 -0.57359314
58.358505 62.434658 -0.48802575
57.858345 62.295879 -0.3552095
57.776939 62.273293 -0.18036444
57.660568 62.241005 0
57.64698 62.237232 0.1841311
59.969234 62.876339 -0.68987244
59.558372 62.761803 -0.63607872
59.011726 62.609413 -0.57359314
58.395023 62.437496 -0.48502958
57.855431 62.287075 -0.35549751
57.738983 62.254612 -0.18152556
57.677746 62.237541 0
57.644093 62.228157 0.18427666
59.994392 62.878136 -0.68579841
59.584023 62.763203 -0.63261855
59.018299 62.604759 -0.57303077
58.391975 62.42934 -0.48545715
57.827629 62.271282 -0.3572267
57.756115 62.251251 -0.18109001
57.654804 62.222878 0
57.656258 62.223286 0.1839861
60.000523 62.874638 -0.68498111
59.585522 62.757866 -0.63261855
59.019989 62.59874 -0.57303077
58.35434 62.411442 -0.48888087
57.844646 62.268024 -0.35636267
57.758232 62.24371 -0.18109001
57.697041 62.22649 0
57.638397 62.209991 0.18456666
60.058949 62.885937 -0.67520463
59.601517 62.75663 -0.63054144
59.031475 62.59549 -0.57190394
58.385899 62.412998 -0.48631391
57.851734 62.262001 -0.35607353
57.760357 62.236168 -0.18109001
57.659119 62.20755 0
57.61055 62.193821 0.18543778
