# .PCD v0.7 - Point Cloud Data file format
VERSION 0.7
FIELDS x y z
SIZE 4 4 4
TYPE F F F
COUNT 1 1 1
WIDTH 1616
HEIGHT 1
VIEWPOINT 0 0 0 1 0 0 0
POINTS 1616
DATA ascii
53.128761 80.659332 0
19.751778 131.80698 2.2612596
58.081947 73.056992 -0.90184748
55.451656 77.082397 -0.87093776
52.88625 81.008499 -0.56743151
53.141476 80.617905 0
19.699451 131.79762 2.2618401
64 64 -0
58.073822 73.045547 -0.90141994
55.433022 77.076378 -0.87122577
52.874252 80.98201 -0.56699592
53.135662 80.583008 0
19.589077 131.78752 2.2632918
58.057262 73.046951 -0.90227509
55.417229 77.066017 -0.87122577
52.879417 80.929466 -0.5656898
53.138496 80.535065 0
19.487236 131.76421 2.2643075
58.049156 73.035484 -0.90184748
55.407135 77.047005 -0.87064976
52.87326 80.894318 -0.56496423
53.135696 80.49585 0
19.316776 131.84491 2.2688069
58.026928 73.045425 -0.90355939
55.385681 77.045242 -0.87122577
52.878624 80.841843 -0.56365812
53.135849 80.452301 0
26.940666 120.12141 1.8782564
58.024506 73.025352 -0.90227509
55.384201 77.01326 -0.86978459
52.875504 80.802383 -0.562787
53.144707 80.395775 0
26.970421 119.92928 1.873322
58.013607 73.018127 -0.90227509
55.365623 77.007141 -0.8700726
52.86095 80.780273 -0.56249702
53.124905 80.382645 0
27.006329 119.72864 1.8680975
58.005554 73.006615 -0.90184748
55.35564 76.988098 -0.86949658
52.86084 80.736519 -0.56148094
53.133965 80.326157 0
18.963478 131.6671 2.270113
57.991829 73.003632 -0.90227509
55.360054 76.947517 -0.86747825
52.872349 80.675507 -0.55988479
53.13446 80.282715 0
25.703545 121.38972 1.9268761
58.000931 72.966507 -0.89928055
55.344414 76.937073 -0.86747825
52.866669 80.640442 -0.55915868
53.126369 80.252274 0
25.611118 121.37794 1.9280367
57.984386 72.967773 -0.90013564
55.325912 76.930893 -0.86776626
52.861038 80.6054 -0.55843312
53.121235 80.217514 0
25.617085 121.21931 1.9242634
57.962093 72.977539 -0.90184748
55.316063 76.911827 -0.86719024
52.852585 80.574677 -0.55785257
53.121983 80.174118 0
25.536373 121.19015 1.9248439
57.954121 72.965981 -0.90141994
55.314926 76.879883 -0.86574906
52.855812 80.526726 -0.55669147
53.119915 80.135063 0
25.531212 121.04884 1.9216511
57.940418 72.962921 -0.90184748
55.337029 76.813675 -0.86200154
55.970497 75.876694 -0.40038472
53.114998 80.100349 0
24.941326 121.77292 1.9476296
57.926712 72.959839 -0.90227509
55.443451 76.62336 -0.84989381
55.950325 75.87558 -0.40067473
53.118916 80.052719 0
24.874458 121.72139 1.9474845
57.90723 72.965233 -0.90355939
55.820717 76.035446 -0.81097627
55.950584 75.844353 -0.39994919
53.117077 80.013733 0
24.758003 121.74284 1.9498068
57.907967 72.940895 -0.90184748
55.867348 75.935791 -0.8049224
55.945061 75.821732 -0.39951363
53.115314 79.974777 0
26.002094 119.76716 1.8846426
57.879787 72.958969 -0.90441614
55.867516 75.904602 -0.80348122
55.936638 75.803413 -0.39922363
53.119507 79.927231 0
25.917152 119.74694 1.8855132
57.874775 72.943092 -0.90355939
55.853138 75.894768 -0.80348122
55.934132 75.776512 -0.39864308
53.109097 79.901184 0
25.832195 119.72662 1.8863842
57.863972 72.935684 -0.90355939
55.815357 75.919014 -0.80578643
55.925797 75.758179 -0.3983525
53.110519 79.857971 0
25.750183 119.70187 1.8871099
57.844444 72.940956 -0.90484369
55.745224 75.990074 -0.81126428
55.914539 75.744141 -0.39820752
53.10907 79.819084 0
25.682907 119.65562 1.8871099
57.842396 72.92083 -0.90355939
55.445713 76.393021 -0.83922726
55.894444 75.742928 -0.39849806
53.107712 79.780205 0
25.624546 119.59644 1.8866743
57.831165 72.92556 -0.90441614
55.247066 76.664444 -0.85796487
55.840088 75.806412 -0.40081975
53.112972 79.752213 0
25.596867 119.56471 1.8863842
57.817463 72.922318 -0.90484369
55.29364 76.564568 -0.85191101
55.775513 75.869156 -0.40328696
53.108768 79.717667 0
24.159389 121.49591 1.9535801
57.821331 72.893761 -0.90270424
55.31683 76.498817 -0.84816349
55.722633 75.914688 -0.40517363
53.101662 79.687393 0
24.15221 121.3581 1.9505323
57.807655 72.890503 -0.90313184
55.272163 76.530769 -0.85104698
55.720112 75.887642 -0.40459365
53.100559 79.648598 0
24.371033 120.89629 1.9364545
57.793983 72.887215 -0.90355939
55.419914 76.286957 -0.83519173
55.744442 75.82222 -0.40270641
53.105499 79.601273 0
24.534374 120.51604 1.9251344
57.795025 72.862885 -0.90184748
55.413975 76.263863 -0.83432657
55.751019 75.782448 -0.40169084
53.098595 79.571045 0
24.513805 120.40019 1.9228122
57.769577 72.876389 -0.90398693
55.211941 76.520218 -0.85248816
55.721863 75.793739 -0.40241641
53.097736 79.532288 0
24.496437 120.28013 1.9203449
57.752941 72.877258 -0.90484369
55.125381 76.611099 -0.85940605
55.689678 75.809219 -0.40328696
53.096947 79.493576 0
24.449402 120.20261 1.9193289
57.751099 72.857117 -0.90355939
55.098221 76.617279 -0.86055923
55.711357 75.74823 -0.40154585
53.099239 79.450615 0
24.396496 120.13354 1.9186033
57.746326 72.841187 -0.90270424
55.074017 76.619186 -0.86142439
55.793198 75.602432 -0.3969014
53.095604 79.416183 0
24.319695 120.09838 1.9190389
57.732681 72.837807 -0.90313184
55.052788 76.616837 -0.86200154
52.878357 79.68309 -0.53695357
53.095043 79.377533 0
24.206856 120.11397 1.9212155
57.719036 72.834412 -0.90355939
55.052544 76.58493 -0.86055923
52.865433 79.661179 -0.53666359
53.091549 79.34314 0
23.997559 120.26491 1.9280367
57.714317 72.818459 -0.90270424
55.046341 76.561478 -0.8596952
52.846519 79.647713 -0.53666359
53.088131 79.308739 0
23.980877 120.14459 1.9255694
57.700687 72.815033 -0.90313184
55.022156 76.563271 -0.86055923
52.839706 79.61731 -0.53608304
53.078712 79.282852 0
20.589531 124.74703 2.0852151
57.702 72.790718 -0.90141994
55.013 76.544006 -0.85998321
52.835972 79.582695 -0.53535748
53.084503 79.235794 0
20.546432 124.65228 2.0837634
57.679401 72.799782 -0.90313184
55.000866 76.528946 -0.8596952
52.832321 79.54808 -0.53463137
53.08736 79.193001 0
20.409515 124.68837 2.0868111
57.653778 72.812965 -0.90527123
54.976677 76.53064 -0.86055923
52.837822 79.500854 -0.53347081
53.081177 79.16291 0
20.378727 124.57661 2.0847795
57.652149 72.792801 -0.90398693
54.955479 76.528122 -0.86113638
52.849525 79.445206 -0.53201914
53.084183 79.120178 0
20.32077 124.50281 2.084054
57.647545 72.77681 -0.90313184
54.934288 76.525558 -0.8617124
52.86438 79.385429 -0.53042299
53.084236 79.081665 0
23.833878 119.49516 1.9132333
57.627895 72.781601 -0.90441614
54.907005 76.531342 -0.86286557
52.85191 79.363541 -0.53013247
53.081303 79.047409 0
23.772949 119.43819 1.9129432
57.631649 72.765282 -0.90313184
54.890312 76.538406 -0.86373073
52.857903 79.335785 -0.52940691
53.081394 79.028168 0
23.779171 119.35922 1.9110566
57.633152 72.740982 -0.90141994
54.875168 76.52739 -0.86373073
64 64 -0
53.078564 78.993935 0
23.761269 119.24337 1.9087344
57.622597 72.733284 -0.90141994
54.866135 76.508011 -0.86315471
52.848454 79.271042 -0.52810079
53.078865 78.955513 0
23.645508 119.26186 1.9110566
57.630238 72.700722 -0.89885294
54.854092 76.492775 -0.86286557
52.842289 79.240784 -0.52752024
53.076172 78.92131 0
18.323399 126.39159 2.1595225
57.613663 72.701294 -0.89970809
54.845119 76.473389 -0.86228955
52.845409 79.19796 -0.5265041
53.076637 78.882919 0
64 64 0
57.600113 72.697701 -0.90013564
54.830055 76.462311 -0.86228955
52.833206 79.176109 -0.52621412
53.067917 78.857124 0
23.131313 119.54214 1.92586
57.594372 72.661575 -0.89799619
54.818428 76.415154 -0.86055923
52.839832 79.090576 -0.5241819
53.066082 78.784645 0
23.009567 119.42651 1.9252795
57.586967 72.649704 -0.89756864
54.803432 76.404053 -0.86055923
52.840172 79.05204 -0.52331132
53.066833 78.746323 0
22.902393 119.43121 1.9271661
57.579578 72.637833 -0.8971411
54.834732 76.330666 -0.85623568
52.843697 79.009338 -0.52229518
53.070747 78.703873 0
22.823044 119.39819 1.9277467
57.563019 72.638298 -0.89799619
54.890934 76.224174 -0.84960467
52.844193 78.970856 -0.52142465
53.06543 78.673965 0
23.678341 118.11082 1.8846426
57.558723 72.622292 -0.8971411
55.102158 75.910652 -0.82856071
52.838554 78.940712 -0.5208441
53.066402 78.635712 0
23.600548 118.0787 1.8852232
57.55447 72.606277 -0.89628434
55.134277 75.837799 -0.82423717
52.839195 78.902267 -0.51997352
53.064323 78.601662 0
23.553928 118.00489 1.8843521
57.544079 72.59848 -0.89628434
55.008179 75.975983 -0.83461457
52.839924 78.863823 -0.51910239
53.059189 78.571793 0
16.945724 126.67041 2.1886938
57.530609 72.594772 -0.89671189
54.844402 76.163475 -0.8484515
52.834473 78.833717 -0.51852185
53.05724 78.537773 0
16.94503 126.51387 2.1852109
57.535686 72.56646 -0.8945725
54.764278 76.239113 -0.85450536
52.829079 78.803627 -0.5179413
53.055355 78.503769 0
16.938404 126.3657 2.1820176
57.525341 72.558647 -0.8945725
54.733883 76.248581 -0.85594767
52.833138 78.761116 -0.51692575
53.053535 78.46978 0
16.888165 126.27563 2.1808565
57.524315 72.538544 -0.8932882
54.703465 76.25798 -0.85738885
52.837296 78.718628 -0.51590961
53.051796 78.435799 0
16.888306 126.1193 2.1773736
57.501572 72.547058 -0.89500004
54.682404 76.254967 -0.85796487
52.82896 78.692711 -0.51547408
53.046951 78.405998 0
16.863609 125.99614 2.1750515
57.494358 72.535118 -0.8945725
54.661324 76.251938 -0.85854203
52.839565 78.642006 -0.51416796
53.054794 78.359634 0
16.886387 125.81102 2.1705527
57.496521 72.510933 -0.89286059
54.655952 76.22831 -0.85767686
52.837654 78.607864 -0.5134424
53.043777 78.33812 0
16.846447 125.70862 2.168956
57.488262 72.511078 -0.8932882
54.648567 76.222664 -0.85767686
52.835152 78.592857 -0.51315182
53.054085 78.306702 0
16.907059 125.55219 2.1644571
57.477982 72.503204 -0.8932882
54.652687 76.186737 -0.85594767
52.839661 78.550507 -0.51213628
53.05582 78.268677 0
16.902294 125.40453 2.1612642
57.461449 72.503464 -0.89414489
54.678959 76.122124 -0.85220015
52.831593 78.524643 -0.51170069
53.057617 78.230698 0
22.400055 118.10123 1.9059767
57.45118 72.49556 -0.89414489
54.721172 76.037102 -0.84701031
52.839432 78.47821 -0.51053959
53.046791 78.209213 0
22.401329 117.9645 1.9029293
57.447205 72.479507 -0.8932882
54.886917 75.792587 -0.83057904
52.83466 78.448265 -0.50995904
53.051903 78.167152 0
22.352051 117.89363 1.9022032
57.443245 72.46347 -0.89243305
54.967712 75.65889 -0.82193083
52.833118 78.41423 -0.50923347
53.047543 78.137451 0
21.18261 119.26876 1.952564
57.429878 72.459595 -0.89286059
54.87114 75.754189 -0.82942587
52.828461 78.384308 -0.50865293
53.040047 78.11187 0
21.122231 119.20879 1.952274
57.419659 72.451645 -0.89286059
54.83152 75.775803 -0.83173221
52.839821 78.3339 -0.50734681
53.048588 78.065765 0
17.09687 124.24138 2.1322374
57.399971 72.455841 -0.89414489
54.763191 75.834038 -0.83663291
52.82251 78.320404 -0.50734681
53.037998 78.044319 0
17.078468 124.11502 2.1297703
57.389759 72.447853 -0.89414489
54.627769 75.977669 -0.84758747
52.840446 78.261856 -0.50575012
53.030663 78.018761 0
16.999454 124.06648 2.1300607
57.376392 72.443901 -0.8945725
54.562218 76.031456 -0.85220015
52.820004 78.252464 -0.50589567
53.036221 77.97683 0
16.923706 124.01373 2.1302059
57.35667 72.447998 -0.8958568
54.522118 76.052559 -0.85450536
52.838131 78.194008 -0.50429904
53.032211 77.947205 0
16.844807 123.96497 2.1304958
57.365543 72.415771 -0.8932882
54.507561 76.0411 -0.85450536
52.833855 78.164185 -0.5037185
53.025024 77.921692 0
16.765945 123.91611 2.1307864
57.339455 72.427895 -0.89542925
54.496223 76.025566 -0.85421735
52.829639 78.134377 -0.50313789
53.02758 77.883911 0
16.63559 123.93238 2.1333985
57.345226 72.399712 -0.8932882
54.491341 76.001907 -0.85335219
52.828701 78.100502 -0.50241238
53.036671 77.838005 0
16.524479 123.92399 2.1351402
57.32869 72.399712 -0.89414489
54.457535 76.014725 -0.85508251
52.8246 78.070717 -0.50183177
53.04261 77.796227 0
16.368076 123.97238 2.1389136
57.318542 72.391647 -0.89414489
54.446243 75.999138 -0.8547945
52.820557 78.040939 -0.50125122
53.035675 77.77076 0
16.308598 123.89851 2.1383331
57.314819 72.375534 -0.8932882
54.44466 75.971413 -0.85364133
52.819805 78.007118 -0.50052565
53.032036 77.741226 0
16.200592 123.88553 2.1399298
57.304707 72.367447 -0.8932882
54.436672 75.951775 -0.85306418
52.815876 77.977364 -0.4999451
53.031693 77.707649 0
16.076317 123.89265 2.142252
57.284958 72.371368 -0.8945725
54.422241 75.940208 -0.85306418
52.818512 77.939514 -0.49907401
53.034676 77.670029 0
15.984478 123.85902 2.1431224
58.348557 71.036713 -0.99967474
57.289551 72.355301 -0.8932882
54.434456 75.910233 -0.85133499
52.826359 77.912498 -0.49834844
53.036198 77.651222 0
15.919037 123.86646 2.1444287
58.343243 71.025925 -0.99911237
57.269798 72.359184 -0.8945725
54.410336 75.910751 -0.85220015
52.825851 77.878754 -0.49762288
53.029507 77.625801 0
64 64 0
57.262924 72.347054 -0.89414489
54.405701 75.887077 -0.85133499
52.818886 77.853104 -0.49718732
53.035938 77.584183 0
48.755554 82.887459 0.67787021
58.335873 71.000381 -0.99742317
57.236698 72.358864 -0.89628434
54.394596 75.87146 -0.85104698
52.821762 77.815353 -0.49631676
53.026073 77.562836 0
48.683708 82.929634 0.68004745
58.324219 70.997475 -0.99798554
57.233067 72.34272 -0.89542925
54.386784 75.851799 -0.85046983
52.821442 77.781654 -0.49559122
53.029362 77.525322 0
48.628113 82.951462 0.68149859
58.325378 70.97879 -0.99629849
57.242432 72.310623 -0.89286059
54.369209 75.844185 -0.85075784
52.817909 77.752014 -0.49501064
53.029453 77.491852 0
48.647842 82.880463 0.67961192
58.326584 70.960106 -0.9946093
57.219418 72.318375 -0.8945725
54.354904 75.832542 -0.85075784
52.814438 77.722374 -0.49443009
53.016445 77.474556 0
48.625042 82.8619 0.67961192
58.324615 70.945374 -0.99348247
57.212616 72.306206 -0.89414489
54.340614 75.820877 -0.85075784
52.8176 77.6847 -0.49355897
53.02652 77.429031 0
15.098732 123.84396 2.1583614
58.322662 70.930656 -0.99235779
57.212349 72.286079 -0.89286059
54.346001 75.785194 -0.84902865
52.814232 77.655113 -0.49297899
53.026791 77.39563 0
14.970478 123.85317 2.1608286
58.327194 70.908081 -0.99010623
57.179531 72.305649 -0.8958568
54.338341 75.765518 -0.8484515
52.814243 77.62149 -0.49225286
53.010612 77.382362 0
14.891602 123.80191 2.1611187
58.328541 70.889442 -0.98841703
57.179295 72.285507 -0.8945725
54.297829 75.785789 -0.85075784
52.811005 77.591919 -0.49167231
53.014294 77.344971 0
14.783043 123.78667 2.1627154
58.329918 70.870842 -0.98672998
57.169289 72.27726 -0.8945725
54.296764 75.758095 -0.84960467
52.807819 77.562355 -0.49109176
53.011429 77.315628 0
14.694302 123.74719 2.1634409
58.328102 70.856148 -0.98560315
57.169113 72.257126 -0.8932882
54.285858 75.742378 -0.84931666
52.814621 77.520805 -0.49007618
53.015259 77.278267 0
14.615517 123.69559 2.1637316
58.319824 70.849289 -0.98560315
57.15258 72.256775 -0.89414489
54.294796 75.702759 -0.84729832
52.811562 77.49128 -0.48949564
53.015835 77.244957 0
14.506939 123.67986 2.1653275
58.321301 70.830688 -0.98391396
57.126198 72.268234 -0.89628434
54.280663 75.691025 -0.84729832
52.811874 77.457771 -0.48877007
53.009823 77.219666 0
14.32523 123.75189 2.1701171
58.326065 70.808212 -0.98166239
57.12278 72.252045 -0.89542925
54.276466 75.667358 -0.8464343
52.802284 77.436249 -0.48847952
53.007187 77.190384 0
14.19651 123.75969 2.1725843
58.314575 70.80526 -0.98222691
57.096359 72.26342 -0.89756864
54.275642 75.639725 -0.84528112
52.806042 77.398788 -0.48760897
53.007938 77.15712 0
14.097683 123.73137 2.1737454
58.319408 70.782799 -0.9799754
57.099567 72.239334 -0.8958568
54.248302 75.643829 -0.8464343
52.813221 77.357361 -0.48659286
53.008759 77.123886 0
13.98885 123.71484 2.1753416
58.301422 70.787598 -0.98166239
57.086319 72.234917 -0.89628434
54.230919 75.635994 -0.8467223
52.810455 77.327911 -0.48601228
52.999596 77.102631 0
13.910046 123.66234 2.175632
58.303032 70.769058 -0.9799754
57.069756 72.234421 -0.8971411
54.233517 75.604393 -0.84528112
52.807743 77.298477 -0.48543173
52.997177 77.073395 0
13.771065 123.6813 2.1785347
58.308769 70.753952 -0.97828621
57.084637 72.206665 -0.8945725
54.203182 75.626175 -0.84729832
52.8265 77.259918 -0.4842706
53.01276 77.038879 0
13.684792 123.71054 2.1807115
58.320282 70.723785 -0.97490996
57.064781 72.210075 -0.8958568
54.212498 75.586678 -0.84528112
52.817188 77.23848 -0.48398063
53.003723 77.017654 0
13.592552 123.67353 2.1815827
58.312164 70.716911 -0.97490996
57.048237 72.209518 -0.89671189
54.201847 75.5709 -0.84499311
52.811279 77.213051 -0.48354506
53.011551 76.976547 0
13.507053 123.62844 2.1821632
58.290897 70.725533 -0.97716147
57.048283 72.189377 -0.89542925
54.191231 75.555092 -0.84470397
52.812134 77.179718 -0.4828195
53.002625 76.955315 0
13.404774 123.60304 2.1834693
58.315716 70.679924 -0.97153157
57.035069 72.184883 -0.8958568
54.190681 75.527473 -0.8435508
52.806324 77.154312 -0.48238394
53.010582 76.914276 0
13.315956 123.56165 2.1841948
58.301044 70.680786 -0.9726584
57.021854 72.180359 -0.89628434
54.186825 75.503815 -0.84268677
52.814037 77.113113 -0.48136839
52.998371 76.897018 0
13.132729 123.63084 2.1889844
58.299587 70.666168 -0.97153157
57.011974 72.171921 -0.89628434
54.146034 75.523407 -0.84499311
52.818474 77.075882 -0.48049727
52.999706 76.863945 0
13.101242 123.52193 2.1872427
58.311375 70.636131 -0.96815532
57.008781 72.155685 -0.89542925
54.155689 75.483994 -0.84297478
52.806061 77.058418 -0.48035225
52.997723 76.834831 0
19.411373 116.01537 1.9133788
58.290115 70.644669 -0.97040689
57.008976 72.135544 -0.89414489
54.155304 75.456398 -0.84182161
52.803841 77.029114 -0.4797717
52.99239 76.8097 0
18.955688 116.41865 1.9302139
58.300644 70.600082 -0.96590382
57.00946 72.095322 -0.89157796
54.127647 75.432571 -0.84182161
52.802952 76.966629 -0.47846559
52.99889 76.739723 0
18.662716 116.50237 1.9373256
58.302654 70.581657 -0.96421462
57.003056 72.082977 -0.89114875
54.110458 75.424545 -0.84210962
52.807705 76.929504 -0.47759447
52.986908 76.722488 0
18.653728 116.38468 1.9350034
58.294704 70.574768 -0.96421462
57.010117 72.05513 -0.8890093
54.093277 75.416489 -0.84239763
52.805702 76.900284 -0.47701448
52.992016 76.685577 0
18.77779 116.11398 1.9270211
58.303436 70.548706 -0.96140075
56.993641 72.054436 -0.88986605
54.069298 75.416222 -0.84326279
52.800358 76.874985 -0.47657892
52.986935 76.6605 0
18.718262 116.05539 1.9268761
58.305553 70.530319 -0.95971155
56.983913 72.045959 -0.88986605
54.062305 75.396423 -0.84268677
52.808723 76.834023 -0.47556281
52.985329 76.631485 0
18.645157 116.01237 1.9273112
58.287628 70.53492 -0.96140075
56.984337 72.025879 -0.88858175
54.058762 75.372719 -0.84182161
52.803486 76.808746 -0.47512725
52.994057 76.590736 0
18.578926 115.96144 1.9274561
58.296478 70.508904 -0.95858681
56.984798 72.005806 -0.88729745
54.038212 75.368477 -0.84239763
52.798283 76.783493 -0.47469226
52.985706 76.569603 0
18.711384 115.68375 1.9191839
58.295334 70.49437 -0.95745999
56.978516 71.993469 -0.88686991
54.055206 75.321457 -0.83980328
52.803429 76.746513 -0.47382113
52.994576 76.528908 0
18.748425 115.51576 1.9149749
58.290844 70.483658 -0.95689762
56.965473 71.988831 -0.88729745
54.024429 75.32885 -0.84124559
52.791466 76.72908 -0.47367612
52.98288 76.511703 0
18.693073 115.45325 1.914685
58.30373 70.461151 -0.95408374
56.974228 71.969177 -0.88558561
54.044956 75.291779 -0.83893925
52.79409 76.710609 -0.47324058
52.98909 76.489426 0
18.730732 115.34791 1.9117821
58.292564 70.458069 -0.95464611
56.968002 71.956833 -0.885158
54.041599 75.268112 -0.83807409
52.792507 76.68148 -0.47266001
52.991241 76.456612 0
18.658394 115.30486 1.9122177
58.288132 70.447365 -0.95408374
56.961792 71.944496 -0.88473046
54.024563 75.259941 -0.8383621
52.797863 76.6446 -0.47178945
52.993462 76.423813 0
18.655014 115.18391 1.9097505
58.287102 70.432854 -0.95295691
56.959023 71.928299 -0.8838737
54.004089 75.255623 -0.83893925
52.799843 76.611626 -0.47106391
52.988819 76.398842 0
18.575951 115.14851 1.9104761
58.286083 70.418365 -0.95183223
56.963104 71.904449 -0.88216186
53.997383 75.235802 -0.8383621
52.801888 76.578682 -0.47033834
52.991146 76.366089 0
18.445068 115.17121 1.9133788
58.305401 70.381119 -0.94732916
56.95013 71.89978 -0.88259107
53.987255 75.219849 -0.83807409
52.800537 76.549629 -0.4697578
52.979691 76.348885 0
18.362518 115.13939 1.9142494
58.294312 70.378021 -0.94789147
56.94059 71.891258 -0.88259107
53.987499 75.192322 -0.83692092
52.806179 76.512848 -0.46888667
52.982124 76.31617 0
18.366596 115.01061 1.9114916
58.289997 70.36734 -0.94732916
56.92421 71.890358 -0.88344616
53.960171 75.195618 -0.83807409
52.791069 76.499306 -0.46888667
52.981148 76.287346 0
18.363976 114.88966 1.9090244
58.29929 70.341545 -0.94451529
56.928413 71.866531 -0.88173431
53.953571 75.175781 -0.83749694
52.803768 76.454834 -0.46772555
52.980232 76.258537 0
18.28862 114.84995 1.9096049
58.288235 70.338425 -0.9450776
56.932659 71.84272 -0.88002241
53.946995 75.155952 -0.83692092
52.795677 76.433586 -0.46743554
52.975868 76.233627 0
18.150665 114.87962 1.9127983
58.297607 70.312668 -0.94226372
56.930065 71.826569 -0.87916732
53.933521 75.143799 -0.83692092
52.798077 76.400757 -0.46671
52.968079 76.212563 0
18.050911 114.86659 1.9143944
58.289986 70.305771 -0.94226372
56.927513 71.810394 -0.87831056
53.920067 75.13163 -0.83692092
52.797054 76.371811 -0.46612942
52.970795 76.179939 0
17.972046 114.83029 1.91512
58.282372 70.298866 -0.94226372
56.918079 71.801849 -0.87831056
53.910095 75.115616 -0.83663291
52.803078 76.335167 -0.46525833
52.959583 76.16275 0
17.882717 114.80542 1.9162811
58.291859 70.273163 -0.93944985
56.915562 71.785698 -0.87745541
53.90712 75.091934 -0.83576775
52.798664 76.310104 -0.46482331
52.965919 76.126297 0
17.779392 114.79578 1.9180228
58.294563 70.254997 -0.93776065
56.89579 71.788498 -0.87873811
53.890244 75.083542 -0.83605576
52.794308 76.285042 -0.46438777
52.958282 76.10527 0
17.690029 114.77061 1.9191839
58.287006 70.248093 -0.93776065
56.893307 71.772339 -0.87788302
53.887318 75.059883 -0.83519173
52.786491 76.263817 -0.4640972
52.961224 76.072716 0
17.607685 114.73763 1.9200544
58.279461 70.241188 -0.93776065
56.880455 71.767525 -0.87831056
53.856491 75.066719 -0.83663291
52.785713 76.234947 -0.46351719
52.964241 76.040176 0
17.504272 114.72751 1.9217961
58.289112 70.215569 -0.93494678
56.871075 71.758919 -0.87831056
53.850132 75.046829 -0.83605576
52.785004 76.206078 -0.46293664
52.960255 76.015343 0
17.28479 114.84349 1.9283272
58.278168 70.212395 -0.93550909
56.865181 71.746529 -0.87788302
53.843792 75.026947 -0.83547974
52.773796 76.18869 -0.46279109
52.959846 75.986679 0
17.22691 114.78319 1.9281822
58.277554 70.198013 -0.93438441
56.859303 71.734131 -0.87745541
53.826973 75.018471 -0.83576775
52.773178 76.159836 -0.46221054
52.966564 75.950378 0
17.169117 114.72281 1.9280367
58.270069 70.191093 -0.93438441
56.849964 71.725494 -0.87745541
53.820686 74.998581 -0.83519173
52.779663 76.12339 -0.46133998
52.955666 75.93322 0
17.125507 114.64712 1.9273112
58.276695 70.176445 -0.93269521
56.841812 71.724937 -0.87788302
53.814041 74.992432 -0.83519173
52.79353 76.093742 -0.46046942
52.962608 75.911278 0
17.091389 114.6226 1.9274561
58.293449 70.143463 -0.92875451
56.849949 71.697479 -0.87574357
53.793732 74.987686 -0.83576775
52.789539 76.068764 -0.46003386
52.962395 75.882675 0
17.055004 114.53924 1.9264406
58.275639 70.14772 -0.9304437
56.819668 71.711372 -0.87831056
53.791042 74.963989 -0.83490258
52.789131 76.040001 -0.45945328
52.958687 75.857903 0
16.965641 114.51291 1.9276017
58.278618 70.129654 -0.92875451
56.817356 71.69519 -0.87745541
53.777802 74.951645 -0.83490258
52.781689 76.018837 -0.45916274
52.958572 75.82933 0
1.8523827 130.5824 2.5436869
58.260796 70.133873 -0.9304437
56.822094 71.671509 -0.87574357
53.775169 74.927963 -0.83403856
52.792019 75.978722 -0.45814717
52.9585 75.800789 0
1.8252411 130.45035 2.5415096
58.267296 70.112106 -0.92819214
56.805813 71.670311 -0.87659866
53.758438 74.919373 -0.83432657
52.784672 75.957581 -0.45785663
52.947823 75.78363 0
1.6205559 130.50784 2.5465896
58.273838 70.090363 -0.92594057
56.800064 71.657875 -0.87617111
53.748791 74.903221 -0.83403856
52.795139 75.917526 -0.45684105
52.951416 75.751312 0
1.0810585 130.92081 2.5653114
58.280426 70.068649 -0.92368907
56.790813 71.64917 -0.87617111
53.724991 74.902107 -0.83490258
52.784321 75.900192 -0.4566955
52.951504 75.722801 0
0.68302917 131.1813 2.578228
58.262623 70.072815 -0.92537826
56.770996 71.651657 -0.87745541
53.715374 74.885925 -0.83461457
52.784225 75.871521 -0.45611495
52.944489 75.701889 0
0.44486618 131.27097 2.5846143
58.265778 70.05481 -0.92368907
56.765282 71.639191 -0.87702787
53.70578 74.869743 -0.83432657
52.787754 75.839096 -0.45538938
52.944672 75.673401 0
0.22427368 131.34126 2.5902743
58.279449 70.025772 -0.92031282
56.770199 71.615547 -0.87531602
53.710461 74.838539 -0.83288538
52.78418 75.81424 -0.45495439
52.944908 75.644936 0
0.16083527 131.24532 2.5895486
58.258163 70.033577 -0.92256439
56.753929 71.614243 -0.87617111
53.67598 74.848579 -0.83461457
52.780666 75.789383 -0.45451882
52.945202 75.616486 0
8.609417 122.20495 2.243989
58.264908 70.011925 -0.92031282
56.73056 71.620338 -0.87788302
53.677162 74.821121 -0.8334614
52.773609 75.768288 -0.45422828
52.945541 75.588058 0
8.5068474 122.17181 2.245295
58.268185 69.993973 -0.91862363
56.732006 71.60041 -0.87659866
53.667667 74.804909 -0.83317339
52.809677 75.702141 -0.4521966
52.942345 75.5634 0
8.3539886 122.19112 2.2486334
58.260948 69.987045 -0.91862363
56.722828 71.591629 -0.87659866
53.647469 74.799873 -0.83374941
52.813522 75.669853 -0.45147103
52.935577 75.542526 0
8.1003151 122.31516 2.2560351
58.260754 69.972778 -0.91749895
56.706535 71.59024 -0.87745541
53.641586 74.779907 -0.83317339
52.806637 75.648827 -0.45118049
52.932461 75.517883 0
7.6482353 122.64476 2.271419
58.250019 69.969498 -0.91806132
56.697372 71.581421 -0.87745541
53.621399 74.774826 -0.83374941
52.810593 75.616585 -0.45045492
52.940212 75.482018 0
7.7108078 122.43814 2.2660491
58.271049 69.933304 -0.91355824
56.681091 71.579971 -0.87831056
53.622757 74.747391 -0.83259624
52.811005 75.588104 -0.44987437
52.940807 75.453667 0
7.7485237 122.25793 2.2616951
58.260353 69.930023 -0.91412055
56.686218 71.556366 -0.87659866
53.606171 74.738571 -0.83288538
52.81147 75.559631 -0.44929382
52.945087 75.421585 0
7.826355 122.03682 2.2557447
58.253189 69.92308 -0.91412055
56.691395 71.532784 -0.87488681
53.596817 74.722282 -0.83259624
52.811985 75.531189 -0.44871324
52.934914 75.404488 0
42.650955 86.003891 0.85623759
58.253151 69.91597 -0.91355824
56.676109 71.539421 -0.87617111
53.59034 74.715996 -0.83259624
52.819504 75.509514 -0.44813269
52.938896 75.386612 0
42.637665 85.99099 0.85623759
58.246006 69.909019 -0.91355824
56.68491 71.512177 -0.87403172
53.59544 74.684883 -0.83115506
52.809227 75.492279 -0.44798771
52.939671 75.358322 0
64 64 0
58.253071 69.887512 -0.91130668
56.693768 71.484962 -0.87189227
53.578926 74.676003 -0.83144307
52.809868 75.463875 -0.44740713
52.936867 75.333771 0
64 64 0
58.260178 69.866035 -0.90905511
56.691917 71.468781 -0.87103552
53.569649 74.659706 -0.83115506
52.814194 75.431778 -0.44668159
52.930466 75.31295 0
64 64 0
58.249538 69.862724 -0.90961748
56.697277 71.44529 -0.86932367
53.549526 74.654488 -0.83173221
52.804024 75.414543 -0.44653657
52.94595 75.269852 0
42.597137 85.820694 0.85362476
58.242458 69.855774 -0.90961748
56.688286 71.436455 -0.86932367
53.533035 74.645538 -0.83202022
52.808456 75.382484 -0.44581103
52.939644 75.249054 0
42.578068 85.787415 0.85333478
58.256783 69.827103 -0.90624124
56.668491 71.438591 -0.87060797
53.531078 74.621826 -0.83115506
52.802013 75.361542 -0.44552046
52.937027 75.224556 0
42.569992 85.743011 0.85260922
58.239044 69.830994 -0.90792829
56.663113 71.426079 -0.87018043
53.525517 74.601822 -0.83057904
52.817513 75.318428 -0.44435936
52.949066 75.185272 0
42.551048 85.709702 0.85231864
58.235573 69.820419 -0.90736592
56.657768 71.413551 -0.86975121
53.498154 74.603859 -0.83173221
52.807499 75.301216 -0.44421434
52.950211 75.15712 0
42.535793 85.672699 0.85188365
58.2178 69.824272 -0.90905511
56.641575 71.411964 -0.87060797
53.492645 74.583809 -0.83115506
52.812157 75.269249 -0.44348878
52.95507 75.125298 0
42.509621 85.646744 0.85188365
58.228687 69.799278 -0.90624124
56.618137 71.417625 -0.87231982
53.476219 74.574768 -0.83144307
52.805885 75.248352 -0.44319823
52.945316 75.108246 0
42.494484 85.609711 0.85144812
58.207329 69.806686 -0.9084928
56.627308 71.390533 -0.87018043
53.474396 74.551071 -0.83057904
52.795971 75.23114 -0.44305325
52.950279 75.076454 0
42.468388 85.58371 0.85144812
58.214691 69.785309 -0.90624124
56.600235 71.399765 -0.87231982
53.454346 74.545654 -0.83115506
52.804451 75.195549 -0.44218269
52.933228 75.066772 0
42.464367 85.535629 0.85057753
58.186317 69.785652 -0.9084928
56.567818 71.396347 -0.87403172
53.447224 74.501892 -0.82971388
52.806896 75.139137 -0.44102156
52.954475 74.992271 0
42.416077 85.479851 0.85043198
58.18655 69.771454 -0.90736592
56.566181 71.380119 -0.87317497
53.430874 74.492775 -0.83000189
52.800827 75.118271 -0.44073099
52.937496 74.98259 0
42.401192 85.44278 0.84999698
58.175972 69.767998 -0.90792829
56.553608 71.374756 -0.87360412
53.429218 74.469086 -0.82913786
52.80217 75.090103 -0.44015044
52.942734 74.950897 0
42.38269 85.409348 0.84970641
58.172619 69.757393 -0.90736592
56.562977 71.347702 -0.87146306
53.405548 74.467209 -0.83000189
52.807259 75.058311 -0.43942487
52.948021 74.919235 0
42.353146 85.386864 0.84985143
58.165668 69.750343 -0.90736592
56.568729 71.324295 -0.86975121
53.400269 74.447144 -0.82942587
52.812408 75.026543 -0.43869933
52.934837 74.905876 0
42.331017 85.357048 0.84970641
58.162342 69.739731 -0.90680361
56.581844 71.293716 -0.86718422
53.395039 74.427063 -0.82884872
52.806499 75.005737 -0.43840933
52.925373 74.888855 0
42.316353 85.319916 0.84927088
58.155411 69.732674 -0.90680361
56.565697 71.291946 -0.86804098
53.397221 74.399757 -0.82769555
52.800636 74.984917 -0.43811876
52.919662 74.868164 0
42.301723 85.282791 0.84883589
58.151951 69.729141 -0.90680361
56.583305 71.265892 -0.86547238
53.37616 74.407829 -0.82884872
52.816269 74.956329 -0.4372482
52.942829 74.832344 0
42.31115 85.247849 0.84796476
58.155937 69.711411 -0.90511441
56.559845 71.271278 -0.86718422
53.367287 74.391373 -0.82856071
52.806763 74.939171 -0.43710265
52.937202 74.811691 0
42.278053 85.228897 0.84825534
58.145393 69.707901 -0.90567893
56.554737 71.258698 -0.86675668
53.354736 74.378517 -0.82856071
52.797272 74.922012 -0.43695766
52.927868 74.794685 0
42.237534 85.217148 0.84883589
58.131222 69.707901 -0.90680361
56.545971 71.249702 -0.86675668
53.338501 74.369247 -0.82884872
52.79525 74.897606 -0.43652266
52.937229 74.759521 0
42.21191 85.190834 0.84883589
58.146206 69.679581 -0.90342736
56.537216 71.240685 -0.86675668
53.325977 74.356361 -0.82884872
52.797009 74.869583 -0.43594208
52.942909 74.728027 0
42.201241 85.150017 0.84825534
58.143009 69.668961 -0.90286285
56.524788 71.235229 -0.86718422
53.33577 74.321877 -0.82711953
52.79509 74.845192 -0.43550655
52.937428 74.707428 0
42.160767 85.138123 0.84883589
58.12154 69.676003 -0.90511441
56.519741 71.222633 -0.86675668
53.300983 74.330536 -0.82884872
52.800682 74.813599 -0.43478099
52.939476 74.679588 0
42.112816 85.133369 0.84970641
58.121998 69.66185 -0.90398973
56.518421 71.206459 -0.86589992
53.295952 74.310425 -0.8282727
52.791378 74.796448 -0.43463543
52.937832 74.65538 0
42.027409 85.164597 0.85202867
58.122498 69.647697 -0.90286285
56.498611 71.208084 -0.86718422
53.287228 74.293907 -0.82798469
52.793316 74.768509 -0.43405542
52.928711 74.638405 0
41.968128 85.170433 0.85333478
58.126671 69.630051 -0.90117586
56.497311 71.191917 -0.86632913
53.286003 74.27021 -0.82711953
52.795319 74.74057 -0.43347487
52.930897 74.610611 0
41.882538 85.201332 0.85565704
58.134567 69.608902 -0.89892429
56.484921 71.186394 -0.86675668
53.273602 74.257256 -0.82711953
52.782349 74.727028 -0.43347487
52.933132 74.58284 0
41.819382 85.210503 0.85710812
58.120445 69.608818 -0.90004897
56.4911 71.163132 -0.86504477
53.261215 74.244293 -0.82711953
52.795723 74.688347 -0.43245876
52.912827 74.576637 0
41.759933 85.215973 0.85841423
58.113674 69.601707 -0.90004897
56.501045 71.13636 -0.86290538
53.260094 74.220604 -0.82625437
52.775291 74.681961 -0.43274873
52.933987 74.530945 0
41.692902 85.228493 0.86001092
58.11797 69.584091 -0.89835978
56.481266 71.137886 -0.86418802
53.247749 74.207619 -0.82625437
52.785 74.646927 -0.43187818
52.925041 74.513985 0
41.655952 85.212265 0.86044645
58.096466 69.590958 -0.90061134
56.480095 71.121742 -0.86333293
53.220398 74.208847 -0.82740754
52.791008 74.615509 -0.43115264
52.931236 74.482704 0
41.600166 85.213821 0.86160702
58.082321 69.590805 -0.90173817
56.486423 71.098549 -0.86162108
53.21183 74.192268 -0.82711953
52.781963 74.598389 -0.43100762
52.929932 74.458595 0
41.555653 85.204597 0.86233318
58.10146 69.55925 -0.89779747
56.477852 71.089462 -0.86162108
53.192001 74.18631 -0.82769555
52.784294 74.570572 -0.43042707
52.928658 74.434509 0
41.503586 85.2024 0.86334872
58.076241 69.569519 -0.90061134
56.446857 71.101463 -0.86418802
53.175919 74.176804 -0.82798469
52.779106 74.549881 -0.43013653
52.919861 74.417549 0
41.443909 85.207237 0.86465484
58.07692 69.555412 -0.89948666
56.445763 71.08532 -0.86333293
53.159863 74.167252 -0.8282727
52.792908 74.511429 -0.42912039
52.922466 74.389908 0
41.418301 85.17997 0.86465484
58.103603 69.517006 -0.89442122
56.440952 71.072678 -0.86290538
53.155148 74.147072 -0.82769555
52.787796 74.490784 -0.42883042
52.92131 74.36586 0
-0.27981567 124.1439 2.4584942
58.078003 69.534256 -0.89779747
56.43668 71.068115 -0.86290538
53.149017 74.140518 -0.82769555
52.800442 74.46627 -0.42810485
52.922665 74.352051 0
-0.25539398 124.04828 2.456172
58.078747 69.520172 -0.89667279
56.420643 71.065964 -0.86376047
53.136772 74.127396 -0.82769555
52.787804 74.452728 -0.42810485
52.925392 74.324463 0
-0.30889893 123.95288 2.4554465
58.072083 69.513016 -0.89667279
56.419624 71.049812 -0.86290538
53.135899 74.103706 -0.82683152
52.794205 74.421478 -0.42737928
52.916733 74.307526 0
10.878681 113.40326 2.026001
58.080326 69.49202 -0.89442122
56.418644 71.033661 -0.86204863
53.127502 74.087044 -0.82654238
52.79686 74.393799 -0.42679873
52.904285 74.294128 0
-0.22882843 123.58876 2.4468837
58.073692 69.484863 -0.89442122
56.406387 71.027977 -0.86247617
53.107719 74.080933 -0.82711953
52.788136 74.376709 -0.42665318
52.884224 74.287781 0
-0.26264954 123.47581 2.4454327
58.078274 69.467354 -0.89273202
56.416759 71.001389 -0.86033672
53.103157 74.060738 -0.82654238
52.787048 74.352592 -0.42621818
52.89856 74.249634 0
-0.21609497 123.28883 2.440933
58.026817 69.501511 -0.89948666
56.381866 71.016571 -0.86333293
53.09481 74.04406 -0.82625437
52.786018 74.328468 -0.42578262
52.886185 74.236214 0
-0.22270203 123.15135 2.4384658
58.068817 69.449593 -0.89216965
56.373394 71.007355 -0.86333293
53.078873 74.034378 -0.82654238
52.78503 74.304359 -0.42534706
52.889153 74.208694 0
-0.22142792 123.00691 2.4357085
58.050995 69.452728 -0.89385885
56.372509 70.991196 -0.86247617
53.078186 74.010696 -0.82567835
52.780243 74.283783 -0.42505705
52.888344 74.184708 0
-0.2122345 122.85553 2.4326608
58.040665 69.448959 -0.89442122
56.35648 70.988907 -0.86333293
53.073742 73.990501 -0.8251012
52.783165 74.256195 -0.4244765
52.891411 74.157219 0
-0.24878693 122.74634 2.4313548
58.045353 69.43148 -0.89273202
56.355637 70.97274 -0.86247617
53.061676 73.977295 -0.8251012
52.782303 74.232124 -0.42404094
52.882988 74.140289 0
-0.2390976 122.59512 2.4283068
58.038795 69.424278 -0.89273202
56.351009 70.960045 -0.86204863
53.041969 73.971039 -0.82567835
52.785324 74.204567 -0.42346039
52.882294 74.116333 0
-0.22529602 122.44052 2.4251142
58.032246 69.417076 -0.89273202
56.346405 70.94735 -0.86162108
53.04525 73.943886 -0.82452518
52.780693 74.184036 -0.42317039
52.893196 74.081909 0
-0.23044586 122.3035 2.422647
58.040771 69.396217 -0.89048046
56.334213 70.941544 -0.86204863
53.025581 73.937576 -0.8251012
52.776108 74.163483 -0.42287982
52.896454 74.054504 0
-0.19683838 122.13166 2.4187281
58.038021 69.385605 -0.88991815
56.329636 70.928833 -0.86162108
53.028938 73.910439 -0.82394803
52.775391 74.139473 -0.42244482
52.880455 74.044571 0
-0.22462463 122.01574 2.4171319
58.012646 69.395409 -0.89273202
56.332714 70.909248 -0.86033672
53.016972 73.897179 -0.82394803
52.790176 74.101547 -0.42142871
52.883793 74.017189 0
11.089794 111.67917 1.9891375
58.021248 69.37458 -0.89048046
56.347275 70.879395 -0.85776979
53.012707 73.876991 -0.82337201
52.781841 74.084526 -0.42128369
52.891048 73.986351 0
11.070862 111.58046 1.9876864
58.014759 69.367348 -0.89048046
56.319859 70.887276 -0.85990918
52.985374 73.877518 -0.82452518
52.785141 74.057083 -0.42070314
52.875118 73.976395 0
11.025021 111.50606 1.9872508
58.019646 69.349945 -0.88879126
56.323029 70.867714 -0.85862488
52.992722 73.846962 -0.823084
52.792358 74.026207 -0.41997761
52.886341 73.942131 0
10.890194 111.51131 1.9901536
57.990429 69.363022 -0.89216965
56.303238 70.868698 -0.85990918
52.984703 73.8302 -0.82279485
52.780251 74.012657 -0.41997761
52.874336 73.928696 0
7.3355789 114.5681 2.1210625
57.983952 69.355759 -0.89216965
56.294945 70.85939 -0.85990918
52.984413 73.806572 -0.82193083
52.795334 73.974899 -0.41896147
52.86623 73.911789 0
9.7120399 112.3296 2.0299194
58.015488 69.314735 -0.88653976
56.286663 70.850075 -0.85990918
52.960979 73.803551 -0.82279485
52.775528 73.968246 -0.41925147
52.873734 73.881035 0
9.6614494 112.25707 2.0296292
58.012871 69.304131 -0.88597739
56.289925 70.830536 -0.85862488
52.960747 73.779922 -0.82193083
52.786823 73.934006 -0.41838092
52.873478 73.857239 0
9.6459732 112.15347 2.0280325
57.986828 69.320724 -0.88935578
56.266563 70.842896 -0.86076593
52.970337 73.759544 -0.82077765
52.788601 73.920349 -0.41809091
52.883118 73.836716 0
9.6713715 112.07242 2.026001
57.991837 69.303368 -0.88766658
56.277557 70.816544 -0.85862488
52.962425 73.74279 -0.82048965
52.788315 73.896477 -0.41765535
52.875153 73.819824 0
9.4458008 112.1546 2.0322416
57.985432 69.296104 -0.88766658
56.253914 70.820786 -0.86033672
52.950661 73.729446 -0.82048965
52.79586 73.865753 -0.41692981
52.875004 73.796066 0
10.662991 110.96566 1.9847835
57.979034 69.288834 -0.88766658
56.230247 70.824974 -0.86204863
52.931149 73.722908 -0.82106566
52.772247 73.862488 -0.41736481
52.863174 73.782616 0
10.594563 110.91147 1.9852191
57.976467 69.278206 -0.88710427
56.218147 70.818954 -0.86247617
52.931084 73.699295 -0.8202005
52.779877 73.831787 -0.41663924
52.86311 73.758858 0
9.0331802 112.16545 2.0410948
57.977753 69.264229 -0.88597739
56.213776 70.806175 -0.86204863
52.923264 73.68251 -0.81991249
52.771915 73.814812 -0.41649425
52.863087 73.735115 0
9.0063248 112.07164 2.0399337
57.956078 69.270309 -0.88822895
56.221035 70.783264 -0.86033672
52.919365 73.662323 -0.81933647
52.783573 73.780739 -0.41562313
52.863091 73.711395 0
8.9835281 111.97443 2.0386276
57.96888 69.246323 -0.88541508
56.224457 70.763763 -0.85905409
52.923309 73.635353 -0.8181833
52.771763 73.767174 -0.41562313
52.859226 73.691093 0
8.984417 111.85674 2.0364504
57.962547 69.239037 -0.88541508
56.224052 70.747627 -0.85819733
52.907768 73.625351 -0.81847131
52.771732 73.743393 -0.41518813
52.855377 73.670807 0
9.3034286 111.46326 2.0225177
57.96006 69.228416 -0.88485271
56.21978 70.734863 -0.85776979
52.900055 73.608551 -0.8181833
52.767834 73.723007 -0.41489756
52.867321 73.636887 0
9.6861649 111.01622 2.006263
57.942219 69.231064 -0.88653976
56.242737 70.698616 -0.85434604
52.888451 73.595139 -0.8181833
52.767883 73.699249 -0.41446257
52.855686 73.623428 0
9.6726646 110.91319 2.0046663
57.924347 69.233696 -0.88822895
56.203529 70.716049 -0.85776979
52.88863 73.571571 -0.81731814
52.764053 73.678879 -0.41417202
52.851944 73.603172 0
9.667202 110.80342 2.0027797
57.906464 69.23629 -0.88991815
56.210995 70.693237 -0.85605788
52.884926 73.551392 -0.81674099
52.779961 73.641586 -0.41315588
52.85614 73.576126 0
9.579155 110.76484 2.0039408
57.905415 69.211639 -0.88822895
56.202656 70.667709 -0.85520113
52.873661 73.51442 -0.81587696
52.77644 73.597557 -0.41243035
52.852806 73.532257 0
9.3794174 110.70749 2.0071337
57.902985 69.200974 -0.88766658
56.198505 70.654961 -0.85477358
52.858238 73.504326 -0.81616497
52.772751 73.577255 -0.41214034
52.857136 73.505264 0
9.4020805 110.57401 2.0042315
57.904453 69.187012 -0.88653976
56.198284 70.638878 -0.85391849
52.858585 73.480797 -0.81529981
52.773064 73.553574 -0.41170478
52.857555 73.481674 0
9.2152519 110.61913 2.0090203
57.902061 69.176353 -0.88597739
56.16679 70.649376 -0.85648543
52.855019 73.46064 -0.81472379
52.765488 73.536636 -0.41155979
52.84214 73.471573 0
9.2540359 110.4722 2.0055375
57.888046 69.17556 -0.88710427
56.174435 70.626633 -0.85477358
52.839653 73.450508 -0.8150118
52.769836 73.509628 -0.41097921
52.850563 73.441269 0
9.2375908 110.37242 2.0040858
57.885693 69.164879 -0.88653976
56.162514 70.620483 -0.85520113
52.855907 73.413643 -0.81299347
52.770267 73.485985 -0.41054365
52.851097 73.417709 0
9.3959579 110.12515 1.9962492
57.883339 69.154221 -0.88597739
56.154522 70.611008 -0.85520113
52.832668 73.410172 -0.81385863
52.766754 73.465714 -0.41025367
52.855644 73.390808 0
9.4793625 109.94193 1.9911691
57.86544 69.156639 -0.88766658
56.142597 70.604836 -0.85563034
52.837147 73.383362 -0.81270546
52.775211 73.435417 -0.40952811
52.848289 73.373993 0
9.2965889 109.98302 1.9958136
57.87479 69.136162 -0.88541508
56.122829 70.605225 -0.85691303
52.825817 73.369865 -0.81270546
52.775768 73.411827 -0.40909255
52.840954 73.35717 0
8.8388863 110.25413 2.0104721
57.863903 69.138977 -0.88653976
56.130638 70.590584 -0.85563034
52.832058 73.353142 -0.8118403
52.758129 73.415062 -0.40952811
52.847279 73.340401 0
8.7711182 110.25416 2.0119231
57.849892 69.138084 -0.88766658
56.118744 70.584358 -0.85605788
52.81282 73.346283 -0.81241745
52.770699 73.38147 -0.40865698
52.839989 73.323578 0
8.7990189 110.11742 2.0088754
57.851501 69.12413 -0.88653976
56.142345 70.548538 -0.85263413
52.797562 73.336067 -0.81270546
52.771351 73.35791 -0.40822142
52.840733 73.300087 0
8.8790627 109.93758 2.0039408
57.84922 69.113457 -0.88597739
56.118649 70.55217 -0.85434604
52.81015 73.302689 -0.81097627
52.77203 73.334381 -0.40778643
52.841499 73.276627 0
8.8835297 109.82111 2.0017643
57.8274 69.118996 -0.88822895
56.138405 70.519691 -0.85134983
52.794941 73.292458 -0.81126428
52.764771 73.317482 -0.40764087
52.838318 73.256485 0
8.852211 109.73457 2.0008931
57.83297 69.101814 -0.88653976
56.130531 70.510193 -0.85134983
52.799664 73.265724 -0.81011111
52.76152 73.297279 -0.40735087
52.831146 73.239677 0
8.7769737 109.68446 2.0016186
57.803284 69.11377 -0.88991815
56.110786 70.510483 -0.85263413
52.784489 73.25547 -0.81039912
52.766327 73.270462 -0.40677032
52.836052 73.212921 0
0.060371399 116.76546 2.3152487
57.797108 69.106277 -0.88991815
56.110847 70.494423 -0.85177904
52.793282 73.225479 -0.80895793
52.763153 73.250282 -0.40648031
52.824928 73.199425 0
0.056835175 116.63863 2.313072
57.787022 69.102005 -0.89048046
56.099041 70.488144 -0.85220659
52.778145 73.21521 -0.80924594
52.760025 73.230095 -0.40618977
52.833927 73.169403 0
0.049495697 116.51516 2.3110404
57.80444 69.075172 -0.88710427
56.091209 70.478592 -0.85220659
52.783028 73.18853 -0.80809277
52.764961 73.203331 -0.40560919
52.826897 73.152596 0
0.022281647 116.4082 2.3097336
57.82193 69.048386 -0.88372588
56.075443 70.475525 -0.85306174
52.771935 73.174973 -0.80809277
52.761887 73.183182 -0.40531921
52.81987 73.135803 0
0.035453796 116.26839 2.3069766
57.804012 69.050552 -0.88541508
56.079552 70.456223 -0.85177904
52.760857 73.1614 -0.80809277
52.766914 73.156464 -0.40473863
52.82093 73.112427 0
0.032772064 116.1418 2.3047993
57.833397 69.014214 -0.88034964
56.067776 70.449883 -0.85220659
52.761822 73.138031 -0.80722874
52.763931 73.136314 -0.40444809
52.830132 73.082489 0
0.046413422 116.00219 2.302042
57.811558 69.019562 -0.8826012
56.071953 70.430588 -0.85092229
52.754818 73.121178 -0.8069396
52.764996 73.112923 -0.4040131
52.815113 73.072273 0
0.028026581 115.88886 2.3004453
57.801548 69.015274 -0.88316351
56.06419 70.421005 -0.85092229
52.755859 73.097832 -0.80607557
52.758045 73.096062 -0.40386751
52.820343 73.045654 0
0.05424881 115.73962 2.2972527
57.807362 68.998199 -0.88147432
56.052444 70.414627 -0.85134983
52.760975 73.071243 -0.8049224
52.755142 73.075951 -0.40357754
52.813484 73.028862 0
0.040306091 115.62315 2.2955108
57.793404 68.997093 -0.8826012
56.048695 70.401802 -0.85092229
52.74197 73.06414 -0.80549842
52.760376 73.049316 -0.40299696
52.810684 73.008812 0
0.038684845 115.49695 2.2933342
57.787369 68.989594 -0.8826012
56.032951 70.398628 -0.85177904
52.735058 73.047287 -0.80521041
52.753498 73.032478 -0.40285197
52.820091 72.978996 0
-0.055908203 115.44566 2.2944953
57.781345 68.982086 -0.8826012
56.025227 70.389 -0.85177904
52.736248 73.023964 -0.80434525
52.754761 73.009132 -0.40241641
52.813309 72.962227 0
8.7637596 108.25257 1.9766563
57.77533 68.974564 -0.8826012
56.025543 70.37294 -0.85092229
52.741516 72.997437 -0.80319208
52.760124 72.982559 -0.40183586
52.818756 72.935707 0
8.6453896 108.2377 1.978978
57.785217 68.954369 -0.88034964
56.013836 70.366501 -0.85134983
52.718513 72.9935 -0.80405724
52.757397 72.962502 -0.40154585
52.816113 72.915695 0
8.5919762 108.17078 1.978978
57.787197 68.940521 -0.87922281
56.010162 70.353653 -0.85092229
52.731941 72.960548 -0.80232805
52.758781 72.939201 -0.40111029
52.817574 72.892456 0
8.5182953 108.11998 1.9797041
57.777241 68.93618 -0.87978727
56.010529 70.337616 -0.8500672
52.737335 72.934067 -0.80117488
52.756142 72.919151 -0.40081975
52.810913 72.875702 0
8.3591766 108.13687 1.9834775
57.751358 68.94442 -0.8826012
56.018982 70.315216 -0.84835529
52.722496 72.92366 -0.80146289
52.761673 72.892654 -0.40023917
52.820599 72.846031 0
7.8657761 108.41786 1.9991513
57.736408 68.950104 -0.8842904
56.019207 70.307198 -0.84792608
52.725227 72.910423 -0.80088574
52.768524 72.876205 -0.39980417
52.819336 72.836052 0
7.5494728 108.61272 2.0094559
58.310337 68.485367 -0.99944437
57.714481 68.955101 -0.88653976
56.01965 70.291199 -0.84707099
52.730721 72.883987 -0.79973257
52.765976 72.856186 -0.39951363
52.82502 72.809647 0
7.4262314 108.59917 2.0119231
57.71648 68.941231 -0.88541508
55.995911 70.29425 -0.84878284
52.732182 72.860779 -0.79886854
52.767529 72.832977 -0.39907861
52.822571 72.789696 0
0.12578964 114.22934 2.2693875
57.702526 68.939896 -0.88653976
56.000435 70.275063 -0.84749854
52.721481 72.847153 -0.79886854
52.765049 72.812981 -0.39878806
52.816051 72.772972 0
0.18780518 114.05591 2.2650335
58.294117 68.464714 -0.99944437
57.700562 68.929153 -0.88597739
55.996895 70.26223 -0.84707099
52.723026 72.823952 -0.79800338
52.766689 72.789787 -0.3983525
52.813652 72.753044 0
0.10691071 113.99477 2.265759
57.714634 68.905914 -0.88316351
55.985291 70.255714 -0.84749854
52.716446 72.807144 -0.79771537
52.76017 72.773018 -0.39820752
52.811295 72.733109 0
0.15716171 113.8312 2.2618401
58.303135 68.435501 -0.9959842
57.692673 68.910797 -0.88541508
55.973694 70.249176 -0.84792608
52.718063 72.783966 -0.7968502
52.745483 72.762619 -0.3983525
52.813076 72.709991 0
0.14209366 113.71891 2.2602441
58.293819 68.431694 -0.99667573
57.690754 68.900063 -0.88485271
55.982368 70.226875 -0.84621423
52.715622 72.763985 -0.79627419
52.747204 72.739456 -0.39791751
52.802559 72.696465 0
0.13541794 113.60028 2.2583573
58.292431 68.421722 -0.9959842
57.692879 68.8862 -0.88372588
55.978905 70.214043 -0.84578669
52.713226 72.744003 -0.79569703
52.748981 72.716301 -0.39748195
52.81263 72.666992 0
6.7100601 108.38322 2.0239692
58.322823 68.387215 -0.98975545
57.711098 68.85994 -0.88034964
55.947018 70.22319 -0.84835529
52.706757 72.727196 -0.79540902
52.754906 72.689987 -0.3969014
52.806282 72.650291 0
6.6112518 108.34891 2.0255654
58.281761 68.407921 -0.9959842
57.709251 68.849236 -0.87978727
55.947647 70.207176 -0.84749854
52.704422 72.707222 -0.79483187
52.756767 72.666878 -0.39646584
52.799957 72.633583 0
6.5865059 108.25734 2.0245497
58.27644 68.401001 -0.9959842
57.711464 68.835434 -0.87866044
55.92387 70.209961 -0.84921044
