# .PCD v0.7 - Point Cloud Data file format
VERSION 0.7
FIELDS x y z
SIZE 4 4 4
TYPE F F F
COUNT 1 1 1
WIDTH 1705
HEIGHT 1
VIEWPOINT 0 0 0 1 0 0 0
POINTS 1705
DATA ascii
76.409218 55.434536 -0.84032393
79.698059 53.16441 -0.53271627
79.633728 53.208817 0
92.121803 44.588921 0.95431781
64 64 -0
64 64 -0
71.194374 59.046906 -0.96748054
73.261497 57.623756 -0.93728369
76.389732 55.47007 -0.83830559
79.719711 53.177486 -0.53300679
79.633911 53.236557 0
92.188049 44.593441 0.95576954
64 64 -0
64 64 -0
71.221313 59.04121 -0.97029656
73.264954 57.637867 -0.93685448
76.400024 55.48505 -0.83830559
79.724197 53.202377 -0.53271627
79.642601 53.258411 0
92.267166 44.589272 0.9576562
64 64 -0
64 64 -0
71.223099 59.052818 -0.96973205
73.298058 57.631653 -0.93942314
76.410309 55.500038 -0.83830559
79.732956 53.224319 -0.53257126
79.6427 53.286137 0
92.342049 44.588203 0.95939785
64 64 -0
64 64 -0
71.237473 59.055813 -0.97085893
73.305748 57.642895 -0.93942314
76.403481 55.526711 -0.83715242
79.711632 53.266788 -0.53141016
79.655632 53.305046 0
92.425552 44.581429 0.96142954
64 64 -0
64 64 -0
71.227859 59.068779 -0.96916974
73.292618 57.660091 -0.93771124
76.395775 55.542953 -0.83628726
79.713821 53.279209 -0.53126514
79.631989 53.335045 0
92.4888 44.563461 0.96317118
64 64 -0
64 64 -0
71.238007 59.074661 -0.96973205
73.296036 57.67421 -0.93728369
76.388878 55.56958 -0.83513409
79.705292 53.31282 -0.53053957
79.644867 53.353939 0
92.56382 44.562813 0.96491289
64 64 -0
64 64 -0
71.256569 59.074844 -0.97142124
73.273926 57.705631 -0.93428749
76.390503 55.590363 -0.83455807
79.700989 53.343479 -0.52995902
79.649094 53.3787 0
92.634567 44.565247 0.96650898
64 64 -0
64 64 -0
71.249886 59.092167 -0.96973205
73.311295 57.696693 -0.93728369
76.383522 55.616936 -0.8334049
79.692322 53.377033 -0.52923292
79.657608 53.400536 0
92.722588 44.556156 0.96868622
64 64 -0
64 64 -0
71.251602 59.103771 -0.96916974
73.306137 57.716568 -0.93599939
76.389359 55.6348 -0.83311689
79.705147 53.396004 -0.52923292
79.644531 53.436932 0
92.797745 44.555977 0.97042787
64 64 -0
64 64 -0
71.240654 59.12389 -0.96691817
73.322227 57.722088 -0.93685448
76.395157 55.652672 -0.83282775
79.713646 53.417885 -0.5290879
79.648643 53.461662 0
92.855705 44.567566 0.97158903
64 64 -0
64 64 -0
71.250755 59.129814 -0.96748054
73.325546 57.736217 -0.93642694
76.396652 55.67342 -0.83225173
79.709167 53.448471 -0.52850735
79.626801 53.503796 0
92.935242 44.564781 0.97347569
64 64 -0
64 64 -0
71.252419 59.141403 -0.96691817
73.345909 57.738914 -0.93771124
76.4067 55.688404 -0.83225173
79.704636 53.479031 -0.5279268
79.643806 53.519779 0
93.010498 44.565056 0.97521681
64 64 -0
64 64 -0
71.275185 59.138878 -0.96916974
73.374809 57.735954 -0.93985069
76.382324 55.726395 -0.82994539
79.713013 53.5009 -0.52778178
79.634819 53.553146 0
93.094467 44.5597 0.97724903
64 64 -0
64 64 -0
71.297966 59.136398 -0.97142124
73.378105 57.75013 -0.93942314
76.405235 55.73275 -0.83081055
79.712715 53.528542 -0.52734625
79.630112 53.583591 0
93.165497 44.563175 0.97884518
64 64 -0
64 64 -0
71.295387 59.150841 -0.97029656
73.364273 57.775673 -0.93728369
76.402283 55.75634 -0.82994539
79.70372 53.561916 -0.52662069
79.634003 53.608253 0
93.249557 44.558151 0.9808774
64 64 -0
64 64 -0
71.288528 59.168087 -0.96860737
73.371788 57.786991 -0.93728369
76.394989 55.782764 -0.82879221
79.69899 53.592384 -0.52604014
79.646553 53.627151 0
93.312012 44.567665 0.98218352
64 64 -0
64 64 -0
71.291687 59.191315 -0.96748054
73.39534 57.804012 -0.93813878
76.388908 55.829826 -0.82706302
79.711098 53.638927 -0.52560508
79.63681 53.68792 0
93.436966 44.587063 0.98479575
64 64 -0
64 64 -0
71.297493 59.200127 -0.96748054
73.407104 57.81255 -0.93856639
76.398773 55.844803 -0.82706302
79.710571 53.666489 -0.52516955
79.631866 53.718262 0
82.17643 52.044594 0.60759759
64 64 -0
64 64 -0
71.320282 59.1978 -0.96973205
73.410286 57.826733 -0.93813878
76.404297 55.862625 -0.82677501
79.701324 53.69973 -0.52444398
79.618172 53.75428 0
82.169136 52.080814 0.60687208
64 64 -0
64 64 -0
71.309074 59.217777 -0.96748054
73.430634 57.829674 -0.93942314
76.422768 55.871956 -0.82735103
79.692001 53.732944 -0.52371788
79.61747 53.781712 0
82.148735 52.125538 0.60571092
64 64 -0
64 64 -0
71.323364 59.221054 -0.96860737
73.420883 57.852295 -0.93771124
76.415253 55.898285 -0.82619786
79.691353 53.760426 -0.52328289
79.612366 53.811966 0
82.163071 52.147476 0.60571092
64 64 -0
64 64 -0
71.329132 59.229904 -0.96860737
73.458427 57.844078 -0.94070745
76.4207 55.916107 -0.82590985
79.708069 53.776562 -0.5234279
79.620308 53.833675 0
82.168678 52.175095 0.60542095
64 64 -0
64 64 -0
71.34906 59.223255 -0.97085893
73.453522 57.855392 -0.93985069
76.408234 55.934891 -0.82475668
79.692459 53.800209 -0.52270234
79.617714 53.848793 0
82.154037 52.200233 0.60469538
64 64 -0
64 64 -0
71.329231 59.24873 -0.96748054
73.452332 57.872402 -0.93899554
76.426643 55.944267 -0.8253327
79.678596 53.836147 -0.52183121
79.612511 53.878986 0
82.129036 52.247616 0.60338926
64 64 -0
64 64 -0
71.347778 59.24931 -0.96916974
73.455406 57.886623 -0.93856639
76.405975 55.978943 -0.8233155
79.682144 53.860737 -0.52154118
79.615982 53.903515 0
82.055939 52.325966 0.60048646
64 64 -0
64 64 -0
71.340691 59.266457 -0.96748054
73.445526 57.90918 -0.93685448
76.415657 55.993938 -0.8233155
79.676918 53.890957 -0.52096063
79.615044 53.930859 0
81.934631 52.435101 0.59598702
64 64 -0
64 64 -0
71.346405 59.27533 -0.96748054
73.465843 57.912266 -0.93813878
76.399208 56.025738 -0.82158518
79.684753 53.912716 -0.52081567
79.614075 53.958172 0
82.057861 52.386505 0.5996154
64 64 -0
64 64 -0
71.352112 59.28421 -0.96748054
73.477509 57.920937 -0.93856639
76.4132 56.037926 -0.82187432
79.670677 53.948517 -0.51994455
79.608673 53.988285 0
82.224991 52.310127 0.60469538
64 64 -0
64 64 -0
71.366371 59.287613 -0.96860737
73.480522 57.935158 -0.93813878
76.431519 56.047359 -0.82245034
79.687202 53.964649 -0.5200901
79.611984 54.012768 0
82.239105 52.332157 0.60469538
64 64 -0
70.064667 60.130657 -0.9923858
71.363487 59.301991 -0.96748054
73.509483 57.932812 -0.94027823
76.449829 56.056828 -0.82302636
79.694916 53.986416 -0.51994455
79.610886 54.040031 0
82.082321 52.463219 0.59903479
64 64 -0
64 64 -0
71.382019 59.302704 -0.96916974
73.512482 57.94706 -0.93985069
76.428879 56.091309 -0.82100916
79.689468 54.016548 -0.519364
79.600937 54.07288 0
81.350922 52.959339 0.57436252
64 64 -0
69.934219 60.234032 -0.96954775
71.396286 59.306175 -0.97029656
73.519791 57.958561 -0.93985069
76.429688 56.111881 -0.82043201
79.697136 54.038292 -0.51921898
79.612923 54.091736 0
81.342316 52.994232 0.57363695
64 64 -0
69.993874 60.206326 -0.97854519
71.38047 59.328712 -0.96748054
73.535767 57.964569 -0.94070745
76.430473 56.132435 -0.81985599
79.682823 54.073936 -0.5183484
79.607292 54.121742 0
81.351212 53.017975 0.57349193
64 64 -0
70.045113 60.184116 -0.986157
71.407608 59.324062 -0.97029656
73.534363 57.981583 -0.93985069
76.4356 56.150219 -0.81956798
79.668427 54.109543 -0.51747727
79.606026 54.148937 0
81.342499 53.052814 0.57276636
64 64 -0
70.020004 60.210129 -0.98131382
71.387436 59.349266 -0.96691817
73.537285 57.995842 -0.93942314
76.431938 56.173519 -0.81870282
79.667191 54.136784 -0.51704228
79.604698 54.176125 0
81.373306 53.062702 0.57334691
64 64 -0
70.06707 60.190727 -0.98823416
71.397354 59.355499 -0.96748054
73.527138 58.018288 -0.93771124
76.445763 56.185799 -0.81899083
79.683495 54.152962 -0.5171873
79.616554 54.194984 0
81.426117 53.058834 0.57465303
64 64 -0
70.041893 60.216705 -0.98338836
71.420189 59.353653 -0.96973205
73.551765 58.018906 -0.93942314
76.463974 56.195347 -0.81956798
79.682159 54.180195 -0.51675177
79.606339 54.227673 0
81.443726 53.077141 0.57479805
64 64 -0
70.003914 60.25058 -0.97646803
71.404251 59.376076 -0.96691817
73.558983 58.030453 -0.93942314
76.44706 56.22686 -0.81783766
79.676384 54.210159 -0.51617116
79.600479 54.257565 0
81.434875 53.111992 0.57407248
64 64 -0
70.012695 60.255188 -0.97715956
71.409828 59.385025 -0.96691817
73.561836 58.044716 -0.93899554
76.452057 56.244637 -0.81754965
79.674965 54.237354 -0.51573563
79.590149 54.290176 0
92.308029 46.369255 0.93138719
64 64 -0
70.030006 60.254509 -0.97923672
71.436981 59.380577 -0.96973205
73.586472 58.045441 -0.94070745
76.474609 56.251495 -0.81841481
79.686745 54.256302 -0.51573563
79.606293 54.306278 0
92.355789 46.387024 0.93225777
64 64 -0
70.087692 60.223774 -0.98823416
71.422493 59.39579 -0.96748054
73.568237 58.064774 -0.93856639
76.466095 56.26722 -0.81754965
79.670555 54.279476 -0.51501006
79.590034 54.329422 0
92.415009 46.374023 0.9338544
64 64 -0
69.994118 60.29184 -0.97231638
71.453995 59.388714 -0.97085893
73.592865 58.065533 -0.94027823
76.471031 56.285007 -0.81726164
79.677872 54.301147 -0.51486504
79.579575 54.361958 0
92.476059 46.383766 0.93516052
64 64 -0
70.002861 60.296452 -0.97300792
71.455238 59.400391 -0.97029656
73.595665 58.079823 -0.93985069
76.467133 56.308231 -0.81639647
79.663048 54.336468 -0.51399451
79.591209 54.380791 0
92.519432 46.404549 0.93588609
64 64 -0
70.045792 60.280045 -0.97923672
71.452126 59.414734 -0.96916974
73.602814 58.091423 -0.93985069
76.463196 56.331436 -0.81553131
79.665855 54.360851 -0.51370394
79.589523 54.407822 0
92.642479 46.376381 0.93922442
64 64 -0
70.0289 60.300472 -0.97577655
71.457657 59.42374 -0.96916974
73.588074 58.116451 -0.93771124
76.472458 56.3465 -0.81553131
79.6642 54.387947 -0.51326841
79.592216 54.432114 0
92.730179 46.370239 0.94140112
64 64 -0
70.003403 60.326096 -0.97093076
71.45018 59.440716 -0.96748054
73.60392 58.122688 -0.93856639
76.472878 56.366974 -0.81495529
79.671371 54.409588 -0.51312339
79.603767 54.450962 0
92.831261 46.356133 0.94401389
64 64 -0
70.07209 60.29414 -0.98131382
71.451347 59.452366 -0.96691817
73.606636 58.136967 -0.93813878
76.473251 56.387444 -0.81437814
79.656342 54.444771 -0.51225281
79.593086 54.483379 0
92.883598 46.37204 0.9450295
64 64 -0
70.076561 60.301479 -0.98131382
71.461174 59.458733 -0.96748054
73.609337 58.151245 -0.93771124
76.464767 56.41328 -0.81322497
79.663437 54.466393 -0.51210785
79.591225 54.510345 0
92.953712 46.377228 0.94662613
64 64 -0
70.098183 60.298412 -0.98408252
71.466652 59.467751 -0.96748054
73.629562 58.154869 -0.93899554
76.487198 56.420292 -0.81409013
79.67939 54.482635 -0.51225281
79.580437 54.542694 0
93.006088 46.393349 0.94764227
64 64 -0
70.046837 60.339569 -0.9750824
71.46344 59.482033 -0.96635586
73.645401 58.161194 -0.93985069
76.496346 56.435387 -0.81409013
79.673096 54.512352 -0.51167226
79.58741 54.56422 0
93.062889 46.406887 0.94880283
64 64 -0
70.12429 60.302788 -0.98685116
71.464546 59.493679 -0.96579349
73.652443 58.172852 -0.93985069
76.496628 56.455833 -0.81351411
79.671196 54.539356 -0.51123673
79.585426 54.591133 0
79.212769 54.816105 0.49628162
64 64 -0
70.06427 60.34901 -0.97646803
71.504814 59.481735 -0.97029656
73.655083 58.187164 -0.93942314
76.488007 56.481609 -0.81236094
79.660355 54.571697 -0.51051116
79.578949 54.620712 0
79.219406 54.837173 0.49613664
64 64 -0
70.060066 60.361511 -0.9750824
71.497192 59.498657 -0.96860737
73.666496 58.196198 -0.93985069
76.501511 56.494045 -0.81264895
79.653915 54.601326 -0.50993061
79.599197 54.634178 0
79.22155 54.860924 0.49584609
64 64 -0
70.077377 60.361103 -0.97715956
71.493896 59.512943 -0.96748054
73.660286 58.215797 -0.93856639
76.497253 56.517128 -0.81178379
79.660805 54.622917 -0.50978559
79.57032 54.677097 0
79.201378 54.898003 0.49483052
64 64 -0
70.055931 60.383877 -0.97300792
71.499313 59.522003 -0.96748054
73.676094 58.222202 -0.93942314
76.497414 56.537537 -0.81120777
79.649818 54.655167 -0.50906003
79.5905 54.690586 0
79.216827 54.913715 0.49497551
64 64 -0
70.086151 60.375801 -0.97715956
71.500359 59.533665 -0.96691817
73.665421 58.244408 -0.93771124
76.519737 56.544708 -0.8120718
79.661102 54.674084 -0.50906003
79.583847 54.720085 0
79.250114 54.918816 0.49570107
64 64 -0
70.125038 60.362659 -0.98269683
71.505753 59.542728 -0.96691817
73.68119 58.250851 -0.93856639
76.510963 56.570396 -0.81091976
79.667877 54.695675 -0.50891447
79.590584 54.741577 0
79.225327 54.958481 0.49453998
64 64 -0
70.168282 60.347057 -0.98892564
71.511131 59.551804 -0.96691817
73.688126 58.262554 -0.93856639
76.528824 56.580254 -0.81149578
79.665703 54.722549 -0.50847948
79.579369 54.773678 0
79.21389 54.99012 0.49381441
64 64 -0
70.062523 60.414635 -0.97162223
71.518188 59.553757 -0.96748054
73.691597 58.268406 -0.93856639
76.502136 56.606258 -0.80947745
79.662354 54.737312 -0.5081889
79.567017 54.79369 0
79.188011 55.017834 0.4927983
64 64 -0
70.105743 60.399025 -0.97785103
71.523552 59.562843 -0.96748054
73.720634 58.267075 -0.94070745
76.528885 56.610859 -0.81063062
79.646683 54.772079 -0.50731838
79.578133 54.812508 0
79.203346 55.033546 0.49294385
64 64 -0
70.092789 60.41658 -0.9750824
71.537682 59.56678 -0.96860737
73.705414 58.291843 -0.93856639
76.524437 56.633862 -0.80976659
79.648849 54.796265 -0.5070278
79.571274 54.841892 0
79.218643 55.04929 0.49308884
64 64 -0
70.136078 60.401089 -0.98131382
71.54303 59.575893 -0.96860737
73.725594 58.29578 -0.93985069
76.519936 56.656857 -0.80890143
79.64653 54.823059 -0.50659281
79.577843 54.863342 0
79.211517 55.078201 0.49250829
64 64 -0
70.097107 60.433846 -0.97439092
71.539589 59.590145 -0.96748054
73.732483 58.307537 -0.93985069
76.533264 56.66938 -0.80918944
79.639664 54.852467 -0.50601226
79.566414 54.895309 0
79.204338 55.107082 0.49192774
64 64 -0
70.127426 60.426041 -0.97854519
71.544914 59.599258 -0.96748054
73.730492 58.324471 -0.93899554
76.53318 56.689735 -0.80861342
79.646202 54.873997 -0.50586671
79.5774 54.914127 0
79.206085 55.130703 0.49163717
64 64 -0
70.110039 60.446068 -0.9750824
71.559021 59.603264 -0.96860737
73.724022 58.343979 -0.93771124
76.533058 56.710091 -0.80803627
79.648239 54.898132 -0.50557667
79.570374 54.943424 0
79.216797 55.149082 0.49163717
64 64 -0
70.105659 60.458485 -0.97369939
71.542351 59.625145 -0.96579349
73.739723 58.350586 -0.93856639
76.532913 56.730427 -0.80746025
79.645737 54.92487 -0.50514114
79.567795 54.970081 0
79.214005 55.175293 0.49120218
64 64 -0
70.127304 60.455814 -0.97646803
71.560814 59.626637 -0.96748054
73.733223 58.37006 -0.93728369
76.541687 56.745575 -0.80746025
79.647705 54.948982 -0.50485116
79.551651 55.004539 0
79.202171 55.206688 0.49047661
64 64 -0
70.131584 60.463223 -0.97646803
71.561691 59.638313 -0.96691817
73.762253 58.369003 -0.93942314
76.541473 56.765911 -0.8068831
79.645119 54.975685 -0.50441557
79.553497 55.028534 0
79.181267 55.243244 0.4894605
64 64 -0
70.166298 60.453117 -0.98131382
71.571358 59.64492 -0.96748054
73.764603 58.383362 -0.93899554
76.550209 56.781071 -0.8068831
79.656013 54.994598 -0.50441557
79.555298 55.052528 0
79.209854 55.251228 0.49004105
64 64 -0
70.161865 60.465569 -0.9799282
71.56781 59.659126 -0.96635586
73.766914 58.397724 -0.93856639
76.558922 56.796238 -0.8068831
79.657875 55.018688 -0.5041256
79.570625 55.068733 0
79.220413 55.269611 0.49004105
64 64 -0
70.144363 60.48547 -0.97646803
71.581863 59.663231 -0.96748054
73.778145 58.406975 -0.93899554
76.55864 56.816551 -0.80630708
79.650665 55.047935 -0.50354505
79.558815 55.100471 0
79.239967 55.282852 0.49033105
64 64 -0
70.144249 60.49538 -0.97577655
71.604752 59.662323 -0.96973205
73.780426 58.421345 -0.93856639
76.544853 56.844543 -0.8048659
79.634384 55.082306 -0.50267392
79.546944 55.132183 0
79.227921 55.314148 0.48960549
64 64 -0
70.21389 60.465603 -0.986157
71.587906 59.684078 -0.96691817
73.796097 58.428085 -0.93942314
76.557983 56.857151 -0.80515391
79.622559 55.114048 -0.50194836
79.557648 55.150974 0
79.224854 55.340263 0.48916996
64 64 -0
70.178879 60.495392 -0.9799282
71.593117 59.693249 -0.96691817
73.789413 58.447525 -0.93813878
76.548599 56.882538 -0.80400074
79.633286 55.132931 -0.50194836
79.554756 55.177475 0
79.221756 55.366352 0.48873493
64 64 -0
70.156914 60.517677 -0.97577655
71.598312 59.702427 -0.96691817
73.79612 58.459358 -0.93813878
76.566193 56.89262 -0.80457675
79.639473 55.154385 -0.50180334
79.551811 55.203964 0
79.227638 55.387314 0.48858938
64 64 -0
70.196083 60.505402 -0.98131382
71.607925 59.709118 -0.96748054
73.807274 58.468681 -0.93856639
76.556747 56.917973 -0.80342358
79.600349 55.201374 -0.50020665
79.557899 55.225319 0
79.224464 55.413372 0.48815438
64 64 -0
70.244026 60.488297 -0.98823416
71.599831 59.725777 -0.96579349
73.805008 58.485561 -0.93771124
76.569817 56.930607 -0.80371273
79.579277 55.238056 -0.49919111
79.545807 55.256878 0
79.207642 55.447067 0.48728326
64 64 -0
70.189278 60.52401 -0.97923672
71.602409 59.73037 -0.96579349
73.826248 58.48143 -0.93942314
76.565056 56.943272 -0.80313557
79.589096 55.244926 -0.49933612
79.546539 55.268829 0
79.194687 55.466434 0.48670271
64 64 -0
70.237244 60.506977 -0.986157
71.598686 59.74453 -0.96466666
73.814987 58.503342 -0.93771124
76.578079 56.955936 -0.80342358
79.604195 55.26123 -0.49948111
79.552536 55.290161 0
79.209534 55.482254 0.48684826
64 64 -0
70.193062 60.551353 -0.97785103
71.64447 59.743126 -0.96916974
73.841705 58.519581 -0.93899554
76.58152 56.993896 -0.80255955
79.611641 55.306557 -0.49904555
79.541702 55.345497 0
79.234604 55.516506 0.48699325
64 64 -0
70.192841 60.561272 -0.97715956
71.631836 59.762234 -0.96691817
73.843819 58.533978 -0.93856639
76.580925 57.01413 -0.8019824
79.599419 55.338036 -0.49832001
79.561264 55.359226 0
79.235748 55.53997 0.48670271
64 64 -0
70.232109 60.549316 -0.98269683
71.650291 59.764072 -0.96860737
73.850418 58.545876 -0.93856639
76.580315 57.034344 -0.80140638
79.59623 55.364449 -0.49788445
79.553474 55.388119 0
79.236877 55.563416 0.4864127
64 64 -0
70.196739 60.578671 -0.97646803
71.6465 59.778236 -0.96748054
73.83902 58.567707 -0.93685448
76.588722 57.049549 -0.80140638
79.593018 55.390827 -0.49744946
79.56842 55.404404 0
79.18792 55.614487 0.48452604
64 64 -0
70.236038 60.566803 -0.98200536
71.633789 59.797283 -0.96522897
73.845573 58.579601 -0.93685448
76.592567 57.067268 -0.80111724
79.598846 55.412186 -0.49730387
79.565109 55.430756 0
79.193497 55.635349 0.48438105
64 64 -0
70.235786 60.576752 -0.98131382
71.652229 59.799171 -0.96691817
73.86113 58.586555 -0.93771124
76.600937 57.082489 -0.80111724
79.60466 55.43354 -0.49715889
79.575455 55.44957 0
79.217247 55.646217 0.48481604
64 64 -0
70.200294 60.60598 -0.9750824
71.670677 59.801098 -0.96860737
73.876663 58.593548 -0.93856639
76.613831 57.09523 -0.80140638
79.601334 55.459881 -0.49672389
79.567513 55.478394 0
79.204536 55.677086 0.48409048
64 64 -0
70.248436 60.589432 -0.98200536
71.666809 59.815243 -0.96748054
73.892204 58.600563 -0.93942314
76.594917 57.125351 -0.79967606
79.620758 55.473763 -0.4970139
79.564102 55.504684 0
79.200897 55.702934 0.48365492
64 64 -0
70.234924 60.606579 -0.97923672
71.694191 59.812355 -0.97029656
73.903229 58.610065 -0.93985069
76.607773 57.138092 -0.7999652
79.603668 55.507545 -0.49614334
79.556076 55.533447 0
79.210907 55.721306 0.48365492
64 64 -0
70.203743 60.633259 -0.97369939
71.685844 59.82893 -0.96860737
73.905228 58.624481 -0.93942314
76.606949 57.158272 -0.79938805
79.59565 55.53632 -0.49556276
79.561722 55.554733 0
79.198067 55.752087 0.48292935
64 64 -0
70.234276 60.626434 -0.97785103
71.69088 59.838219 -0.96860737
73.916229 58.634014 -0.93985069
76.610664 57.175968 -0.79910004
79.59671 55.560123 -0.49527222
79.567322 55.576027 0
79.185173 55.782822 0.48220381
64 64 -0
70.251602 60.62682 -0.9799282
71.686951 59.852348 -0.96748054
73.91819 58.648438 -0.93942314
76.614349 57.193665 -0.79881203
79.597763 55.583904 -0.49498221
79.568336 55.599781 0
79.181366 55.808578 0.48176825
64 64 -0
70.268929 60.627243 -0.98200536
71.691956 59.861637 -0.96748054
73.929169 58.657993 -0.93985069
76.581551 57.23098 -0.79621655
79.594185 55.610146 -0.49454665
79.555565 55.630928 0
79.191254 55.826927 0.48176825
64 64 -0
70.255318 60.644306 -0.97923672
71.714859 59.861328 -0.96973205
73.944672 58.665138 -0.94070745
76.607956 57.236404 -0.79736972
79.595146 55.633915 -0.49425611
79.565666 55.649727 0
79.187393 55.852654 0.48133326
64 64 -0
70.223969 60.670799 -0.97369939
71.701935 59.880238 -0.96748054
73.923935 58.691689 -0.93813878
76.60701 57.256519 -0.7967937
79.586929 55.66256 -0.4936761
79.571136 55.671005 0
79.21096 55.863663 0.48176825
64 64 -0
70.301216 60.634377 -0.98546547
71.704422 59.884892 -0.96748054
73.954323 58.68317 -0.94070745
76.606522 57.266571 -0.79650569
79.614876 55.659737 -0.49440166
79.54863 55.695122 0
79.206711 55.877747 0.48147824
64 64 -0
70.269844 60.660862 -0.9799282
71.722847 59.887035 -0.96916974
73.965263 58.692791 -0.94113499
76.623772 57.276951 -0.79708171
79.597412 55.693272 -0.49353054
79.531097 55.728592 0
79.193588 55.90834 0.48075268
64 64 -0
70.256149 60.677853 -0.97715956
71.723328 59.89875 -0.96860737
73.96714 58.707241 -0.94070745
76.622757 57.297054 -0.79650569
79.607437 55.712128 -0.49353054
79.554855 55.740047 0
79.180389 55.938896 0.48002657
64 64 -0
70.273468 60.678368 -0.97923672
71.750732 59.896202 -0.97142124
73.987129 58.71209 -0.94199008
76.626259 57.314739 -0.79621655
79.617439 55.730991 -0.49353054
79.546425 55.768593 0
79.180939 55.962105 0.47973657
64 64 -0
70.259727 60.69532 -0.97646803
71.733215 59.917427 -0.96860737
74.002602 58.71936 -0.94284683
76.611458 57.342075 -0.79477537
79.613647 55.757137 -0.49309555
79.533356 55.79953 0
79.195236 55.978031 0.47988158
64 64 -0
70.290352 60.688869 -0.98061967
71.756134 59.917309 -0.97085893
74.004433 58.733841 -0.94241929
76.628662 57.352493 -0.79535252
79.600586 55.78812 -0.49236941
79.543251 55.818306 0
79.232513 55.981869 0.48075268
64 64 -0
70.258804 60.715126 -0.9750824
71.747559 59.933769 -0.96916974
74.010788 58.745934 -0.94241929
76.636681 57.36776 -0.79535252
79.610504 55.806976 -0.49236941
79.543915 55.841923 0
79.223785 56.009941 0.48017213
64 64 -0
70.280548 60.713387 -0.97785103
71.765976 59.936062 -0.97085893
74.012573 58.760418 -0.94199008
76.603439 57.404617 -0.79275817
79.601974 55.835484 -0.49178886
79.572205 55.851059 0
79.219612 56.035572 0.47973657
64 64 -0
70.346802 60.68848 -0.98754263
71.743835 59.959557 -0.96748054
74.01889 58.772522 -0.94199008
76.638908 57.405495 -0.79448736
79.593414 55.863949 -0.49120885
79.568192 55.877106 0
79.206192 56.065987 0.47901103
64 64 -0
70.292938 60.72625 -0.97854519
71.762245 59.96188 -0.96916974
74.020653 58.786999 -0.94156253
76.623924 57.432709 -0.79304618
79.59861 55.885201 -0.4910633
79.559525 55.905533 0
79.206535 56.089165 0.47872046
64 64 -0
70.305786 60.72924 -0.9799282
71.776146 59.966579 -0.97029656
74.036072 58.794376 -0.94241929
76.613487 57.457493 -0.79189301
79.608398 55.904053 -0.4910633
79.564682 55.926735 0
79.197632 56.117119 0.47813991
64 64 -0
70.318657 60.73225 -0.98131382
71.758438 59.987656 -0.96748054
74.019531 58.818306 -0.94027823
76.630562 57.467991 -0.79246902
79.599709 55.932468 -0.49048275
79.560547 55.952721 0
79.211777 56.133091 0.47828546
64 64 -0
70.327057 60.737587 -0.98200536
71.758766 59.999359 -0.96691817
74.053177 58.816296 -0.94284683
76.63385 57.485626 -0.79218102
79.60022 55.956085 -0.49019274
79.547134 55.983452 0
79.19355 56.165771 0.47741434
64 64 -0
70.295296 60.763588 -0.97646803
71.763596 60.008736 -0.96691817
74.059433 58.828445 -0.94284683
76.650925 57.496162 -0.79275817
79.605309 55.977314 -0.49004775
79.566063 55.99749 0
79.216873 56.177006 0.4778499
64 64 -0
70.29026 60.77578 -0.9750824
71.754837 60.025078 -0.96522897
64 64 -0
76.626541 57.527969 -0.79073983
79.61499 55.996174 -0.49004775
79.575722 56.016304 0
79.207817 56.20488 0.47726935
64 64 -0
70.312027 60.77425 -0.97785103
71.773216 60.027512 -0.96691817
74.081039 58.848103 -0.94370198
76.648178 57.536167 -0.791605
79.601501 56.026878 -0.48932165
79.566818 56.044605 0
79.286644 56.187786 0.47944656
64 64 -0
70.333801 60.772766 -0.98061967
71.800644 60.025372 -0.96973205
74.096413 58.855621 -0.94455874
76.623711 57.567898 -0.78958666
79.597244 56.052807 -0.48888662
79.571785 56.065781 0
79.27755 56.215698 0.47886601
64 64 -0
70.346649 60.775871 -0.98200536
71.787315 60.044006 -0.96748054
74.070572 58.884106 -0.94156253
76.654533 57.571442 -0.79102784
79.592926 56.078724 -0.48845106
79.567429 56.091675 0
79.263763 56.245941 0.47813991
64 64 -0
70.328163 60.794876 -0.97854519
71.787567 60.055714 -0.96691817
74.085915 58.891632 -0.94241929
76.643829 57.596088 -0.78987467
79.588577 56.104618 -0.48801553
79.576973 56.110493 0
79.236053 56.283165 0.47697935
64 64 -0
70.379341 60.7738 -0.986157
71.794479 60.058128 -0.96748054
74.084412 58.900051 -0.94199008
76.633858 57.610725 -0.78901064
79.597992 56.111683 -0.48816109
79.567818 56.126945 0
79.208244 56.308792 0.47596323
64 64 -0
70.333961 60.806351 -0.97854519
71.794701 60.069836 -0.96691817
74.099739 58.907612 -0.94284683
76.646187 57.623669 -0.78929865
79.59359 56.137558 -0.48772553
79.558731 56.155136 0
79.203598 56.334194 0.47552767
64 64 -0
70.3423 60.811756 -0.97923672
71.822144 60.067848 -0.96973205
74.115051 58.915211 -0.94370198
76.64463 57.643604 -0.7887215
79.603073 56.156406 -0.48772553
79.558884 56.178619 0
79.180344 56.368912 0.47451156
64 64 -0
70.382034 60.801437 -0.98477399
71.81781 60.081852 -0.96860737
74.121185 58.927437 -0.94370198
76.643059 57.663517 -0.78814548
79.598602 56.182255 -0.48728997
79.559029 56.202087 0
79.189552 56.38726 0.47451156
64 64 -0
70.358955 60.822613 -0.98061967
71.82254 60.091301 -0.96860737
74.122719 58.941963 -0.94327444
76.655327 57.676491 -0.78843349
79.589439 56.2104 -0.48670942
79.535843 56.237179 0
79.161568 56.424194 0.473351
64 64 -0
70.322372 60.85043 -0.97439092
71.818146 60.105289 -0.96748054
74.133415 58.951912 -0.94370198
76.662964 57.691788 -0.78843349
79.580231 56.23851 -0.48612884
79.493973 56.281479 0
79.175354 56.440205 0.47349599
64 64 -0
70.371117 60.835751 -0.98131382
71.845619 60.103432 -0.97029656
74.157898 58.955025 -0.94541383
76.628883 57.727798 -0.78583914
79.529099 56.287392 -0.48424217
79.428703 56.33725 0
79.212395 56.444679 0.47436655
64 64 -0
70.347946 60.856812 -0.97715956
71.841202 60.117428 -0.96916974
74.163986 58.9673 -0.94541383
76.654999 57.733879 -0.78699231
79.426636 56.361504 -0.48075882
79.335342 56.406708 0
79.207558 56.469978 0.47393155
64 64 -0
70.365242 60.857819 -0.97923672
71.845886 60.126907 -0.96916974
74.165466 58.981857 -0.94498628
76.657921 57.751465 -0.7867043
79.375275 56.410053 -0.47887215
79.335159 56.429855 0
79.20266 56.495262 0.47349599
64 64 -0
70.36454 60.867729 -0.97854519
71.836884 60.143124 -0.96748054
74.148491 59.005478 -0.94284683
76.651535 57.773617 -0.78583914
79.389107 56.426334 -0.4790177
79.311623 56.46447 0
79.225708 56.506752 0.47393155
64 64 -0
70.350304 60.884262 -0.97577655
71.868919 60.13916 -0.97085893
74.168335 59.010963 -0.94412953
76.654411 57.791187 -0.78555113
79.398247 56.444935 -0.4790177
79.344078 56.471516 0
79.206749 56.538895 0.47306043
64 64 -0
70.390121 60.874298 -0.98131382
71.869019 60.150902 -0.97029656
74.183586 59.018738 -0.94498628
76.652603 57.811031 -0.78497398
79.444717 56.445278 -0.48017883
79.367172 56.483208 0
79.164413 56.582386 0.47146431
64 64 -0
70.420944 60.868832 -0.98546547
71.864517 60.164871 -0.96916974
74.194214 59.028797 -0.94541383
76.664711 57.824059 -0.78526199
79.505203 56.438896 -0.48177493
79.479179 56.451588 0
79.17337 56.600716 0.47146431
64 64 -0
70.379608 60.898525 -0.97854519
71.855431 60.181046 -0.96748054
74.190979 59.045605 -0.94455874
76.662872 57.843884 -0.78468597
79.584435 56.423553 -0.48395216
79.507011 56.461193 0
79.205666 56.607697 0.47218987
64 64 -0
70.342712 60.92593 -0.97231638
71.892052 60.175022 -0.97142124
74.19696 59.057922 -0.94455874
76.670303 57.859192 -0.78468597
79.602921 56.437859 -0.48424217
79.539528 56.468586 0
79.247307 56.610214 0.47320545
64 64 -0
70.396111 60.909592 -0.9799282
71.892097 60.186771 -0.97085893
74.216782 59.063553 -0.94584137
76.659081 57.883507 -0.7835328
79.612053 56.456718 -0.48424217
79.553299 56.485107 0
64 64 0
69.376656 61.410168 -0.98389882
70.395325 60.919495 -0.97923672
71.882965 60.202927 -0.96916974
74.204239 59.084812 -0.94412953
76.666458 57.898808 -0.7835328
79.597748 56.486862 -0.4835166
79.552994 56.508419 0
79.522621 56.523048 0.4811877
64 64 -0
70.42617 60.9142 -0.98338836
71.869217 60.221252 -0.96691817
74.228683 59.088257 -0.94584137
76.655174 57.923073 -0.78237963
79.602135 56.507961 -0.48337162
79.566727 56.524967 0
79.611282 56.503571 0.48365492
64 64 -0
70.411789 60.93063 -0.98061967
71.892113 60.221989 -0.96916974
74.220726 59.107265 -0.94455874
76.671844 57.933899 -0.78295678
79.611176 56.526817 -0.48337162
79.617996 56.523556 0
79.695328 56.486538 0.48597714
64 64 -0
70.406448 60.942699 -0.97923672
71.905853 60.227146 -0.97029656
74.226631 59.119617 -0.94455874
76.655807 57.960358 -0.78151447
79.643639 56.5345 -0.48409718
79.659904 56.526737 0
79.746597 56.485363 0.48728326
64 64 -0
70.462646 60.92067 -0.98754263
71.885185 60.242859 -0.96748054
74.238838 59.121384 -0.94541383
76.650124 57.972454 -0.78093845
79.676285 56.530544 -0.48496774
79.706696 56.516052 0
79.765213 56.488171 0.48771882
69.3862 61.441559 -0.98308462
70.430107 60.945702 -0.98200536
71.921852 60.237125 -0.97142124
74.226181 59.14257 -0.94370198
76.685425 57.97443 -0.78266764
79.727547 56.529423 -0.48627385
79.734535 56.526104 0
79.821213 56.484932 0.48916996
69.474159 61.407879 -0.99856663
70.420181 60.959919 -0.9799282
71.921806 60.248871 -0.97085893
74.227402 59.157127 -0.94327444
76.669327 58.000828 -0.78122646
79.788231 56.523968 -0.48787051
79.762375 56.536209 0
79.834991 56.501823 0.48931551
69.343185 61.477795 -0.97411925
70.423851 60.967678 -0.9799282
71.89875 60.271465 -0.96748054
74.261093 59.156342 -0.94584137
76.67189 58.018349 -0.78093845
79.825439 56.529743 -0.48874107
79.809021 56.537495 0
79.895721 56.496567 0.4909116
69.34623 61.484253 -0.97411925
70.4366 60.971169 -0.98131382
71.912453 60.27668 -0.96860737
74.262299 59.170929 -0.94541383
76.679108 58.033665 -0.78093845
79.886185 56.524529 -0.49033776
79.841583 56.545517 0
79.932999 56.502499 0.49178272
64 64 -0
70.43116 60.983212 -0.9799282
71.930756 60.27977 -0.97029656
74.272774 59.181152 -0.94584137
76.68631 58.048988 -0.78093845
79.923447 56.530483 -0.49120885
79.907112 56.538147 0
79.979691 56.504101 0.49294385
64 64 -0
70.434799 60.990986 -0.9799282
71.930626 60.291512 -0.96973205
74.292542 59.187042 -0.94712573
76.674744 58.073086 -0.77978528
79.941864 56.54533 -0.49149886
79.939705 56.546341 0
80.021675 56.508011 0.4939594
69.368759 61.497383 -0.97656488
70.470268 60.983921 -0.98477399
71.916679 60.309685 -0.96748054
74.279739 59.20816 -0.94541383
76.672516 58.092781 -0.77920812
79.979118 56.55143 -0.49236941
79.995865 56.543621 0
80.06369 56.512001 0.49497551
64 64 -0
70.432961 61.010769 -0.97854519
71.921135 60.319256 -0.96748054
74.276215 59.224907 -0.94455874
76.679642 58.108097 -0.77920812
80.011681 56.559784 -0.49309555
80.04734 56.543213 0
80.129288 56.505138 0.49671718
64 64 -0
70.490265 61.003193 -0.986157
71.93924 60.334145 -0.96860737
74.315689 59.236847 -0.94712573
76.689148 58.140923 -0.77892011
80.081505 56.574543 -0.49469167
80.122025 56.555832 0
80.208679 56.51582 0.49860388
69.439163 61.496494 -0.98715866
70.480217 61.017323 -0.98408252
71.948273 60.341618 -0.96916974
74.330772 59.245014 -0.94798249
76.691528 58.158421 -0.7786321
80.128227 56.576595 -0.49585277
80.183022 56.551376 0
80.222427 56.533237 0.49874887
69.379295 61.531921 -0.97575074
70.492928 61.020977 -0.98546547
71.938828 60.357582 -0.96748054
74.322502 59.263927 -0.94669813
76.703278 58.171604 -0.77892011
80.132469 56.598255 -0.49570778
80.215652 56.560085 0
80.207825 56.563679 0.4980233
69.47216 61.497314 -0.99204689
70.418961 61.064297 -0.97369939
71.943222 60.367176 -0.96748054
74.332886 59.274269 -0.94712573
76.68679 58.197716 -0.77747893
80.155579 56.611267 -0.49614334
80.229362 56.577522 0
80.103378 56.635143 0.49453998
64 64 -0
70.463585 61.053326 -0.9799282
71.966103 60.368347 -0.96973205
74.329254 59.291016 -0.94627059
76.698494 58.210903 -0.77776694
80.131393 56.645885 -0.4951272
80.271477 56.582024 0
79.965683 56.721428 0.49004105
69.30719 61.588253 -0.96107978
70.503685 61.044533 -0.98546547
71.951981 60.386383 -0.96748054
74.344276 59.299255 -0.94712573
76.696068 58.23053 -0.77719092
80.121346 56.673981 -0.49454665
80.067192 56.698589 0
80.031242 56.714924 0.49178272
64 64 -0
70.502686 61.054459 -0.98477399
71.974854 60.387608 -0.96973205
74.354614 59.309639 -0.94755328
76.717171 58.239468 -0.77805609
80.044983 56.732059 -0.49193442
80.090233 56.711563 0
80.262512 56.633526 0.49860388
69.475197 61.527855 -0.99041855
70.483383 61.072643 -0.98131382
71.983864 60.395149 -0.97029656
74.355606 59.324265 -0.94712573
76.719398 58.256973 -0.77776694
80.072701 56.742897 -0.49251497
80.056335 56.750286 0
80.451378 56.571918 0.50411886
69.433105 61.554756 -0.98227042
70.486916 61.080479 -0.98131382
72.002098 60.398548 -0.97198361
74.365921 59.334679 -0.94755328
76.721611 58.274467 -0.77747893
80.280487 56.672749 -0.49861056
80.278656 56.673573 0
80.555107 56.549152 0.50702113
69.412025 61.568176 -0.97819328
70.488678 61.084396 -0.98131382
71.99501 60.407543 -0.97085893
74.350006 59.349358 -0.94584137
76.706192 58.290634 -0.77632576
80.261192 56.693241 -0.49788445
80.548935 56.56395 0
64 64 0
69.39241 61.584816 -0.97411925
70.519661 61.079937 -0.98546547
71.980797 60.425514 -0.96860737
74.369682 59.355568 -0.94712573
76.703651 58.310215 -0.77574974
80.54509 56.589691 -0.50630224
64 64 0
80.634995 56.549427 0.50905335
69.417885 61.581261 -0.97819328
70.481949 61.106224 -0.97923672
72.017578 60.420666 -0.97254592
74.384674 59.363911 -0.94798249
76.70578 58.327686 -0.7754606
80.615723 56.58215 -0.5081889
80.70945 56.540306 0
80.610764 56.584362 0.50803721
69.45694 61.571732 -0.98471296
70.462524 61.124256 -0.97577655
71.98941 60.444813 -0.96860737
74.399635 59.372292 -0.94883758
76.693718 58.351456 -0.77430743
80.657913 56.58744 -0.50920504
80.666138 56.583778 0
80.543739 56.638245 0.50571501
69.541214 61.542248 -0.99938393
70.502693 61.115791 -0.98131382
72.007645 60.448288 -0.97029656
74.391136 59.391109 -0.94755328
76.710007 58.362598 -0.77488458
80.714355 56.586506 -0.51065618
80.703621 56.591267 0
83.730606 55.248672 0.60280871
69.3769 61.622898 -0.96923101
70.533699 61.111485 -0.98546547
72.007263 60.460026 -0.96973205
74.387314 59.407814 -0.94669813
76.716805 58.37796 -0.77488458
80.747055 56.596203 -0.51138175
80.669724 56.630394 0
83.755417 55.26622 0.60324371
69.465706 61.59153 -0.98471296
70.491272 61.13961 -0.97854519
72.002243 60.473797 -0.96860737
74.388161 59.42244 -0.94627059
76.728317 58.391247 -0.77517259
80.665649 56.656254 -0.50862449
80.550026 56.707203 0
83.756454 55.294289 0.60295373
69.450508 61.606087 -0.98145312
70.563622 61.117195 -0.98892564
72.015793 60.479385 -0.96973205
74.398384 59.43293 -0.94669813
76.739815 58.404552 -0.7754606
80.507988 56.749535 -0.50354505
103.42776 46.682953 0
83.743172 55.328613 0.60222816
69.494164 61.594826 -0.98879015
70.475174 61.165371 -0.9750824
72.015396 60.491112 -0.96916974
74.427406 59.435207 -0.94883758
76.713409 58.434464 -0.7734434
88.771378 53.155865 -0.75520378
103.48204 46.715988 0
80.692657 56.692474 0.50890833
69.4291 61.631123 -0.97656488
70.519997 61.155132 -0.98131382
72.014977 60.502827 -0.96860737
74.428215 59.44986 -0.94841003
76.734337 58.44363 -0.77430743
80.639763 56.739578 -0.5070278
103.45042 46.786606 0
80.69194 56.716808 0.50861782
69.558884 61.582485 -0.99938393
70.505028 61.171017 -0.97854519
72.061134 60.494278 -0.97367281
74.429001 59.464508 -0.94798249
76.745796 58.456951 -0.77459657
88.86422 53.186745 -0.75723547
103.41868 46.857124 0
83.745872 55.412674 0.60135704
69.462013 61.632458 -0.98145312
70.526855 61.170895 -0.98131382
72.032715 60.518169 -0.96973205
74.443886 59.473034 -0.94883758
76.723999 58.484703 -0.77286625
88.862961 53.223 -0.75679988
103.37728 46.931679 0
83.746704 55.44067 0.60106707
69.478485 61.633175 -0.98389882
70.562492 61.16486 -0.986157
72.046257 60.523842 -0.97085893
74.439926 59.489727 -0.94798249
76.716423 58.506233 -0.77200222
88.809181 53.281898 -0.75476819
80.741028 56.767517 0
83.766563 55.460419 0.60135704
69.481346 61.639797 -0.98389882
70.538277 61.184696 -0.98200536
72.064445 60.527542 -0.97254592
74.454796 59.498287 -0.94883758
76.713539 58.525696 -0.77142507
88.831665 53.30777 -0.75505877
80.711502 56.804218 0
83.776871 55.484306 0.60135704
69.466019 61.654221 -0.98063892
70.523232 61.200512 -0.97923672
72.054634 60.543297 -0.97085893
74.460228 59.510921 -0.94883758
76.715393 58.543098 -0.77113706
88.887543 53.31934 -0.75636488
80.696274 56.834679 0
81.06514 56.67638 0.5186317
69.400688 61.68998 -0.96841681
70.512764 61.214317 -0.97715956
72.044785 60.559029 -0.96916974
74.456207 59.527599 -0.94798249
76.72673 58.556435 -0.77142507
88.87175 53.361687 -0.75549376
103.41625 47.140614 0
81.059654 56.703129 0.5181967
69.462585 61.67131 -0.97901058
70.543823 61.210381 -0.98131382
72.048935 60.568752 -0.96916974
74.461609 59.540237 -0.94798249
76.719017 58.577904 -0.77055991
80.949165 56.774601 -0.51457506
103.41744 47.196419 0
83.783707 55.566242 0.60063148
69.497231 61.664387 -0.98471296
70.561035 61.212406 -0.98338836
72.048401 60.580467 -0.96860737
74.485886 59.544849 -0.94969434
76.754135 58.581139 -0.77229023
88.844788 53.444168 -0.75389767
103.45688 47.235916 0
83.746063 55.61047 0.59918034
69.477295 61.680664 -0.98063892
70.532066 61.234028 -0.97854519
72.057205 60.588215 -0.96916974
74.467613 59.567539 -0.94755328
76.75592 58.598568 -0.77200222
88.814461 53.492432 -0.75259155
103.47711 47.283607 0
83.77533 55.626228 0.59976095
69.437721 61.701298 -0.97330505
70.533737 61.237976 -0.97854519
72.059265 60.593082 -0.96916974
74.508118 59.557873 -0.95097703
76.763939 58.604263 -0.77229023
81.124069 56.761089 -0.51921898
81.084946 56.77763 0
83.732506 55.658417 0.59830928
69.481491 61.690598 -0.98063892
70.624908 61.208862 -0.99169427
72.063377 60.602821 -0.96916974
74.489822 59.580536 -0.94883758
76.74662 58.62973 -0.77084905
81.113647 56.789856 -0.51863843
81.09845 56.796261 0
81.266685 56.72538 0.52327621
69.447815 61.712532 -0.97411925
70.563522 61.244061 -0.98200536
72.072159 60.610603 -0.96973205
74.495163 59.593216 -0.94883758
76.753098 58.645134 -0.77084905
83.882187 55.651718 -0.6022343
102.89398 47.668907 0
81.304199 56.734184 0.52414674
69.541771 61.68095 -0.99041855
70.557579 61.255871 -0.98061967
72.076248 60.620358 -0.96973205
74.509956 59.601933 -0.94969434
76.773865 58.654564 -0.77171308
81.260468 56.777065 -0.52255732
102.91368 47.715916 0
83.724258 55.746052 0.59714812
69.494385 61.70858 -0.98145312
70.57016 61.25993 -0.98200536
72.089714 60.626205 -0.97085893
74.529465 59.608711 -0.95097703
76.775543 58.671989 -0.77142507
88.981537 53.581512 -0.75592935
102.96696 47.74892 0
83.753403 55.761887 0.59772867
69.492584 61.717117 -0.98063892
70.582726 61.264023 -0.98338836
72.093781 60.635983 -0.97085893
74.534767 59.621437 -0.95097703
76.767632 58.69339 -0.77055991
88.96051 53.625668 -0.75491321
103.16438 47.722115 0
83.720161 55.803711 0.59642255
69.536438 61.706734 -0.98797286
70.535049 61.293095 -0.97577655
72.083755 60.6516 -0.96916974
74.540047 59.634171 -0.95097703
76.778831 58.706837 -0.77084905
81.372955 56.803886 -0.52516955
103.22731 47.751514 0
81.588783 56.714485 0.53169399
69.520927 61.720966 -0.98471296
70.607864 61.272282 -0.986157
72.083099 60.663307 -0.96860737
74.53109 59.652779 -0.94969434
76.76609 58.730175 -0.76969588
81.415268 56.811001 -0.52618569
103.26134 47.792973 0
81.660019 56.709969 0.53358066
69.519112 61.729519 -0.98389882
70.61116 61.280266 -0.986157
72.09182 60.671146 -0.96916974
74.550568 59.659653 -0.95097703
76.767654 58.747578 -0.76940674
81.395096 56.843918 -0.52531457
103.33865 47.816658 0
81.659195 56.735268 0.53329009
69.48983 61.749317 -0.97819328
70.600525 61.293961 -0.98408252
72.091141 60.68285 -0.96860737
74.555801 59.672405 -0.95097703
76.783569 58.759079 -0.76998389
81.5047 56.823544 -0.52836233
103.33891 47.872101 0
81.768936 56.715218 0.53633791
69.510849 61.748474 -0.98145312
70.59449 61.30574 -0.98269683
72.12336 60.681103 -0.97198361
74.546783 59.690983 -0.94969434
76.780304 58.77845 -0.76940674
81.585526 56.815216 -0.53053957
103.41138 47.897991 0
81.777725 56.736691 0.53633791
69.508995 61.756996 -0.98063892
70.588455 61.31749 -0.98131382
72.122665 60.692833 -0.97142124
74.570984 59.695992 -0.95140457
76.777031 58.797791 -0.76883072
89.068756 53.793179 -0.75592935
103.52721 47.906376 0
81.906815 56.709187 0.53996623
69.520866 61.759933 -0.98227042
70.568436 61.334888 -0.97785103
72.103111 60.7122 -0.96860737
74.547638 59.720348 -0.94883758
76.797691 58.807396 -0.76969588
81.679871 56.826477 -0.53286123
103.55146 47.952187 0
81.97821 56.705429 0.54185295
69.546478 61.757343 -0.98634446
70.562355 61.346588 -0.97646803
72.125923 60.714375 -0.97085893
74.567085 59.727318 -0.95012188
76.794357 58.826748 -0.76911873
81.712631 56.8381 -0.53358734
103.60943 47.984379 0
81.934021 56.748581 0.5402568
69.489586 61.788063 -0.97575074
70.560905 61.356392 -0.97577655
72.115738 60.729897 -0.96916974
74.562706 59.743931 -0.94926512
76.795807 58.844143 -0.76883072
81.663422 56.882816 -0.53184569
103.66254 48.018639 0
82.082535 56.71394 0.54446512
69.556465 61.768913 -0.98715866
70.587372 61.354973 -0.97923672
72.143265 60.73024 -0.97198361
74.577377 59.752869 -0.95012188
76.797234 58.861534 -0.76854271
81.80703 56.849949 -0.53590906
103.76392 48.033607 0
82.1492 56.712559 0.54620683
69.513275 61.793991 -0.97901058
70.637138 61.344299 -0.986157
72.142494 60.741966 -0.97142124
74.577744 59.767555 -0.94969434
76.793816 58.880844 -0.76796556
81.87355 56.848305 -0.5376507
103.94748 48.015926 0
82.206253 56.715183 0.5476585
69.552666 61.786007 -0.98553032
70.593742 61.370903 -0.97923672
72.136993 60.755569 -0.97029656
74.582848 59.780342 -0.94969434
76.799988 58.896309 -0.76796556
89.243469 53.934769 -0.75897712
104.05863 48.027576 0
82.282616 56.710243 0.54969019
69.536964 61.800018 -0.98227042
70.629562 61.365898 -0.98408252
72.117279 60.774792 -0.96748054
74.568855 59.800716 -0.94798249
76.796547 58.915596 -0.76738954
81.963234 56.862732 -0.53982794
104.02469 48.097137 0
82.320374 56.720829 0.55056071
69.524506 61.808834 -0.97982478
70.589165 61.386559 -0.97785103
72.152298 60.766579 -0.97142124
74.595245 59.797638 -0.95012188
76.799614 58.923328 -0.76738954
82.015839 56.854431 -0.54127908
104.07783 48.10405 0
82.387589 56.706985 0.55244797
69.508759 61.822777 -0.97656488
70.620323 61.383453 -0.98200536
72.146759 60.780163 -0.97029656
74.590759 59.81422 -0.94926512
76.791298 58.944504 -0.76652437
81.966461 56.899124 -0.53953737
104.05828 48.167793 0
82.517189 56.681465 0.55607575
69.520576 61.825817 -0.97819328
70.572121 61.411682 -0.97439092
72.141174 60.793736 -0.96916974
74.614914 59.819496 -0.95097703
76.807037 58.956169 -0.76710153
82.110428 56.867519 -0.54360127
104.08224 48.214294 0
82.903168 56.555309 0.56739634
69.500191 61.841515 -0.97411925
70.603279 61.408623 -0.97854519
72.149765 60.801723 -0.96973205
74.624733 59.830452 -0.95140457
76.808289 58.973541 -0.76681238
82.167397 56.870426 -0.54505241
104.09158 48.266544 0
82.670273 56.673077 0.56013966
69.553444 61.828358 -0.98308462
70.63443 61.405643 -0.98269683
72.148895 60.813419 -0.96916974
74.624985 59.845161 -0.95097703
76.814354 58.989021 -0.76681238
82.238914 56.867779 -0.54693907
104.13966 48.303619 0
82.674286 56.697533 0.55999464
69.482368 61.863785 -0.97004515
70.586128 61.433704 -0.9750824
72.166954 60.817734 -0.97085893
74.610863 59.865456 -0.94926512
76.815582 59.006386 -0.76652437
82.315323 56.863403 -0.5489713
104.15373 48.354027 0
82.673401 56.723877 0.55970412
69.521812 61.856098 -0.97656488
70.654716 61.416233 -0.98477399
72.166061 60.829441 -0.97029656
74.634995 59.87085 -0.95097703
76.802322 59.029362 -0.7653712
83.748146 56.332573 -0.59163982
104.19688 48.393135 0
82.730629 56.727634 0.5611558
69.59816 61.834236 -0.98960435
70.606354 61.444195 -0.97715956
72.165131 60.841148 -0.96973205
74.620827 59.891113 -0.94926512
76.817978 59.0411 -0.76594836
82.637848 56.789558 -0.55811471
104.17201 48.458622 0
82.802406 56.725899 0.56304246
69.517761 61.873001 -0.97493654
70.623489 61.446762 -0.97923672
72.178436 60.847359 -0.97085893
74.625786 59.90395 -0.94926512
76.799812 59.065899 -0.76450604
82.92292 56.705547 -0.56638694
104.19563 48.505295 0
82.888771 56.718712 0.56536466
69.538765 61.872589 -0.97819328
70.631248 61.452969 -0.9799282
72.167999 60.862709 -0.96916974
74.611557 59.924152 -0.94755328
76.834747 59.070236 -0.76623636
83.547813 56.491783 -0.58481866
104.23861 48.544548 0
82.960617 56.717319 0.56725132
69.513641 61.889877 -0.97330505
70.629639 61.462776 -0.97923672
72.171783 60.872581 -0.96916974
74.635651 59.929638 -0.94926512
76.840698 59.085747 -0.76623636
82.96476 56.742012 -0.56711251
104.26212 48.59132 0
83.003365 56.727238 0.56826693
69.599319 61.864845 -0.98797286
70.632698 61.470787 -0.97923672
72.189812 60.877026 -0.97085893
74.659752 59.935177 -0.95097703
76.832115 59.1068 -0.7653712
83.318268 56.633472 -0.57741696
104.19803 48.671505 0
83.031563 56.742798 0.56884748
69.578789 61.880386 -0.98389882
70.640442 61.477024 -0.9799282
72.179321 60.892338 -0.96916974
74.664658 59.948059 -0.95097703
76.828362 59.125977 -0.76479518
83.409737 56.625443 -0.57988423
104.25545 48.705299 0
83.161758 56.719658 0.57247579
69.544365 61.901131 -0.97737908
70.685707 61.469063 -0.986157
72.197334 60.896824 -0.97085893
74.674339 59.959133 -0.95140457
76.853592 59.134155 -0.76594836
83.170769 56.742729 -0.57248253
104.28362 48.750267 0
83.209427 56.728096 0.57363695
69.607018 61.885155 -0.98797286
70.655914 61.489532 -0.98131382
72.196327 60.908524 -0.97029656
74.679214 59.972031 -0.95140457
76.859459 59.149693 -0.76594836
83.47612 56.654034 -0.58133531
104.33612 48.786095 0
83.28141 56.72747 0.57552361
69.530914 61.92149 -0.97411925
70.635445 61.506409 -0.97785103
72.21431 60.913071 -0.97198361
74.66967 59.990353 -0.95012188
76.850777 59.170692 -0.76508319
83.339043 56.732414 -0.57698143
104.37396 48.827518 0
83.382614 56.716038 0.5782814
69.554443 61.927952 -0.97737908
70.683777 61.506664 -0.98408252
72.221748 60.93293 -0.97198361
74.688942 60.012562 -0.95097703
76.838181 59.2108 -0.76364201
83.648682 56.670193 -0.58568925
104.42514 48.91967 0
83.497528 56.726578 0.58118361
69.617172 61.912277 -0.98797286
70.663254 61.523487 -0.98061967
72.220688 60.944637 -0.97142124
74.703384 60.0219 -0.95183378
76.853653 59.222717 -0.76421803
83.555252 56.731949 -0.58264202
104.43846 48.970341 0
83.491699 56.755569 0.58074862
69.554802 61.943096 -0.97656488
70.656837 61.535019 -0.97923672
72.214851 60.958099 -0.97029656
74.674477 60.047318 -0.94883758
76.849716 59.24184 -0.76364201
83.705322 56.703259 -0.58685035
83.644623 56.725735 0
83.398102 56.81702 0.57770085
69.579224 61.937885 -0.98063892
70.667732 61.535568 -0.98061967
72.230972 60.957783 -0.97198361
74.696121 60.046646 -0.95054942
76.876846 59.240639 -0.76508319
83.641495 56.740387 -0.58481866
83.536743 56.779102 0
83.509666 56.789108 0.58089364
69.604904 61.936089 -0.98471296
70.684837 61.538422 -0.98269683
72.215569 60.974754 -0.96973205
74.696083 60.061348 -0.95012188
76.868019 59.261566 -0.76421803
83.611237 56.778488 -0.58365756
83.608948 56.779335 0
105.27252 48.802086 1.2283273
69.547066 61.964993 -0.97411925
70.706642 61.539589 -0.98546547
72.228775 60.981178 -0.97085893
74.710464 60.07074 -0.95097703
76.893166 59.269993 -0.7653712
83.658981 56.787872 -0.58481866
83.48571 56.851437 0
105.32011 48.841232 1.2291977
69.572731 61.963215 -0.97819328
70.681351 61.558025 -0.98131382
72.237183 60.98938 -0.97142124
74.720016 60.081924 -0.95140457
76.87458 59.294453 -0.76393002
83.579834 56.843742 -0.58220643
83.553001 56.853546 0
105.4165 48.862625 1.2315201
69.612343 61.956421 -0.98471296
70.684296 61.566101 -0.98131382
72.240814 60.999336 -0.97142124
74.724747 60.094879 -0.95140457
76.885117 59.308243 -0.76421803
