# .PCD v0.7 - Point Cloud Data file format
VERSION 0.7
FIELDS x y z
SIZE 4 4 4
TYPE F F F
COUNT 1 1 1
WIDTH 1618
HEIGHT 1
VIEWPOINT 0 0 0 1 0 0 0
POINTS 1618
DATA ascii
54.27668 69.514984 -0.93180442
53.772179 69.801132 -0.6553061
53.753864 69.811523 -0.32897946
18.23428 89.957932 0
8.6382942 95.400688 1.777535
59.183197 66.724365 -0.91234469
58.283314 67.23333 -0.90600717
56.781197 68.082924 -0.91862363
54.278973 69.498169 -0.93094766
53.778687 69.781128 -0.65444094
53.760406 69.791466 -0.32854447
18.225597 89.889801 0
8.5144424 95.382385 1.7802927
59.166988 66.72583 -0.91479039
58.301258 67.214104 -0.90254706
56.776268 68.074196 -0.91862363
54.267849 69.488953 -0.93137681
53.762691 69.773865 -0.65501809
53.753418 69.779091 -0.32854447
43.413673 75.610725 0
8.5535126 95.271919 1.7778256
59.206776 66.695755 -0.90664226
58.275517 67.219505 -0.90600717
56.780201 68.060486 -0.91749895
54.252285 69.482216 -0.93223196
53.773758 69.751343 -0.65386492
53.764561 69.756516 -0.32796392
43.42234 75.57309 0
8.533886 95.19471 1.777245
59.225075 66.677879 -0.90256822
58.258499 67.219955 -0.90808433
56.762016 68.059212 -0.919186
54.227753 69.480476 -0.93394381
53.771324 69.736458 -0.65357691
53.744026 69.751762 -0.32839891
43.367516 75.571121 0
8.6231499 95.056488 1.7731811
59.183018 66.693817 -0.90990216
58.250237 67.215462 -0.90877581
56.774857 68.040543 -0.91693443
54.207691 69.476189 -0.93522811
53.768929 69.721558 -0.65328777
53.750679 69.731766 -0.32796392
43.349014 75.548721 0
8.6763802 94.938828 1.7702783
59.149555 66.704842 -0.91560453
58.233204 67.215843 -0.91085297
56.774414 68.029335 -0.91637212
54.196602 69.46685 -0.93565571
53.766533 69.706673 -0.65299976
53.739227 69.721901 -0.32810891
64 64 0
8.6344833 94.874496 1.7704239
59.198116 66.670158 -0.90582812
58.233719 67.206429 -0.91015881
56.756222 68.028015 -0.91806132
54.198986 69.450005 -0.93479896
53.773212 69.68676 -0.6521346
53.741413 69.704445 -0.32781833
64 64 0
43.286644 75.517982 0.66190571
59.212189 66.65477 -0.90256822
58.251785 67.187294 -0.9066987
56.751362 68.019257 -0.91806132
54.205864 69.430695 -0.93351626
53.76635 69.6744 -0.6521346
53.752708 69.681969 -0.32723778
64 64 0
43.290924 75.482864 0.66132516
59.221966 66.6418 -0.90012258
58.239151 67.185211 -0.90808433
56.755413 68.005577 -0.91693443
54.19931 69.418854 -0.93351626
53.768547 69.657028 -0.65155858
53.764042 69.659523 -0.32665724
64 64 0
43.281609 75.455322 0.66118014
59.201462 66.645576 -0.90338242
58.235306 67.178246 -0.90808433
56.719421 68.013992 -0.92087519
54.197281 69.404526 -0.93308705
53.770786 69.639664 -0.65098143
53.75721 69.647148 -0.32665724
43.384445 75.365959 0
64 64 0
59.185268 66.646919 -0.90582812
58.227077 67.173691 -0.90877581
56.714577 68.005196 -0.92087519
54.195251 69.390205 -0.93265951
53.768509 69.624809 -0.65069342
53.750393 69.634766 -0.32665724
43.393524 75.328506 0
64 64 0
59.134407 66.667236 -0.91479039
58.227642 67.164307 -0.90808433
56.70084 68.001266 -0.92199987
54.175236 69.385757 -0.93394381
53.761719 69.612442 -0.65069342
53.743591 69.622383 -0.32665724
43.439182 75.271072 0
64 64 0
59.191902 66.628166 -0.90338242
58.206211 67.166954 -0.91085297
56.691536 67.994888 -0.92256439
54.164234 69.376343 -0.93437135
53.754944 69.600067 -0.65069342
53.755028 69.600021 -0.32607722
43.457554 75.228745 0
43.413445 75.252853 0.65522957
59.206093 66.612892 -0.90012258
58.228832 67.145538 -0.9066987
56.686714 67.986061 -0.92256439
54.171272 69.357086 -0.93308705
53.761818 69.580254 -0.64982826
53.752846 69.585144 -0.32593167
43.512558 75.16655 0
43.495682 75.175743 0.6521818
59.198601 66.609451 -0.90093672
58.216209 67.143356 -0.90808433
56.681904 67.977219 -0.92256439
54.160286 69.347664 -0.93351626
53.759621 69.565414 -0.64954025
53.746105 69.572762 -0.32593167
43.640839 75.064743 0
43.54155 75.118706 0.65029514
59.160683 66.62249 -0.90745646
58.216839 67.133972 -0.90739018
56.681587 67.965942 -0.92199987
54.140301 69.343102 -0.93479896
53.75745 69.550575 -0.64925224
53.743946 69.557892 -0.32578668
43.728153 74.98558 0
43.596649 75.056839 0.64811844
59.148811 66.621346 -0.90908796
58.20863 67.129372 -0.90808433
56.658916 67.966766 -0.92425138
54.147388 69.323868 -0.93351626
53.764408 69.530815 -0.64838707
53.73267 69.547966 -0.32593167
43.79731 74.916542 0
43.656464 74.992653 0.64579618
59.150009 66.613129 -0.90827066
58.213696 67.117607 -0.9066987
56.663067 67.953072 -0.9231267
54.131931 69.316826 -0.93437135
53.748615 69.523354 -0.64896423
53.730545 69.533089 -0.32578668
43.8437 74.860031 0
49.45784 71.835182 0.46133327
59.194744 66.581543 -0.89930838
58.20993 67.110611 -0.9066987
56.685165 67.929771 -0.91974831
54.139088 69.297607 -0.93308705
53.746502 69.508514 -0.64867622
53.74675 69.508385 -0.32506111
43.803089 74.850441 0
49.49873 71.790558 0.45973715
59.214962 66.566956 -0.89523435
58.208054 67.107117 -0.9066987
56.678299 67.927757 -0.92031282
54.126831 69.296509 -0.93394381
53.7523 69.497421 -0.64809906
53.748001 69.499733 -0.32491612
49.543354 71.755333 0
49.452812 71.803909 0.46104327
59.115978 66.612465 -0.91316199
58.199883 67.102478 -0.90739018
56.687008 67.91172 -0.91862363
54.097809 69.296677 -0.93608326
53.750221 69.482605 -0.64781106
53.741364 69.487343 -0.32491612
49.511051 71.75013 0
49.493805 71.759354 0.45944661
59.130272 66.597252 -0.90990216
58.178429 67.104912 -0.91015881
56.677807 67.905266 -0.919186
54.105011 69.277458 -0.93479896
53.757301 69.462906 -0.64694589
53.743919 69.470047 -0.32462555
49.520069 71.722824 0
43.592415 74.884315 0.6459412
59.188248 66.558868 -0.89849108
58.210106 67.079041 -0.90462416
56.673092 67.896416 -0.919186
54.094093 69.267914 -0.93522811
53.75071 69.450523 -0.64694589
53.755672 69.447891 -0.324045
49.533722 71.6931 0
43.537983 74.881607 0.64724731
59.119644 66.587791 -0.9107163
58.210838 67.069687 -0.90393001
56.672874 67.885185 -0.91862363
54.092285 69.253532 -0.93479896
53.753265 69.433296 -0.64636987
53.744507 69.437935 -0.32418999
49.556629 71.658546 0
43.497292 74.87149 0.64811844
59.120888 66.579582 -0.90990216
58.189388 67.072067 -0.9066987
56.686157 67.866821 -0.91637212
54.095013 69.236763 -0.93394381
53.751293 69.418488 -0.64608073
53.737946 69.425545 -0.32418999
43.910873 74.621109 0
64 64 0
59.130898 66.566772 -0.90745646
58.176796 67.069725 -0.90808433
56.663509 67.867462 -0.91862363
54.070526 69.234367 -0.93565571
53.753895 69.401276 -0.64550471
53.749771 69.403458 -0.32361001
43.824383 74.635666 0
64 64 0
59.145302 66.551682 -0.90419662
58.195293 67.051018 -0.90462416
56.65884 67.858597 -0.91862363
54.073307 69.217583 -0.93479896
53.742802 69.391296 -0.64579272
53.738651 69.393478 -0.323755
43.82077 74.60643 0
64 64 0
59.080933 66.577934 -0.91560453
58.182732 67.04866 -0.90600717
56.66769 67.842644 -0.91693443
54.04882 69.215118 -0.9365108
53.745449 69.3741 -0.6452167
53.741356 69.376251 -0.32346445
64 64 0
43.449604 74.769852 0.64797288
59.117249 66.551392 -0.90827066
58.170166 67.046272 -0.90739018
56.640537 67.845551 -0.91974831
54.065273 69.1912 -0.93437135
53.734383 69.364105 -0.64550471
53.734867 69.363846 -0.32346445
43.84132 74.533539 0
43.441208 74.742607 0.64782786
59.146191 66.521355 -0.90175092
58.158356 67.034492 -0.90808433
56.626743 67.830101 -0.92031282
54.043636 69.171921 -0.93522811
53.7444 69.327354 -0.64406353
53.726543 69.336632 -0.32331944
43.815926 74.484787 0
43.419914 74.690498 0.64768291
59.116802 66.529129 -0.90664226
58.168064 67.020508 -0.90600717
56.608597 67.828194 -0.92199987
54.037392 69.159882 -0.93522811
53.751755 69.307823 -0.64319837
53.733952 69.317047 -0.32288387
43.807884 74.458 0
43.411621 74.663239 0.64753789
59.162067 66.498276 -0.89767689
58.177795 67.006546 -0.90393001
56.617508 67.812271 -0.92031282
54.044857 69.14077 -0.93394381
53.740757 69.297806 -0.64348638
53.722904 69.30703 -0.32302943
43.781403 74.44075 0
43.39875 74.638351 0.64753789
59.150253 66.496956 -0.89930838
58.169693 67.001816 -0.90462416
56.590321 67.81498 -0.9231267
54.043213 69.126389 -0.93351626
53.738956 69.283043 -0.64319837
53.730362 69.287468 -0.3225939
43.731781 74.435379 0
43.376678 74.618202 0.64782786
59.120865 66.504639 -0.90419662
58.148235 67.003922 -0.90739018
56.590233 67.803703 -0.92256439
54.032463 69.116699 -0.93394381
53.737179 69.26828 -0.64291036
53.723984 69.275055 -0.3225939
43.682144 74.429893 0
43.368484 74.590904 0.64768291
59.100239 66.507751 -0.90745646
58.149071 66.994568 -0.9066987
56.581123 67.797058 -0.9231267
54.030853 69.102318 -0.93351626
53.74464 69.248802 -0.6420452
53.726875 69.257889 -0.32230332
43.646393 74.417191 0
43.360325 74.563606 0.64753789
59.10601 66.497337 -0.90582812
58.136509 66.992058 -0.90808433
56.576542 67.788094 -0.9231267
54.006401 69.099602 -0.93522811
53.742908 69.234055 -0.64175719
53.729782 69.240753 -0.32201332
43.56427 74.428078 0
43.347576 74.538658 0.64753789
59.104504 66.494377 -0.90582812
58.143654 66.983955 -0.9066987
56.587841 67.77668 -0.9214375
54.007912 69.091225 -0.93479896
53.739746 69.227859 -0.64175719
53.731243 69.232193 -0.32186833
43.520874 74.434639 0
43.318062 74.537971 0.64826345
59.05743 66.510849 -0.91397619
58.131096 66.98143 -0.90808433
56.587811 67.765427 -0.92087519
54.015488 69.072174 -0.93351626
53.742672 69.21077 -0.64118004
53.72493 69.21978 -0.32186833
43.489719 74.419312 0
43.309975 74.51062 0.64811844
59.116127 66.47361 -0.90256822
58.131989 66.972061 -0.90739018
56.56966 67.763359 -0.92256439
54.013958 69.057785 -0.93308705
53.750214 69.191368 -0.64031601
53.709366 69.212051 -0.32215834
43.463226 74.401573 0
43.29266 74.487961 0.64826345
59.060211 66.494438 -0.91234469
58.101517 66.978546 -0.9115445
56.5742 67.749786 -0.9214375
54.003258 69.048035 -0.93351626
53.74395 69.178978 -0.64031601
53.726265 69.187904 -0.32143277
43.413506 74.395515 0
43.275368 74.465271 0.64840841
59.070431 66.481804 -0.90990216
58.120327 66.960136 -0.90808433
56.592365 67.729393 -0.91862363
53.988003 69.040565 -0.93437135
53.737698 69.16658 -0.64031601
53.733932 69.168472 -0.32099721
43.377716 74.382339 0
43.258099 74.442558 0.64855343
59.080696 66.469193 -0.90745646
58.098816 66.962029 -0.91085297
56.583328 67.722717 -0.919186
53.991089 69.023865 -0.93351626
53.736099 69.151848 -0.64002687
53.723038 69.158401 -0.32114276
43.309364 74.385429 0
43.240841 74.41983 0.64869899
59.077713 66.463242 -0.90745646
58.095242 66.954903 -0.91085297
56.560658 67.722847 -0.9214375
53.989628 69.00946 -0.93308705
53.734505 69.137131 -0.63973886
53.716812 69.145981 -0.32114276
43.296829 74.36042 0
43.218975 74.399384 0.64898902
59.065887 66.461716 -0.90908796
58.105148 66.94104 -0.90877581
56.569809 67.707047 -0.91974831
53.974388 69.001945 -0.93394381
53.742195 69.11779 -0.6388737
53.729202 69.124275 -0.32056221
43.270351 74.342377 0
43.192474 74.381226 0.64942455
59.10276 66.435928 -0.90175092
58.092625 66.938377 -0.91015881
56.551682 67.704857 -0.9214375
53.982143 68.982971 -0.93265951
53.740646 69.103096 -0.63858569
53.713722 69.116486 -0.32085222
43.239227 74.326591 0
43.179943 74.356079 0.64942455
59.055527 66.451973 -0.90990216
58.089077 66.931244 -0.91015881
56.551758 67.693604 -0.92087519
53.980728 68.968582 -0.93223196
53.725208 69.095291 -0.63916284
53.726173 69.094818 -0.32027164
43.240761 74.294556 0
43.139519 74.344765 0.65029514
59.012691 66.465714 -0.91723603
58.081032 66.926323 -0.91085297
56.547302 67.684601 -0.92087519
53.979328 68.954201 -0.93180442
53.742241 69.071411 -0.63772166
53.724678 69.080101 -0.32012665
43.228336 74.26947 0
43.122383 74.321854 0.6504401
59.098392 66.415977 -0.90093672
58.08651 66.914734 -0.90946734
56.551979 67.671089 -0.91974831
53.982567 68.937546 -0.93094766
53.736122 69.059013 -0.63772166
53.718544 69.06768 -0.32012665
43.197266 74.253563 0
43.044655 74.328789 0.65247232
59.068851 66.423141 -0.90582812
58.078491 66.909798 -0.91015881
56.533863 67.668816 -0.9214375
53.976608 68.925438 -0.93094766
53.734673 69.044319 -0.63743252
53.726425 69.04837 -0.31969109
43.180225 74.230713 0
42.952904 74.342422 0.65493959
59.074814 66.412827 -0.90419662
58.088486 66.896019 -0.90808433
56.529434 67.65979 -0.9214375
53.956829 68.920097 -0.93223196
53.733227 69.02964 -0.63714451
53.720337 69.035957 -0.31969109
43.163193 74.207848 0
42.809765 74.380989 0.6590029
59.080776 66.402534 -0.90256822
58.075981 66.893272 -0.90946734
56.529579 67.648537 -0.92087519
53.96011 68.903458 -0.93137681
53.7318 69.014961 -0.6368565
53.718922 69.021255 -0.3195461
43.118149 74.198647 0
42.67115 74.416962 0.66292185
59.060101 66.405251 -0.90582812
58.081505 66.881729 -0.90808433
56.529743 67.637283 -0.92031282
53.954193 68.891327 -0.93137681
53.716454 69.00708 -0.63743252
53.712864 69.008827 -0.3195461
43.063728 74.193909 0
42.583839 74.427567 0.66524351
59.052753 66.401436 -0.90664226
58.10059 66.863617 -0.90462416
56.51622 67.63269 -0.9214375
53.957535 68.874695 -0.93052006
53.729027 68.985611 -0.63627934
53.706818 68.996391 -0.3195461
43.051422 74.16861 0
42.533852 74.419838 0.6664046
59.085453 66.378227 -0.90012258
58.088112 66.860855 -0.90600717
56.507263 67.625854 -0.92199987
53.965523 68.855843 -0.92923576
53.718338 68.975456 -0.63656849
53.724174 68.972633 -0.31882054
43.039154 74.143288 0
42.516586 74.396164 0.66655016
59.033604 66.395912 -0.90908796
58.08466 66.853714 -0.90600717
56.479988 67.627846 -0.92481589
53.945786 68.85041 -0.93052006
53.726318 68.956284 -0.63570333
53.694775 68.971504 -0.3195461
43.00816 74.126999 0
1.6624985 94.073196 1.9329711
59.000996 66.407928 -0.91479039
58.082935 66.850136 -0.90600717
56.486965 67.618889 -0.92368907
53.9706 68.830971 -0.92795312
53.714012 68.954567 -0.63627934
53.710503 68.956253 -0.31896552
43.002045 74.114319 0
1.6349678 94.040047 1.9332618
59.051563 66.376205 -0.90501076
58.070457 66.847328 -0.90739018
56.491753 67.605408 -0.92256439
53.955521 68.823288 -0.92880821
53.722012 68.935417 -0.63541532
53.704521 68.943817 -0.31896552
42.975761 74.095695 0
1.5471802 93.989418 1.9348583
59.057606 66.365959 -0.90338242
58.076065 66.835831 -0.90600717
56.478241 67.600716 -0.92368907
53.958954 68.806717 -0.92795312
53.730057 68.916298 -0.63455015
53.721985 68.920158 -0.31823999
42.949486 74.077026 0
1.4547577 93.940849 1.9365995
59.054749 66.359985 -0.90338242
58.072643 66.828667 -0.90600717
56.483059 67.587257 -0.92256439
53.93462 68.803429 -0.92966497
53.71946 68.906105 -0.63483816
53.706676 68.912209 -0.31852996
42.951424 74.044861 0
1.3811035 93.883163 1.9377606
59.029587 66.364624 -0.90745646
58.055634 66.827972 -0.90808433
56.455791 67.589081 -0.92537826
53.947369 68.78244 -0.92795312
53.70887 68.895905 -0.63512617
53.714813 68.893074 -0.31809497
42.897003 74.039543 0
1.2699547 93.843201 1.9400828
58.968674 66.386154 -0.91805023
58.052219 66.820793 -0.90808433
56.460651 67.575607 -0.92425138
53.941597 68.770294 -0.92795312
53.712303 68.879036 -0.63455015
53.713619 68.87841 -0.31794941
42.884888 74.014038 0
1.2057762 93.780739 1.9409534
59.059639 66.335701 -0.90093672
58.062428 66.807167 -0.90600717
56.442551 67.573013 -0.92594057
53.945133 68.753738 -0.92709637
53.706413 68.8666 -0.63455015
53.712425 68.863762 -0.31780443
42.839859 74.004089 0
1.1275406 93.724838 1.94226
59.083641 66.317093 -0.89604849
58.072662 66.793571 -0.90393001
56.433647 67.56604 -0.92650294
53.939396 68.741585 -0.92709637
53.714584 68.847542 -0.63368499
53.706558 68.851326 -0.31780443
42.841919 73.971855 0
1.0446701 93.670998 1.9437112
59.018215 66.340576 -0.90745646
58.06929 66.786407 -0.90393001
56.415539 67.563377 -0.92819214
53.933674 68.729431 -0.92709637
53.713413 68.832909 -0.63339698
53.691284 68.843307 -0.31809497
42.825176 73.948494 0
0.94302368 93.625839 1.9457428
59.051205 66.31778 -0.90093672
58.038654 66.792007 -0.90808433
56.420433 67.549904 -0.92706746
53.918659 68.721619 -0.92795312
53.716942 68.816093 -0.63282096
53.704266 68.822029 -0.31751442
42.808441 73.925117 0
0.83197021 93.5849 1.948065
58.994659 66.336891 -0.9107163
58.02166 66.791168 -0.91015881
56.420769 67.538589 -0.92650294
53.922272 68.705086 -0.92709637
53.715828 68.801476 -0.63253182
53.698448 68.809586 -0.31751442
42.772888 73.910507 0
0.77272797 93.519539 1.9487907
58.987362 66.332924 -0.91153049
58.013729 66.786064 -0.91085297
56.430305 67.523003 -0.92481589
53.902626 68.699409 -0.92838067
53.70533 68.791229 -0.63282096
53.697369 68.794937 -0.31736887
42.760933 73.884857 0
0.68997955 93.46505 1.9502423
59.006962 66.316467 -0.90745646
58.024025 66.772491 -0.90877581
56.407616 67.522408 -0.92706746
53.920238 68.676399 -0.92624122
53.708946 68.774429 -0.63224381
53.701 68.778114 -0.31707886
42.758453 73.854797 0
0.58372498 93.421333 1.952419
59.004166 66.310432 -0.90745646
57.997913 66.775795 -0.91223598
56.403366 67.513229 -0.92706746
53.905285 68.668526 -0.92709637
53.712563 68.757652 -0.63166779
53.704678 68.761299 -0.31678832
42.741825 73.831314 0
0.49633026 93.368683 1.9540156
59.028305 66.291985 -0.90256822
58.012791 66.760139 -0.90946734
56.422215 67.493408 -0.92425138
53.899651 68.656326 -0.92709637
53.711533 68.74305 -0.63137865
53.689484 68.753212 -0.31707886
53.94157 68.637001 0
0.40898895 93.315857 1.9556118
59.025539 66.285973 -0.90256822
57.991226 66.761284 -0.91223598
56.385674 67.499107 -0.92819214
53.88937 68.646255 -0.92752391
53.710506 68.728455 -0.63109064
53.702637 68.732071 -0.31649831
53.907589 68.637886 0
0.30749512 93.269386 1.957644
59.045265 66.269661 -0.89849108
57.97876 66.758209 -0.9136216
56.413795 67.475082 -0.92425138
53.879082 68.636185 -0.92795312
53.695385 68.720329 -0.63166779
53.706387 68.715294 -0.31620774
53.916191 68.619186 0
0.24855423 93.203224 1.9583696
59.011044 66.278046 -0.90419662
57.980011 66.74884 -0.91292745
56.409599 67.465912 -0.92425138
53.896854 68.613281 -0.92581201
53.708511 68.69928 -0.63051462
53.705418 68.700691 -0.31606275
53.929558 68.598351 0
0.13295364 93.162865 1.9608368
58.958801 66.294548 -0.91316199
57.990379 66.735329 -0.91085297
56.382278 67.46727 -0.92706746
53.8866 68.603203 -0.92624122
53.688728 68.693268 -0.63137865
53.704472 68.686104 -0.31591776
53.928741 68.584023 0
0.055198669 93.105042 1.9621429
59.024925 66.260818 -0.90093672
57.988728 66.731705 -0.91085297
56.403332 67.452148 -0.92425138
53.89785 68.590721 -0.92495692
53.685898 68.687035 -0.63137865
53.692188 68.684174 -0.31620774
53.911751 68.584396 0
-0.0049514771 93.085754 1.963449
59.013184 66.258896 -0.90256822
57.985432 66.724434 -0.91085297
56.385273 67.449265 -0.92594057
53.887634 68.580627 -0.92538446
53.689655 68.670303 -0.63080263
53.695995 68.667435 -0.31591776
53.929924 68.56147 0
-0.12052155 93.044846 1.9659163
58.969913 66.271172 -0.90990216
58.000435 66.708908 -0.90808433
56.381111 67.440063 -0.92594057
53.886784 68.566292 -0.92495692
53.693459 68.65358 -0.63022548
53.690361 68.654984 -0.31591776
53.91494 68.553581 0
-0.21240997 92.993011 1.9676579
58.962669 66.26712 -0.9107163
57.992596 66.703712 -0.90877581
56.37233 67.432938 -0.92650294
53.876595 68.556175 -0.92538446
53.697269 68.636887 -0.62964946
53.698967 68.636116 -0.3154822
53.904701 68.543526 0
-0.28530884 92.932465 1.968819
59.000523 66.242821 -0.90338242
58.003071 66.690292 -0.9066987
56.382084 67.41748 -0.92481589
53.861721 68.548149 -0.92624122
53.705837 68.61808 -0.6287843
53.68388 68.62793 -0.31577274
53.903965 68.529198 0
-0.36288452 92.873917 1.9701252
58.939156 66.263008 -0.91397619
57.990654 66.687141 -0.90808433
56.359406 67.416573 -0.92706746
53.865616 68.5317 -0.92538446
53.695549 68.607742 -0.62907231
53.683037 68.613342 -0.31562775
53.898499 68.516991 0
-0.49261475 92.838547 1.9730279
58.972546 66.240791 -0.90745646
58.014919 66.667618 -0.90393001
56.346008 67.411469 -0.92819214
53.869518 68.515274 -0.92452937
53.704147 68.588982 -0.62820828
53.691715 68.594521 -0.31519219
64 64 0
-0.57486725 92.781754 1.9744791
58.947258 66.244751 -0.91153049
58.007103 66.66243 -0.90462416
56.323315 67.410477 -0.9304437
53.859383 68.505112 -0.92495692
53.67498 68.587036 -0.62964946
53.671917 68.588394 -0.31562775
53.854313 68.507362 0
-0.6381073 92.71637 1.9753501
59.034931 66.198624 -0.89523435
57.962605 66.67347 -0.91085297
56.305256 67.407372 -0.9321329
53.863327 68.488701 -0.92410183
53.697815 68.561989 -0.62792027
53.680641 68.569595 -0.31519219
53.882195 68.480347 0
-0.73452759 92.665604 1.9772369
58.978027 66.216568 -0.90501076
57.986927 66.654007 -0.9066987
56.287209 67.404221 -0.93381989
53.848522 68.480591 -0.92495692
53.69231 68.549538 -0.62792027
53.684647 68.552925 -0.31490162
53.876785 68.468117 0
-0.83091736 92.614639 1.9791236
58.930096 66.230408 -0.91316199
57.983727 66.646744 -0.9066987
56.292397 67.390808 -0.93269521
53.847813 68.466255 -0.92452937
53.691566 68.534996 -0.62763113
53.679153 68.540459 -0.31490162
53.842819 68.468452 0
-0.90350342 92.553024 1.9802847
59.00436 66.190536 -0.89930838
57.966743 66.645515 -0.90877581
56.297623 67.377411 -0.93156838
53.856533 68.4478 -0.92324507
53.69556 68.518387 -0.62705511
53.683182 68.523811 -0.31461164
53.875542 68.439461 0
-1.0140839 92.507965 1.9826063
58.938313 66.212204 -0.9107163
57.949753 66.644257 -0.91085297
56.298199 67.366066 -0.93100601
53.846466 68.437592 -0.92367262
53.685375 68.507996 -0.62734312
53.672966 68.51342 -0.31475663
53.865421 68.429306 0
-1.0961151 92.450203 1.984058
58.922043 66.212013 -0.91316199
57.992569 66.616898 -0.90393001
56.29879 67.354729 -0.9304437
53.845814 68.423271 -0.92324507
53.679935 68.495529 -0.62734312
53.667519 68.500938 -0.31475663
53.860077 68.417061 0
-1.1685562 92.38813 1.9852191
58.923923 66.203903 -0.91234469
57.971004 66.61763 -0.9066987
56.313389 67.337326 -0.92819214
53.845184 68.408958 -0.92281747
53.679253 68.481003 -0.62705511
53.66209 68.488449 -0.31475663
53.845207 68.408943 0
-1.279068 92.342468 1.9875408
58.90765 66.203659 -0.91479039
57.967846 66.610344 -0.9066987
56.295368 67.334091 -0.92988133
53.835155 68.39872 -0.92324507
53.692833 68.460312 -0.62590194
53.675751 68.467705 -0.31417608
53.844658 68.394608 0
-1.3704987 92.288345 1.9892825
58.959457 66.174011 -0.90501076
57.923233 66.620941 -0.91292745
56.291344 67.324783 -0.92988133
53.825138 68.388466 -0.92367262
53.682709 68.449898 -0.62618995
53.670361 68.455223 -0.31417608
53.853699 68.376144 0
-1.4332733 92.221687 1.9901536
58.984074 66.156212 -0.90012258
57.929283 66.609634 -0.9115445
56.296677 67.311447 -0.92875451
53.829266 68.372116 -0.92281747
53.677338 68.437431 -0.62618995
53.660217 68.444786 -0.31432107
53.857975 68.359779 0
-1.5627975 92.18364 1.9930558
58.948357 66.160721 -0.90582812
57.9338 66.594681 -0.91015881
56.314045 67.287491 -0.92594057
53.830811 68.349632 -0.92196071
53.693089 68.408539 -0.62474877
53.671288 68.41787 -0.31374052
53.85009 68.341385 0
-1.7189026 92.109734 1.9962492
58.941208 66.156555 -0.90664226
57.967575 66.571609 -0.90462416
56.291382 67.286171 -0.92819214
53.825562 68.337341 -0.92196071
53.687767 68.396088 -0.62474877
53.670734 68.403351 -0.3135955
53.844849 68.329124 0
-1.7862701 92.044563 1.9972647
58.897663 66.167831 -0.91397619
57.946018 66.572159 -0.90739018
56.268707 67.284805 -0.9304437
53.82505 68.323044 -0.92153317
53.687222 68.381599 -0.62446076
53.665421 68.390862 -0.3135955
53.858788 68.308708 0
-1.901413 91.999603 1.9997319
58.876839 66.16938 -0.91723603
57.961376 66.55703 -0.90462416
56.278786 67.269508 -0.92875451
53.815109 68.312744 -0.92196071
53.68671 68.367111 -0.62417161
53.674465 68.372299 -0.31316051
53.848801 68.298477 0
-1.9543381 91.928055 2.0003126
58.915207 66.145889 -0.90990216
57.95829 66.549728 -0.90462416
56.298248 67.250305 -0.92594057
53.809906 68.300438 -0.92196071
53.681442 68.354652 -0.62417161
53.659622 68.363853 -0.31345052
53.910744 68.257881 0
-2.0742111 91.884705 2.0029247
58.912617 66.139748 -0.90990216
57.936733 66.550201 -0.90739018
56.284946 67.244934 -0.92706746
53.809444 68.286133 -0.92153317
53.700024 68.332153 -0.62273043
53.663929 68.347336 -0.31316051
53.9104 68.243668 0
-2.1940918 91.841125 2.0055375
58.955631 66.114487 -0.90175092
57.929016 66.544815 -0.90808433
56.271667 67.23954 -0.92819214
53.804272 68.273811 -0.92153317
53.680481 68.325706 -0.6235956
53.668282 68.330818 -0.31286997
53.910091 68.229454 0
-2.2564316 91.77317 2.006408
58.902905 66.129349 -0.9107163
57.930588 66.535538 -0.90739018
56.267761 67.230202 -0.92819214
53.803848 68.259514 -0.92110562
53.689587 68.307251 -0.62273043
53.658264 68.320335 -0.31301495
53.919384 68.21125 0
-2.3666687 91.725143 2.0087304
58.877522 66.132683 -0.91479039
57.946037 66.5205 -0.90462416
56.259174 67.222801 -0.92875451
53.793976 68.249161 -0.92153317
53.6987 68.288826 -0.62186641
53.662636 68.303841 -0.31272495
53.919121 68.19706 0
-2.4432983 91.662903 2.0100365
58.870384 66.128387 -0.91560453
57.892033 66.534325 -0.91223598
56.269356 67.207611 -0.92706746
53.798325 68.232895 -0.92067808
53.683983 68.280342 -0.62244242
53.667053 68.287361 -0.31243441
53.914059 68.184875 0
-2.5582657 91.616455 2.0125036
58.876945 66.118416 -0.91397619
57.916786 66.515442 -0.90808433
56.2561 67.202148 -0.92819214
53.793217 68.220566 -0.92067808
53.693161 68.26194 -0.62157726
53.666679 68.272888 -0.31228939
53.909008 68.172684 0
-2.6348038 91.553886 2.0138097
58.87439 66.112221 -0.91397619
57.899849 66.513824 -0.91015881
56.247543 67.194725 -0.92875451
53.792885 68.206268 -0.92024887
53.678444 68.253426 -0.62215441
53.666325 68.258423 -0.3121444
53.928032 68.150574 0
-2.7305145 91.499092 2.0156965
58.917557 66.08725 -0.90582812
57.892159 66.508362 -0.91085297
56.248386 67.183426 -0.92819214
53.792553 68.191986 -0.91982132
53.673313 68.240952 -0.62215441
53.656384 68.24791 -0.31228939
53.918213 68.140381 0
-2.8646393 91.4599 2.0187442
58.860161 66.103569 -0.91560453
57.889133 66.500977 -0.91085297
56.239845 67.17598 -0.92875451
53.796989 68.175758 -0.91896617
53.682564 68.222595 -0.62128925
53.656063 68.233437 -0.3121444
53.903572 68.132141 0
-2.9170074 91.386963 2.0193248
58.825577 66.110428 -0.92131007
57.848949 66.508751 -0.91639024
56.26894 67.153175 -0.92481589
53.763435 68.175056 -0.92153317
53.677467 68.210121 -0.62128925
53.670204 68.213089 -0.31156385
53.903404 68.117973 0
-3.0366592 91.341408 2.0219371
58.910027 66.068817 -0.90582812
57.878464 66.488091 -0.9115445
56.269855 67.141907 -0.92425138
53.767902 68.158821 -0.92067808
53.681965 68.193756 -0.62071323
53.655502 68.204514 -0.31185383
53.912907 68.099892 0
-3.1129913 91.278 2.0232437
58.85257 66.084923 -0.91560453
57.875462 66.48069 -0.9115445
56.2425 67.142113 -0.92706746
53.772411 68.142601 -0.91982132
53.681713 68.179337 -0.62042409
53.655239 68.190056 -0.31170884
53.903137 68.089653 0
-3.2036819 91.220291 2.0249848
58.863792 66.073158 -0.91316199
57.900394 66.462021 -0.90739018
56.224586 67.138435 -0.92875451
53.757881 68.134087 -0.92067808
53.67186 68.168808 -0.62071323
53.66946 68.169777 -0.31112829
53.903027 68.0755 0
-3.3040009 91.166306 2.0270171
58.838364 66.076172 -0.91723603
57.883453 66.460266 -0.90946734
56.230221 67.125252 -0.92762977
53.762432 68.117874 -0.91982132
53.681232 68.150528 -0.61984807
53.654778 68.161171 -0.31141883
53.878792 68.071068 0
-3.4139252 91.115997 2.0293393
58.882973 66.054642 -0.90908796
57.900593 66.449089 -0.9066987
56.247196 67.112984 -0.92537826
53.759945 68.111687 -0.91982132
53.688339 68.140442 -0.61927092
53.661919 68.151047 -0.31112829
53.895657 68.05719 0
-3.478508 91.09462 2.0307903
58.830025 66.068649 -0.91805023
57.892986 66.443581 -0.90739018
56.238728 67.105499 -0.92594057
53.769287 68.093582 -0.91853702
53.683342 68.127975 -0.61927092
53.647255 68.142418 -0.31141883
53.905266 68.039177 0
-3.5642624 91.034302 2.0323865
58.92395 66.023956 -0.90093672
57.876049 66.44178 -0.90946734
56.216099 67.103645 -0.92819214
53.745274 68.088829 -0.92024887
53.673542 68.117432 -0.61956006
53.65192 68.126053 -0.31112829
53.90522 68.025055 0
-3.6692886 90.981514 2.0345638
58.852592 66.045197 -0.91316199
57.896416 66.425117 -0.90600717
56.226528 67.088608 -0.92650294
53.740341 68.076431 -0.92024887
53.673397 68.103035 -0.61927092
53.656593 68.109711 -0.31083828
53.900364 68.012848 0
-3.7694473 90.92659 2.0365953
58.859329 66.035339 -0.91153049
57.89349 66.41774 -0.90600717
56.208622 67.084824 -0.92819214
53.735424 68.064034 -0.92024887
53.668446 68.090553 -0.61927092
53.661308 68.093376 -0.31054774
53.90036 67.998734 0
-3.8550873 90.86573 2.038192
58.810883 66.047272 -0.91968173
57.867241 66.419563 -0.90946734
56.233253 67.064224 -0.92481589
53.744835 68.045982 -0.91896617
53.682758 68.070473 -0.61811775
53.651539 68.082787 -0.31069273
53.910065 67.980789 0
-3.9406815 90.804703 2.0397887
58.895824 66.00663 -0.90419662
57.882999 66.404808 -0.9066987
56.243752 67.049255 -0.9231267
53.749519 68.029823 -0.91810942
53.673019 68.059898 -0.61840689
53.665939 68.062683 -0.31011271
53.910103 67.966698 0
-4.074585 90.76252 2.0428367
58.870396 66.009476 -0.90827066
57.856743 66.406563 -0.91015881
56.211689 67.051003 -0.92650294
53.730309 68.023056 -0.91939378
53.672951 68.045525 -0.61811775
53.661037 68.050194 -0.31011271
53.900475 67.956398 0
-4.1407318 90.693512 2.0438521
58.886391 65.996086 -0.90501076
57.830456 66.408264 -0.9136216
56.226944 67.034195 -0.92425138
53.735031 68.006905 -0.91853702
53.672886 68.031166 -0.61782974
53.670681 68.032028 -0.30967715
53.895699 67.944191 0
-4.2552338 90.64328 2.0463192
58.893185 65.986328 -0.90338242
57.855618 66.389893 -0.90946734
56.218536 67.026649 -0.92481589
53.71106 68.001945 -0.92024887
53.668022 68.018684 -0.61782974
53.656139 68.023308 -0.30996716
53.905499 67.926315 0
-4.3358154 90.579628 2.047771
58.876957 65.985512 -0.90582812
57.848061 66.384277 -0.91015881
56.224369 67.013565 -0.92368907
53.73016 67.98024 -0.91810942
53.672813 68.002464 -0.61725372
53.636742 68.016441 -0.31040272
53.891048 67.917885 0
-4.4211731 90.517693 2.0493672
58.906845 65.966858 -0.90012258
57.859211 66.371429 -0.90808433
56.206505 67.009666 -0.92537826
53.744514 67.960426 -0.91639757
53.677643 67.986252 -0.61667657
53.660976 67.992691 -0.30953217
53.891171 67.903793 0
-4.5404205 90.468689 2.0519793
58.904472 65.960701 -0.90012258
57.804855 66.38382 -0.91569608
56.212372 66.99659 -0.92425138
53.720573 67.955406 -0.91810942
53.677658 67.971916 -0.61638856
53.661022 67.978317 -0.30938661
53.891335 67.889702 0
-4.6353989 90.410118 2.0538661
58.879036 65.963387 -0.90419662
57.84882 66.358376 -0.90877581
56.218235 66.983543 -0.9231267
53.720589 67.941147 -0.91768187
53.663197 67.96315 -0.61696571
53.65136 67.96769 -0.30953217
53.891495 67.875618 0
-4.7109451 90.343918 2.0551727
58.89975 65.94838 -0.90012258
57.827225 66.358101 -0.9115445
56.167175 66.992271 -0.92875451
53.720627 67.926895 -0.91725433
53.658417 67.950661 -0.61696571
53.66114 67.949615 -0.3090966
53.872231 67.86898 0
-4.8495255 90.301666 2.0583656
58.855824 65.958038 -0.90745646
57.796253 66.361351 -0.91569608
56.192051 66.971962 -0.92537826
53.715889 67.914467 -0.91725433
53.677837 67.928955 -0.6155234
53.656376 67.937119 -0.3090966
53.88702 67.849335 0
-4.9006805 90.225853 2.0589461
58.853462 65.95182 -0.90745646
57.755871 66.368088 -0.92123342
56.174206 66.967934 -0.92706746
53.715961 67.900223 -0.91682678
53.663414 67.920151 -0.61610055
53.641914 67.928307 -0.30938661
53.882378 67.837112 0
-4.9614639 90.153633 2.0598166
58.84185 65.949104 -0.90908796
57.748325 66.362312 -0.92192489
56.146862 66.967453 -0.92988133
53.720871 67.884155 -0.91597003
53.668373 67.903999 -0.6155234
53.666336 67.90477 -0.30851606
53.887493 67.821198 0
-5.0319061 90.084984 2.0609777
58.848763 65.939384 -0.90745646
57.768951 66.345917 -0.91846478
56.162308 66.950798 -0.92762977
53.706566 67.875359 -0.91682678
53.668499 67.889687 -0.61523539
53.64703 67.897774 -0.30895162
53.887753 67.807144 0
-5.1557922 90.036346 2.0637355
58.861477 65.931053 -0.90501076
57.725269 66.358032 -0.92469352
56.165276 66.944275 -0.92706746
53.718651 67.863716 -0.91554248
53.651619 67.888908 -0.61610055
53.654415 67.887856 -0.30866104
53.89032 67.799202 0
48.493427 69.827347 0.46263939
58.84988 65.928307 -0.90664226
57.745914 66.34166 -0.92123342
56.161724 66.934807 -0.92706746
53.713989 67.851288 -0.91554248
53.661465 67.870956 -0.61523539
53.644863 67.877174 -0.30880606
53.875999 67.790634 0
48.539921 69.788567 0.46104327
58.819775 65.932449 -0.91153049
57.747784 66.332344 -0.92054188
56.14867 66.928886 -0.92819214
53.709343 67.83886 -0.91554248
53.671341 67.853035 -0.61437023
53.654778 67.859215 -0.30837104
53.88604 67.772942 0
48.571892 69.755356 0.45988217
58.831329 65.921028 -0.90908796
57.773182 66.314308 -0.91639024
56.159431 66.914085 -0.92650294
53.709518 67.824638 -0.91511488
53.666695 67.840553 -0.61437023
53.645256 67.848518 -0.30851606
53.881489 67.760719 0
-5.7328873 89.917442 2.0776677
58.852203 65.906189 -0.90501076
57.77039 66.306778 -0.91639024
56.1702 66.899323 -0.92481589
53.704906 67.812202 -0.91511488
53.657196 67.829865 -0.61465937
53.650372 67.832397 -0.30822548
53.85743 67.755722 0
-5.7544174 89.829559 2.0773778
58.831352 65.906815 -0.90827066
57.753498 66.304459 -0.91846478
56.171486 66.888092 -0.92425138
53.685871 67.805084 -0.91639757
53.65744 67.815575 -0.61437023
53.645748 67.819885 -0.30822548
53.862675 67.739861 0
-5.824585 89.759644 2.0785389
58.824402 65.902275 -0.90908796
57.774261 66.288254 -0.91500461
56.191845 66.869865 -0.9214375
53.695724 67.787308 -0.91511488
53.66254 67.799507 -0.61379421
53.636246 67.809166 -0.30837104
53.848381 67.731201 0
-5.9190674 89.698563 2.0804255
58.882462 65.873924 -0.89849108
57.780914 66.277283 -0.9136216
56.154976 66.872665 -0.92537826
53.695992 67.773087 -0.91468573
53.653103 67.788788 -0.61408222
53.651173 67.789497 -0.30779049
53.848782 67.717133 0
-5.9939804 89.630142 2.0817318
58.856968 65.876213 -0.90256822
57.792313 66.264603 -0.9115445
56.161068 66.859695 -0.92425138
53.739662 67.743042 -0.91040683
53.667973 67.769196 -0.61292905
53.646603 67.776993 -0.30779049
53.854069 67.701302 0
-6.1078873 89.575829 2.084199
58.808254 65.886879 -0.9107163
57.78487 66.258812 -0.91223598
56.191036 66.838074 -0.92031282
53.711025 67.73941 -0.91254628
53.653694 67.760246 -0.6135062
53.627407 67.769798 -0.30822548
53.849602 67.689041 0
-6.1826935 89.507072 2.085505
58.82457 65.873871 -0.90745646
57.725533 66.271805 -0.92054188
56.178066 66.832092 -0.9214375
53.692024 67.732216 -0.91383058
53.649155 67.747742 -0.6135062
53.652168 67.746651 -0.30735493
53.850044 67.675003 0
-6.2867661 89.448792 2.0876822
58.826958 65.865944 -0.90664226
57.807739 66.233574 -0.90808433
56.169872 66.824364 -0.92199987
53.706841 67.712791 -0.91211873
53.649517 67.733467 -0.61321706
53.63298 67.739433 -0.30779049
53.860306 67.65744 0
-6.381012 89.386765 2.0895689
58.801449 65.86805 -0.9107163
57.776722 66.236275 -0.91223598
56.180801 66.809753 -0.92031282
53.687866 67.705559 -0.91340303
53.645012 67.720963 -0.61321706
53.633354 67.725151 -0.3076455
53.855892 67.64518 0
-6.4752121 89.324554 2.0914557
58.813164 65.856766 -0.90827066
57.792923 66.221985 -0.90946734
56.17263 66.80201 -0.92087519
53.697899 67.687904 -0.91211873
53.650253 67.704964 -0.61264104
53.643543 67.707367 -0.30720994
53.8466 67.634674 0
-6.5791397 89.26564 2.0936322
58.810925 65.850494 -0.90827066
57.785519 66.216171 -0.91015881
56.183617 66.78743 -0.919186
53.707962 67.67028 -0.91083443
53.655521 67.68898 -0.61206502
53.634182 67.696594 -0.30735493
53.847115 67.620659 0
-6.6732483 89.203033 2.0955191
58.766773 65.859116 -0.91560453
57.749744 66.220413 -0.91500461
56.218563 66.764374 -0.91468292
53.70837 67.65612 -0.91040683
53.641331 67.679939 -0.61264104
53.624828 67.685799 -0.30749995
53.837845 67.61013 0
-6.7771072 89.143723 2.0976963
58.811123 65.836304 -0.90745646
57.756519 66.209518 -0.9136216
56.181686 66.766838 -0.91862363
53.699123 67.645393 -0.91083443
53.651527 67.662239 -0.61177588
53.63998 67.666328 -0.30691937
53.843292 67.594376 0
-6.8907166 89.087654 2.1001635
58.804249 65.831673 -0.90827066
57.772781 66.195297 -0.91085297
56.21669 66.743874 -0.91412055
53.680195 67.638069 -0.91211873
53.656857 67.646301 -0.61119986
53.640453 67.652084 -0.30677438
53.829151 67.585556 0
-6.9846878 89.024437 2.1020501
58.811359 65.822121 -0.90664226
57.732262 66.201073 -0.91639024
56.208591 66.736145 -0.91468292
53.70488 67.615387 -0.90955007
53.642708 67.637222 -0.61177588
53.606621 67.649895 -0.3076455
53.839546 67.5681 0
-7.0933304 88.966202 2.1043723
58.800938 65.82225 -0.90827066
57.792503 66.175705 -0.90739018
56.202133 66.733124 -0.91524744
53.668777 67.621056 -0.91254628
53.630737 67.634392 -0.61235303
53.624035 67.636742 -0.30706492
53.832481 67.563683 0
-7.1770554 88.947311 2.1064041
58.822071 65.807823 -0.90419662
57.775661 66.173164 -0.90946734
56.189247 66.727051 -0.91637212
53.693485 67.598419 -0.90997928
53.645889 67.615036 -0.61119986
53.634369 67.619057 -0.30662939
53.833092 67.549675 0
-7.261116 88.880127 2.1080008
58.726513 65.834045 -0.92049593
57.744598 66.175537 -0.9136216
56.214748 66.707596 -0.91299587
53.723095 67.574158 -0.90698314
53.661072 67.595726 -0.61004668
53.630005 67.606529 -0.30662939
53.838654 67.533966 0
-7.3696442 88.821312 2.1103225
58.775684 65.809868 -0.91153049
57.746727 66.166328 -0.91292745
56.19709 66.703171 -0.91468292
53.718781 67.561737 -0.90698314
53.651852 67.584923 -0.61033469
53.62075 67.595695 -0.30677438
53.824547 67.525101 0
-7.4634399 88.757179 2.1122096
58.764145 65.806778 -0.91316199
57.767826 66.150589 -0.90946734
56.184212 66.69706 -0.91580975
53.670811 67.564384 -0.91083443
53.623085 67.580849 -0.61177588
53.636063 67.57637 -0.30619383
53.805546 67.517891 0
-7.5768127 88.699631 2.114677
58.785336 65.792419 -0.90908796
57.78421 66.136536 -0.9066987
56.190582 66.684311 -0.91468292
53.724777 67.531876 -0.90569878
53.633427 67.563271 -0.61091185
53.651409 67.557091 -0.30561325
53.825912 67.497108 0
-7.6753998 88.636772 2.1167085
58.771671 65.783005 -0.9107163
57.755325 66.129601 -0.91015881
56.169682 66.670349 -0.91637212
53.764854 67.490463 -0.90141994
53.615063 67.541542 -0.61148787
53.628082 67.537109 -0.30604881
53.827332 67.469154 0
-7.8970413 88.518845 2.1214979
58.792919 65.768738 -0.90664226
57.752758 66.122055 -0.91015881
56.161655 66.662521 -0.91693443
53.736343 67.486351 -0.90355939
53.649975 67.515686 -0.60918152
53.653351 67.514542 -0.30517772
53.823147 67.456863 0
-7.9708939 88.446991 2.1228042
58.809517 65.756104 -0.90338242
57.754948 66.1129 -0.90946734
56.148808 66.656311 -0.91806132
64 64 -0
53.645737 67.503174 -0.60918152
53.634338 67.507034 -0.30561325
53.814053 67.446228 0
-8.0692902 88.383324 2.1248357
58.788658 65.756149 -0.90664226
57.723862 66.114967 -0.9136216
56.160053 66.641953 -0.91637212
64 64 -0
53.631699 67.493973 -0.60975868
53.620247 67.497826 -0.30590382
53.824699 67.428932 0
-8.0987015 88.296227 2.1248357
58.805286 65.743561 -0.90338242
57.768887 66.091415 -0.9066987
56.152054 66.634087 -0.91693443
64 64 -0
53.622581 67.483086 -0.61004668
53.625893 67.481972 -0.30561325
53.835369 67.411667 0
-8.1033783 88.200821 2.1241102
58.775063 65.746681 -0.90827066
57.752083 66.088661 -0.90877581
56.134415 66.62944 -0.91862363
64 64 -0
53.638008 67.463982 -0.60889351
53.621693 67.469437 -0.30561325
53.816441 67.404327 0
-8.0882111 88.098862 2.1228042
58.810478 65.727875 -0.90175092
57.725765 66.089035 -0.91223598
56.184284 66.602272 -0.91243136
64 64 -0
53.638733 67.449829 -0.6086055
53.622433 67.455254 -0.30546826
53.807404 67.393669 0
-8.1074066 88.008446 2.1225135
58.817768 65.718491 -0.90012258
57.737537 66.076706 -0.91015881
56.185966 66.591232 -0.91186905
64 64 -0
53.654213 67.430794 -0.60745233
53.613338 67.444344 -0.30561325
53.823071 67.374794 0
-8.2004852 87.942566 2.1244001
58.773457 65.726181 -0.90745646
57.715973 66.075432 -0.91292745
56.144238 66.594536 -0.91637212
64 64 -0
53.645164 67.419907 -0.60774034
53.614113 67.430161 -0.30546826
53.814041 67.364136 0
-8.278717 87.871613 2.1258519
58.827721 65.701324 -0.89767689
57.737297 66.060005 -0.90946734
56.141106 66.585045 -0.91637212
64 64 -0
53.650879 67.40416 -0.60716319
53.605045 67.419235 -0.30561325
53.790207 67.35833 0
-8.4210434 87.821602 2.1291897
58.797478 65.704315 -0.90256822
57.739578 66.050873 -0.90877581
56.195942 66.556557 -0.90961748
64 64 -0
53.597603 67.407761 -0.61004668
53.615742 67.401817 -0.30517772
53.815845 67.336266 0
-8.4942169 87.748634 2.1304958
58.768265 65.710381 -0.90745646
57.700188 66.059563 -0.91431314
56.141258 66.569214 -0.91580975
64 64 -0
53.605392 67.398254 -0.60946953
53.613689 67.395538 -0.30517772
53.803928 67.333351 0
-8.5875854 87.730675 2.132818
58.752098 65.708656 -0.90990216
57.697704 66.051949 -0.91431314
56.15749 66.553429 -0.91355824
64 64 -0
53.630795 67.376083 -0.60774034
53.619469 67.379776 -0.30488771
53.804871 67.319412 0
-8.6804428 87.663864 2.1347046
58.754734 65.70079 -0.90908796
57.723873 66.035049 -0.91015881
56.207588 66.526703 -0.90736592
64 64 -0
53.626724 67.363556 -0.60774034
53.625267 67.364029 -0.30459771
53.795902 67.308701 0
-8.7781982 87.598465 2.1367369
58.823246 65.671661 -0.89686269
57.759602 66.015129 -0.90462416
56.180367 66.525093 -0.91017985
64 64 -0
53.627586 67.349426 -0.60745233
53.606388 67.356277 -0.3050327
53.796879 67.294762 0
-8.9055481 87.54245 2.1396391
58.793007 65.674484 -0.90175092
57.733292 66.015266 -0.90808433
56.17247 66.517204 -0.91074431
64 64 -0
53.603848 67.343231 -0.6086055
53.607285 67.342125 -0.30488771
53.807755 67.277657 0
-8.993309 87.473427 2.1413808
58.800392 65.665176 -0.90012258
57.769089 65.995453 -0.90254706
56.188793 66.501541 -0.9084928
64 64 -0
53.64909 67.314888 -0.60572201
53.598309 67.331146 -0.3050327
53.813728 67.262161 0
-9.1156616 87.415329 2.1441386
58.798386 65.65889 -0.90012258
57.728439 66.000122 -0.90808433
56.185776 66.492104 -0.9084928
64 64 -0
53.590874 67.319664 -0.60889351
53.614098 67.312263 -0.30445215
53.799866 67.253014 0
-9.2082672 87.347496 2.1460252
58.80109 65.651115 -0.89930838
57.716473 65.995575 -0.90946734
56.124649 66.501122 -0.91524744
64 64 -0
53.616463 67.297691 -0.60716319
53.6101 67.299706 -0.30445215
53.795944 67.240685 0
-9.3255692 87.287331 2.1486375
58.733124 65.665695 -0.9107163
57.728424 65.983437 -0.90739018
56.08289 66.503853 -0.91974831
64 64 -0
53.597683 67.289818 -0.60802835
53.581352 67.294983 -0.30517772
53.787075 67.229927 0
-9.3982391 87.212814 2.1499436
58.778255 65.644485 -0.90256822
57.745155 65.969841 -0.90462416
56.113785 66.483604 -0.91580975
64 64 -0
53.603577 67.274147 -0.60745233
53.617012 67.269913 -0.30401716
53.79808 67.212891 0
-9.5154495 87.152206 2.1525559
58.714958 65.657402 -0.91316199
57.714062 65.971283 -0.90877581
56.125343 66.469513 -0.91412055
64 64 -0
53.609509 67.258484 -0.60687518
53.613071 67.257362 -0.30401716
53.799164 67.199005 0
-9.6375961 87.092911 2.1553137
58.712959 65.651016 -0.91316199
57.702114 65.966675 -0.91015881
56.117519 66.46151 -0.91468292
64 64 -0
53.625328 67.239754 -0.60572201
53.609142 67.244812 -0.30401716
53.785381 67.189774 0
-9.7596817 87.03334 2.1580708
58.748734 65.632881 -0.90664226
57.738056 65.947151 -0.90462416
56.109684 66.453491 -0.91524744
64 64 -0
53.606598 67.231827 -0.60658717
53.610207 67.230705 -0.3038716
53.801414 67.171249 0
-9.8420486 86.961182 2.1596675
58.765652 65.620689 -0.90338242
57.735706 65.939583 -0.90462416
56.121292 66.439445 -0.91355824
64 64 -0
53.607635 67.217735 -0.60629916
53.596371 67.22123 -0.30416214
53.802559 67.157387 0
-9.949173 86.89653 2.1619897
58.735363 65.623093 -0.90827066
57.7094 65.9394 -0.90808433
56.132923 66.42543 -0.91186905
64 64 -0
53.628471 67.197563 -0.60485798
53.61235 67.20253 -0.3035816
53.793781 67.146591 0
-10.061203 86.833191 2.1644571
58.761749 65.608032 -0.90338242
57.687874 65.937691 -0.91085297
56.105713 66.423378 -0.91468292
64 64 -0
53.624615 67.185028 -0.60485798
53.60849 67.189972 -0.3035816
53.789986 67.134262 0
-10.178154 86.771133 2.1670692
58.769272 65.598808 -0.90175092
57.728718 65.916862 -0.90462416
56.073624 66.422752 -0.91806132
64 64 -0
53.63562 67.167946 -0.60399282
53.599678 67.178932 -0.30372658
53.786209 67.121918 0
-10.305016 86.711868 2.1699719
58.72477 65.605446 -0.90908796
57.692818 65.919502 -0.90946734
56.095005 66.405777 -0.91524744
64 64 -0
53.641705 67.152405 -0.60341567
53.595844 67.166367 -0.30372658
53.787415 67.108063 0
-10.392067 86.640228 2.1717138
58.790031 65.582146 -0.89767689
57.662846 65.924446 -0.9136216
56.064384 66.409859 -0.91862363
64 64 -0
53.605148 67.15667 -0.605434
53.608856 67.155548 -0.30329102
53.790516 67.10038 0
-10.465385 86.613396 2.1734548
58.736069 65.591591 -0.90664226
57.71336 65.90081 -0.90600717
56.085796 66.392914 -0.91580975
64 64 -0
53.631042 67.135132 -0.60370481
53.585152 67.149002 -0.3038716
53.786777 67.088043 0
-10.577217 86.548965 2.1759222
58.748356 65.580948 -0.90419662
57.67263 65.904785 -0.9115445
56.03912 66.396538 -0.92087519
64 64 -0
53.597549 67.131546 -0.605434
53.596268 67.131927 -0.30343658
53.783054 67.075699 0
-10.7089 86.490295 2.1789699
58.765388 65.568924 -0.90093672
57.62228 65.911545 -0.91846478
56.055702 66.381081 -0.91862363
64 64 -0
53.603676 67.116005 -0.60485798
53.572578 67.12532 -0.30401716
53.79929 67.057373 0
-10.810699 86.422394 2.1811471
58.739819 65.569664 -0.90501076
57.648815 65.895226 -0.91431314
56.057697 66.370026 -0.91806132
64 64 -0
53.590015 67.106392 -0.605434
53.598701 67.103806 -0.30314603
53.795601 67.045044 0
-10.967209 86.370621 2.1849205
58.714218 65.570351 -0.90908796
57.64653 65.88755 -0.91431314
56.059704 66.358978 -0.91749895
64 64 -0
53.571388 67.098236 -0.60629916
53.604912 67.088272 -0.30285603
53.801899 67.029755 0
-11.123695 86.318497 2.1886938
58.764473 65.548538 -0.90012258
57.629814 65.884148 -0.91639024
56.017895 66.360909 -0.92199987
64 64 -0
53.582539 67.08123 -0.605434
53.581253 67.081612 -0.30343658
53.803253 67.015945 0
-11.339973 86.283714 2.1942089
58.762604 65.542213 -0.90012258
57.694935 65.856598 -0.9066987
56.029659 66.346962 -0.92031282
64 64 -0
53.598671 67.062798 -0.60428083
53.602478 67.061676 -0.30271047
53.809593 67.000687 0
-11.645996 86.274864 2.2023361
58.718056 65.548401 -0.90745646
57.610847 65.872978 -0.91846478
56.021957 66.33876 -0.92087519
64 64 -0
53.599937 67.048767 -0.60399282
53.573837 67.056419 -0.30343658
53.800983 66.989838 0
-11.792549 86.218529 2.2058194
58.75415 65.530937 -0.90093672
57.680824 65.84417 -0.90808433
56.0289 66.326263 -0.91974831
64 64 -0
53.601223 67.034752 -0.60370481
53.550198 67.049644 -0.30401716
53.802368 66.976051 0
-11.869217 86.141495 2.2072706
58.785522 65.514946 -0.89523435
57.611153 65.856133 -0.91777325
56.035847 66.313797 -0.91862363
64 64 -0
53.632339 67.012085 -0.60168648
53.561497 67.032669 -0.3035816
53.798782 66.96373 0
-11.990738 86.077347 2.2100284
58.774204 65.511391 -0.89686269
57.681221 65.827499 -0.90739018
56.023304 66.306999 -0.91974831
64 64 -0
53.588955 67.011055 -0.60399282
53.517899 67.031601 -0.30474269
53.790211 66.952843 0
-12.097237 86.008621 2.2123506
58.767639 65.506439 -0.89767689
57.703121 65.81292 -0.90393001
56.030281 66.294548 -0.91862363
64 64 -0
53.610176 66.991318 -0.60255164
53.514244 67.018936 -0.30474269
53.796646 66.93763 0
-12.203682 85.939659 2.2146728
58.746815 65.505562 -0.90093672
57.686459 65.809464 -0.90600717
56.061714 66.275116 -0.91468292
64 64 -0
53.601601 66.980179 -0.60283965
53.495632 67.010551 -0.30517772
53.798122 66.923859 0
-12.305054 85.869034 2.2168496
58.659443 65.523621 -0.91560453
57.602257 65.825233 -0.91777325
56.05407 66.266922 -0.91524744
64 64 -0
53.573139 66.974709 -0.60428083
53.496994 66.996437 -0.3050327
53.799599 66.910103 0
-12.431374 85.805336 2.2197523
58.762211 65.487465 -0.89767689
57.672462 65.796936 -0.90739018
56.051334 66.257317 -0.91524744
64 64 -0
53.5994 66.953636 -0.60255164
53.513378 66.978065 -0.30445215
53.791084 66.8992 0
-12.532639 85.734261 2.2219288
58.693813 65.499962 -0.90908796
57.622002 65.80294 -0.91431314
56.06329 66.243561 -0.91355824
64 64 -0
53.590866 66.942467 -0.60283965
53.514786 66.963974 -0.30430713
53.78759 66.886856 0
-12.65387 85.668625 2.2246866
58.706284 65.489532 -0.90664226
57.639149 65.789795 -0.9115445
56.02145 66.24498 -0.91806132
64 64 -0
53.612209 66.922882 -0.60139847
