# .PCD v0.7 - Point Cloud Data file format
VERSION 0.7
FIELDS x y z
SIZE 4 4 4
TYPE F F F
COUNT 1 1 1
WIDTH 1585
HEIGHT 1
VIEWPOINT 0 0 0 1 0 0 0
POINTS 1585
DATA ascii
60.151878 72.747116 -0.79657334
58.854691 75.695732 -0.71209723
54.824421 84.856888 -0.63636899
51.148075 93.213547 0
41.726891 114.62871 1.5447435
61.739517 69.121475 -0.92294157
61.331806 70.045212 -0.9115445
60.852261 71.131691 -0.86346418
60.130951 72.765938 -0.79871273
58.846832 75.675308 -0.71123207
54.805515 84.831535 -0.635934
51.106476 93.21228 0
41.638451 114.66357 1.5466303
61.747345 69.087097 -0.91723603
61.33466 70.019043 -0.90808433
60.855995 71.099998 -0.86008579
60.112045 72.780029 -0.80042464
58.830635 75.673798 -0.71152008
54.81823 84.734871 -0.63332117
51.094368 93.144341 0
41.524651 114.7553 1.5502585
61.72916 69.111465 -0.92212427
61.323318 70.024979 -0.90946734
60.843288 71.105492 -0.86121261
60.130619 72.709648 -0.79443389
58.822838 75.653351 -0.71065491
54.816387 84.671532 -0.63172507
51.065502 93.114456 0
41.457008 114.74236 1.5506941
61.727009 69.099693 -0.92049593
61.377316 69.884262 -0.88870382
60.840912 71.087738 -0.85952342
60.105465 72.737801 -0.7974301
58.815071 75.632927 -0.70979089
54.79565 84.650917 -0.6314345
51.015499 93.132088 0
51.095612 92.952339 0.8852638
61.698658 69.146568 -0.9294582
61.347675 69.93148 -0.89631826
60.826126 71.097839 -0.86121261
60.109581 72.700272 -0.79443389
58.803139 75.621918 -0.70950174
54.789795 84.597084 -0.63012838
50.986683 93.102112 0
51.141247 92.756454 0.87974876
61.722782 69.076149 -0.91723603
61.344624 69.919106 -0.89493257
60.83419 71.056908 -0.85670954
60.088566 72.718987 -0.79657334
58.791214 75.610916 -0.70921373
54.779808 84.55275 -0.6291123
50.970699 93.043633 0
51.163937 92.612892 0.87583041
61.710564 69.086922 -0.91968173
61.30864 69.979958 -0.90462416
60.827751 71.048447 -0.85614723
60.065395 72.742332 -0.79914027
58.7878 75.581032 -0.70777255
54.748581 84.555817 -0.62954783
50.927071 93.04686 0
51.180561 92.48362 0.87234706
61.714596 69.061607 -0.91560453
61.357166 69.853226 -0.88593513
60.825512 71.030708 -0.85445803
60.059055 72.728226 -0.79828519
58.77594 75.570015 -0.70748454
54.745132 84.497261 -0.6280967
50.883415 93.050011 0
51.171818 92.41127 0.87060541
61.728874 69.013824 -0.90745646
61.312836 69.932289 -0.89839274
60.798149 71.068527 -0.85952342
60.059101 72.700073 -0.79614574
58.772633 75.540138 -0.70604336
54.76754 84.381927 -0.62490392
50.844032 93.043617 0
51.146076 92.376816 0.87002486
61.7085 69.042587 -0.91316199
61.295284 69.951889 -0.90185553
60.789612 71.064651 -0.85952342
60.057091 72.676613 -0.79443389
58.752277 75.547928 -0.70690739
54.773026 84.304512 -0.6228717
50.839092 92.961365 0
51.120396 92.342339 0.86944431
61.67371 69.086472 -0.92212427
61.289253 69.927086 -0.89908689
60.789459 71.019905 -0.85502034
60.036133 72.667061 -0.79443389
58.737289 75.506996 -0.7051782
54.747753 84.230179 -0.6212756
50.760483 92.94841 0
51.08004 92.249695 0.86755759
61.677872 69.061195 -0.91805023
61.311394 69.859955 -0.8893953
60.764023 71.052971 -0.85952342
60.027802 72.6576 -0.79400635
58.721237 75.505325 -0.70546621
54.72982 84.204811 -0.62084001
50.742878 92.894547 0
51.030743 92.267136 0.86857373
61.684155 69.031448 -0.91316199
61.289627 69.888611 -0.89424109
60.766125 71.025978 -0.85670954
60.028084 72.629463 -0.79186529
58.718151 75.475449 -0.70402503
54.724968 84.151115 -0.6195339
50.714508 92.864319 0
50.994427 92.256157 0.86871874
61.678078 69.028648 -0.91316199
61.284615 69.880783 -0.89354962
60.757637 71.022064 -0.85670954
60.01981 72.619995 -0.79143769
58.710796 75.454964 -0.70315987
54.711517 84.116302 -0.61880833
50.721092 92.758469 0
50.979897 92.197968 0.86741263
61.65123 69.070686 -0.92131007
61.292274 69.845619 -0.88870382
60.736343 71.045799 -0.86008579
60.011551 72.610527 -0.79101014
58.701302 75.439186 -0.70258385
54.700325 84.076767 -0.61793727
50.686352 92.742401 0
50.945835 92.182213 0.86741263
61.653435 69.049911 -0.91805023
61.242928 69.93335 -0.90254706
60.734253 71.028038 -0.85839874
59.992496 72.624329 -0.79272205
58.694027 75.418701 -0.70171869
54.722061 83.966545 -0.61488944
50.656021 92.71685 0
50.911793 92.16642 0.86741263
61.647335 69.047073 -0.91805023
61.254837 69.889091 -0.89631826
60.747238 70.97802 -0.85276884
59.990757 72.600868 -0.79101014
58.680233 75.412277 -0.70171869
54.728676 83.889389 -0.61285776
50.625725 92.691277 0
50.875576 92.155289 0.86755759
61.641239 69.044228 -0.91805023
61.275349 69.826683 -0.88732082
60.734497 70.983299 -0.85389566
59.993412 72.568115 -0.78844315
58.670826 75.396477 -0.70114267
54.678238 83.934662 -0.61459947
50.606506 92.64209 0
50.843765 92.134705 0.86741263
61.660339 68.987671 -0.90827066
61.253403 69.855171 -0.89216393
60.73254 70.965538 -0.85220647
59.978706 72.572556 -0.7892983
58.665848 75.3713 -0.6999895
54.658573 83.913963 -0.61430889
50.569698 92.630592 0
50.818607 92.099968 0.86683208
61.645893 69.002731 -0.91153049
61.254875 69.833687 -0.8893953
60.708977 70.993782 -0.85614723
59.961788 72.581635 -0.7905826
58.663128 75.341431 -0.69854718
54.676556 83.813332 -0.61155164
50.532898 92.619049 0
50.782452 92.088722 0.86697704
61.651302 68.983421 -0.90827066
61.272736 69.786652 -0.88247502
60.713417 70.973404 -0.85389566
59.954418 72.583832 -0.79101014
58.658482 75.333527 -0.69825917
54.671234 83.793587 -0.61111611
50.513386 92.615631 0
50.776558 92.057228 0.86625147
61.632603 69.007401 -0.91316199
61.246449 69.824173 -0.88870382
60.713684 70.95105 -0.85164416
59.952827 72.560371 -0.7892983
58.640366 75.336426 -0.69883633
54.671761 83.730614 -0.60951942
50.487717 92.58049 0
50.733784 92.060028 0.86683208
61.647739 68.959862 -0.90501076
61.228664 69.843506 -0.89216393
60.705288 70.947075 -0.85164416
59.933685 72.574036 -0.79101014
58.631107 75.320587 -0.69825917
54.654602 83.705254 -0.60908443
50.482185 92.503006 0
50.693207 92.058067 0.86726761
61.626881 68.988266 -0.9107163
61.269024 69.740479 -0.87693769
60.701267 70.933899 -0.85051727
59.934357 72.545937 -0.78887075
58.626324 75.295403 -0.697106
54.704472 83.539093 -0.60429496
50.458935 92.463158 0
50.650383 92.060738 0.86784816
61.625107 68.976486 -0.90908796
61.231838 69.800568 -0.88662666
60.688507 70.939087 -0.85164416
59.924034 72.541016 -0.78887075
58.623817 75.265564 -0.69566482
54.678635 83.532532 -0.60443997
50.435768 92.423271 0
50.618729 92.039886 0.8677026
61.619099 68.97361 -0.90908796
61.205326 69.837959 -0.89285809
60.68671 70.921326 -0.84995496
59.920368 72.522186 -0.78758639
58.61467 75.249741 -0.6950888
54.661766 83.507202 -0.60400498
50.41267 92.383392 0
50.562416 92.07058 0.86915427
61.602394 68.993004 -0.91316199
61.211311 69.807434 -0.88870382
60.662949 70.949394 -0.85389566
59.905624 72.52652 -0.78844315
58.594372 75.257202 -0.69595283
54.662949 83.444366 -0.60240829
50.387394 92.348183 0
50.530754 92.049637 0.86900932
61.611382 68.958923 -0.90745646
61.228241 69.754349 -0.88109201
60.6744 70.904152 -0.84883028
59.906471 72.498421 -0.78630209
58.596481 75.218048 -0.69393563
54.677795 83.353485 -0.59994107
50.364445 92.308273 0
50.47884 92.070786 0.87016982
61.577435 69.013893 -0.91805023
61.212566 69.769043 -0.88385803
60.681538 70.868095 -0.84488952
59.891735 72.502724 -0.78715885
58.589684 75.197533 -0.69307047
54.63633 83.379639 -0.60110217
50.348366 92.254288 0
50.422318 92.101227 0.87162149
61.580002 68.993172 -0.91479039
61.188091 69.801796 -0.8893953
60.65551 70.900665 -0.84939259
59.901615 72.456177 -0.78330755
58.578411 75.18634 -0.69278246
54.662781 83.265434 -0.59790939
50.355091 92.153465 0
50.383842 92.094147 0.87191153
61.597736 68.941353 -0.90582812
61.192051 69.775833 -0.88593513
60.642738 70.905754 -0.85051727
59.889156 72.455833 -0.7837351
58.582993 75.142563 -0.69047612
54.646328 83.240112 -0.5974738
50.332458 92.113556 0
50.327179 92.12442 0.8733632
61.602608 68.916222 -0.90175092
61.165283 69.813019 -0.89216393
60.641071 70.888 -0.84883028
59.881191 72.446251 -0.78330755
58.569534 75.136009 -0.69047612
54.634476 83.205444 -0.59674829
50.323597 92.045563 0
50.274986 92.145248 0.8745243
61.559746 68.9888 -0.91560453
61.16708 69.791565 -0.8893953
60.63052 70.888496 -0.84939259
59.848434 72.487381 -0.78758639
58.55154 75.138718 -0.69105214
54.645531 83.124084 -0.59457105
50.31945 91.968231 0
50.213593 92.184647 0.87626541
61.573315 68.945915 -0.90827066
61.160084 69.788139 -0.8893953
60.617725 70.893539 -0.85051727
59.86079 72.436272 -0.78330755
58.542637 75.122849 -0.69047612
54.638458 83.080101 -0.59355491
50.299416 91.923653 0
50.142921 92.242615 0.87858766
61.573883 68.929688 -0.90582812
61.195183 69.699181 -0.87624621
60.613884 70.880333 -0.84939259
59.843807 72.445068 -0.78459024
58.540619 75.093048 -0.68903494
54.601635 83.096764 -0.59442604
50.272583 91.893066 0
50.049149 92.347076 0.88236099
61.55043 68.962189 -0.91234469
61.150543 69.77227 -0.88801229
60.614571 70.858009 -0.84714109
59.844967 72.41703 -0.7824508
58.524933 75.091072 -0.68932295
54.592373 83.057426 -0.59355491
50.231979 91.890465 0
49.9758 92.409409 0.88482821
61.597073 68.852928 -0.89278865
61.159157 69.737343 -0.88316649
60.606285 70.853912 -0.84714109
59.839352 72.402809 -0.78159571
58.513828 75.079819 -0.68903494
54.624691 82.934288 -0.59007215
50.186741 91.897125 0
49.916115 92.44368 0.8864249
61.560432 68.911995 -0.90419662
61.143299 69.751877 -0.88593513
60.60479 70.836151 -0.84545189
59.813221 72.429947 -0.78459024
58.509647 75.054649 -0.68788177
54.613373 82.899673 -0.58934659
50.15073 91.885071 0
49.867889 92.454559 0.88729548
61.528049 68.962135 -0.91397619
61.152004 69.716995 -0.88109201
60.594269 70.836586 -0.8460142
59.816769 72.397324 -0.78202325
58.514748 75.010971 -0.68557543
54.5975 82.874359 -0.588911
50.105446 91.891609 0
49.796444 92.511887 0.88961768
61.535309 68.932625 -0.90908796
61.14735 69.709053 -0.88039786
60.579193 70.846107 -0.8477034
59.822693 72.360107 -0.77902704
58.492199 75.022842 -0.6867286
54.625801 82.760719 -0.58571821
49.981026 92.056374 0
49.771294 92.476112 0.88903713
61.533783 68.920799 -0.90745646
61.099983 69.786354 -0.89285809
60.566364 70.851067 -0.84883028
59.798786 72.382599 -0.78159571
58.483524 75.00692 -0.68615144
54.589172 82.777252 -0.5865888
49.921478 92.090607 0
49.764839 92.403145 0.88729548
61.530056 68.913399 -0.90664226
61.131302 69.706635 -0.88109201
60.571789 70.819664 -0.84545189
59.793278 72.368332 -0.78073895
58.472549 74.995628 -0.68586344
54.613171 82.672997 -0.58368599
49.805733 92.236328 0
38.025463 115.67054 1.6151327
61.537479 68.883919 -0.90175092
61.124409 69.703163 -0.88109201
60.556686 70.829132 -0.84714109
59.787788 72.354088 -0.7798838
58.468582 74.970467 -0.68471026
54.59763 82.647736 -0.583251
49.727097 92.307465 0
37.953697 115.65766 1.6157128
61.509266 68.925064 -0.90990216
61.135635 69.663864 -0.87555474
60.546143 70.829498 -0.8477034
59.770744 72.36274 -0.78116816
58.45533 74.963776 -0.68471026
54.666573 82.45549 -0.57759041
49.605995 92.462051 0
37.879566 115.64935 1.6164389
61.518974 68.891182 -0.90419662
61.110634 69.696198 -0.88109201
60.540192 70.820786 -0.84714109
59.781551 72.316399 -0.7773152
58.435066 74.970909 -0.68557543
54.646629 82.439568 -0.57744539
49.581032 92.426071 0
37.800728 115.65018 1.6174544
61.515305 68.883781 -0.90338242
61.115135 69.670334 -0.87762922
60.543472 70.793961 -0.84432715
59.75753 72.33876 -0.7798838
58.438236 74.9319 -0.68355709
54.67384 82.330986 -0.57439762
49.428696 92.640556 0
37.735973 115.62314 1.6176
61.502663 68.89399 -0.90582812
61.108284 69.66684 -0.87762922
60.519104 70.821457 -0.84826577
59.74979 72.329063 -0.77945626
58.436783 74.902138 -0.68211591
54.649338 82.324326 -0.57454264
49.363338 92.683212 0
36.676849 117.5447 1.6788452
61.515453 68.861664 -0.90012258
61.104862 69.665092 -0.87762922
60.540413 70.769585 -0.84207565
59.740089 72.335625 -0.78031141
58.437263 74.884949 -0.68125075
54.66901 82.258522 -0.57265598
49.329437 92.706795 0
36.611397 117.59298 1.6808774
61.487038 68.902641 -0.90827066
61.093437 69.670532 -0.87901485
60.522964 70.783493 -0.84432715
59.727684 72.335037 -0.78073895
58.424114 74.87822 -0.68125075
54.710953 82.122375 -0.56873763
49.273399 92.730728 0
43.906761 103.20071 1.2302424
61.499199 68.864426 -0.90175092
61.08659 69.667015 -0.87901485
60.512451 70.783798 -0.84488952
59.727005 72.311607 -0.77902704
58.410973 74.871475 -0.68125075
54.689064 82.111145 -0.56873763
49.205372 92.777733 0
43.826141 103.24112 1.2322745
61.491051 68.865814 -0.90256822
61.077446 69.667946 -0.87970638
60.511246 70.766022 -0.84320033
59.726376 72.288185 -0.7773152
58.397842 74.864716 -0.68125075
54.707672 82.021362 -0.56627035
49.165844 92.769073 0
43.86924 103.0412 1.2267596
61.496532 68.840805 -0.89849108
61.061378 69.682236 -0.88247502
60.493732 70.779861 -0.84545189
59.721077 72.273903 -0.77646011
58.387093 74.853348 -0.68096274
54.695454 81.991653 -0.5656898
49.10479 92.801994 0
43.697952 103.25687 1.2343062
61.454269 68.90799 -0.91153049
61.093788 69.602966 -0.87070894
60.494904 70.757576 -0.84320033
59.696903 72.296059 -0.77902704
58.378742 74.837387 -0.68038672
54.700043 81.929649 -0.56409311
49.067604 92.788589 0
43.461506 103.59674 1.2457719
61.493958 68.817223 -0.89523435
61.054607 69.661758 -0.88039786
60.482048 70.76236 -0.84432715
59.689251 72.286308 -0.7785995
58.36565 74.830582 -0.68038672
54.687981 81.899956 -0.56351256
48.96077 92.909042 0
43.430466 103.53962 1.2447557
61.479 68.831703 -0.89849108
61.061687 69.631516 -0.87624621
60.480934 70.744583 -0.84263796
59.686367 72.267433 -0.7773152
58.371712 74.787079 -0.67808038
54.719242 81.787338 -0.56031978
48.697128 93.329208 0
64 64 0
61.459408 68.854942 -0.90338242
61.061867 69.614624 -0.87416905
60.486919 70.713318 -0.83926177
59.685902 72.244019 -0.77560335
58.363483 74.771095 -0.67750323
54.724255 81.725471 -0.55872369
48.611027 93.407539 0
37.884842 113.90472 1.5730442
61.448956 68.860611 -0.90501076
61.057415 69.606628 -0.87347758
60.476448 70.713562 -0.83982408
59.671169 72.247902 -0.77646011
58.338455 74.78717 -0.67894441
54.726997 81.668228 -0.55727202
48.568245 93.402756 0
37.800411 113.91914 1.5744953
61.440773 68.861916 -0.90582812
61.050644 69.603065 -0.87347758
60.456505 70.731781 -0.84263796
59.673161 72.219948 -0.77432066
58.342285 74.748291 -0.67692721
54.734703 81.601822 -0.55553031
48.462421 93.517654 0
37.713486 113.93804 1.576092
61.451057 68.828209 -0.90012258
61.034504 69.617249 -0.87624621
60.462605 70.700539 -0.83926177
59.672821 72.196556 -0.77260882
58.336548 74.727722 -0.67606205
54.723137 81.57225 -0.55495036
48.431622 93.489655 0
37.641033 113.92921 1.5768175
61.42672 68.860077 -0.90664226
61.030064 69.60923 -0.87555474
60.456898 70.691757 -0.83869725
59.653309 72.209473 -0.77432066
58.316326 74.734589 -0.67692721
54.726234 81.515091 -0.55349869
48.366783 93.526009 0
37.595306 113.86978 1.575947
61.40926 68.878792 -0.9107163
61.009174 69.632217 -0.87970638
60.451195 70.682983 -0.83813488
59.653023 72.186073 -0.77260882
58.305794 74.723129 -0.67663807
54.739197 81.439621 -0.551467
48.318905 93.530098 0
37.542385 113.82407 1.5755115
61.438225 68.810204 -0.89849108
61.025951 69.58432 -0.87278605
60.445507 70.67421 -0.83757257
59.643135 72.180817 -0.77260882
58.300129 74.70256 -0.67577404
54.727901 81.410072 -0.55088645
48.290577 93.497345 0
37.506626 113.7462 1.5740603
61.451035 68.77224 -0.89197445
61.021576 69.576286 -0.87209189
60.437447 70.669914 -0.83757257
59.628422 72.184593 -0.7734639
58.299385 74.672852 -0.67433286
54.741146 81.334686 -0.54885477
48.230431 93.524239 0
37.390228 113.81957 1.5773981
61.424267 68.808372 -0.89930838
61.014843 69.572685 -0.87209189
60.419792 70.683525 -0.83982408
59.637928 72.143097 -0.77004015
58.274281 74.688751 -0.67577404
54.739838 81.286842 -0.54769361
48.221794 93.454704 0
37.352135 113.74615 1.576092
61.42548 68.792191 -0.89686269
61.022354 69.542564 -0.86794025
60.426155 70.652321 -0.83644569
59.61351 72.16497 -0.77260882
58.273609 74.65905 -0.67433286
54.743557 81.229851 -0.54624194
48.173904 93.458542 0
37.245323 113.80089 1.5788492
61.405628 68.815178 -0.90175092
60.989479 69.587555 -0.87555474
60.413292 70.65696 -0.83757257
59.610954 72.146103 -0.77132446
58.27301 74.629333 -0.67289054
54.717812 81.227814 -0.54653251
48.143261 93.430222 0
34.77697 118.23816 1.7206432
61.41156 68.790298 -0.89767689
60.977962 69.592728 -0.87693769
60.40284 70.657082 -0.83813488
59.615757 72.113693 -0.76875752
58.247868 74.64518 -0.67433286
54.738998 81.138863 -0.5440653
48.107712 93.411041 0
34.701576 118.2211 1.7212237
61.415192 68.769783 -0.89441699
60.968819 69.593483 -0.87762922
60.399635 70.643806 -0.8370102
59.588837 72.139977 -0.77175206
58.249802 74.610924 -0.67260253
54.730675 81.10482 -0.54333973
48.062267 93.410126 0
34.62122 118.21308 1.7220948
61.414146 68.75798 -0.89278865
61.002792 69.514877 -0.86586314
60.403751 70.617111 -0.83419418
59.601067 72.094048 -0.76790076
58.236984 74.603966 -0.67260253
54.714981 81.084465 -0.54304916
48.026741 93.390846 0
43.275574 102.13301 1.2121011
61.375286 68.815605 -0.90419662
60.967316 69.564117 -0.87416905
60.393318 70.617233 -0.8347587
59.591293 72.08873 -0.76790076
58.239025 74.569748 -0.67087334
54.719208 81.027611 -0.54159808
48.008671 93.339546 0
43.172318 102.21288 1.215439
61.381321 68.790749 -0.90012258
60.975029 69.534042 -0.87001741
60.382889 70.617332 -0.83532101
59.566742 72.110435 -0.77046937
58.228737 74.55825 -0.67058533
54.728554 80.961662 -0.53985637
47.995705 93.279083 0
43.128647 102.18314 1.215294
61.387413 68.765907 -0.89604849
60.973171 69.521576 -0.86863178
60.379787 70.604034 -0.83419418
59.556946 72.105072 -0.77046937
58.215984 74.55127 -0.67058533
54.710564 80.945892 -0.53971136
47.950333 93.277977 0
43.050053 102.21712 1.2171806
61.3507 68.819061 -0.90664226
60.966503 69.517914 -0.86863178
60.364464 70.613014 -0.83588338
59.552105 72.090691 -0.76961261
58.19577 74.557861 -0.67144936
54.660049 80.989304 -0.54145306
47.912453 93.263138 0
42.936302 102.31473 1.221099
61.37064 68.762321 -0.89686269
60.973476 69.481667 -0.86378866
60.359856 70.593063 -0.83419418
59.554821 72.051147 -0.7666164
58.191639 74.520157 -0.66972017
54.68454 80.872253 -0.53825969
47.869507 93.215706 0
33.907494 118.50384 1.7387848
61.362495 68.763458 -0.89767689
60.935261 69.535072 -0.87278605
60.351891 70.588661 -0.83419418
59.547581 72.041283 -0.76618886
58.183949 74.504074 -0.66914302
54.704426 80.788261 -0.53593802
47.836742 93.191628 0
33.763626 118.60837 1.7432837
61.361538 68.751633 -0.89604849
60.955372 69.483109 -0.86517161
60.351326 70.570938 -0.83250713
59.54285 72.026932 -0.76533377
58.176277 74.487999 -0.668567
54.684147 80.777016 -0.53593802
47.786316 93.199387 0
33.667389 118.62631 1.7450254
61.372635 68.718208 -0.89034295
60.929218 69.514488 -0.87070894
60.338448 70.575394 -0.83363181
59.535648 72.017059 -0.76490623
58.153542 74.499031 -0.66972017
54.681583 80.733963 -0.53492194
47.766243 93.152481 0
33.591293 118.60778 1.7456059
61.328373 68.784081 -0.90338242
60.915215 69.523926 -0.87278605
60.320595 70.588715 -0.83588338
59.520962 72.020615 -0.76576132
58.153469 74.469383 -0.66827899
54.699379 80.654625 -0.53274471
47.70565 93.178299 0
33.507591 118.60277 1.7466221
61.373314 68.690285 -0.88626891
60.908543 69.520195 -0.87278605
60.344913 70.526627 -0.82856637
59.506264 72.024147 -0.7666164
58.14336 74.457787 -0.66798985
54.686874 80.629784 -0.53230971
47.672947 93.154053 0
33.434021 118.57948 1.7470577
61.357967 68.704346 -0.88952881
60.914169 69.494568 -0.86932325
60.327076 70.539925 -0.83081794
59.51416 71.987389 -0.76362187
58.138321 74.43718 -0.66712582
54.669338 80.613976 -0.53216416
47.637733 93.134308 0
33.365547 118.54704 1.7472026
61.345005 68.714073 -0.89197445
60.90506 69.495216 -0.87001741
60.316685 70.539909 -0.83138031
59.504513 71.981964 -0.76362187
58.138412 74.407547 -0.66568351
54.664566 80.575531 -0.53129357
47.635742 93.055557 0
33.279259 118.54621 1.7483637
61.334454 68.719467 -0.89360285
60.891029 69.50457 -0.87209189
60.318783 70.517754 -0.82912874
59.497395 71.972054 -0.76319432
58.128384 74.39595 -0.6653955
54.705883 80.455635 -0.52781022
47.621124 92.999512 0
33.223598 118.49095 1.7477832
61.343365 68.690445 -0.88871461
60.876961 69.513908 -0.87416905
60.318417 70.500046 -0.82744169
59.492832 71.957664 -0.76233757
58.126022 74.37085 -0.66424233
54.657833 80.494141 -0.52940691
47.60918 92.938934 0
33.121925 118.51702 1.7498149
61.357231 68.65284 -0.88219488
60.85791 69.531944 -0.87762922
60.30555 70.504425 -0.82856637
59.480686 71.956673 -0.76276511
58.105827 74.377243 -0.66510749
54.671272 80.424095 -0.52752024
47.589653 92.891953 0
33.076607 118.44352 1.7486538
61.295345 68.748428 -0.90093672
60.905857 69.432236 -0.86240298
60.290146 70.513206 -0.83025557
59.471077 71.95121 -0.76276511
58.088181 74.379089 -0.66568351
54.648865 80.417328 -0.5276652
47.547028 92.885674 0
33.005699 118.41516 1.7489443
61.306767 68.715118 -0.89523435
60.891827 69.441566 -0.86448014
60.297405 70.482231 -0.82687718
59.461472 71.945732 -0.76276511
58.098732 74.33152 -0.66308916
54.644493 80.378944 -0.52679467
47.509556 92.870285 0
42.051228 102.42633 1.2359029
61.298618 68.716148 -0.89604849
60.867805 69.468269 -0.86932325
60.276939 70.499817 -0.82969326
59.45697 71.931343 -0.76191002
58.078537 74.337852 -0.66395432
54.640213 80.340561 -0.52592355
47.435875 92.918091 0
41.932499 102.52603 1.2399663
61.305229 68.691452 -0.89197445
60.848698 69.486244 -0.87278605
60.281754 70.473267 -0.82687718
59.452511 71.916931 -0.76105326
58.07378 74.31723 -0.66308916
54.646355 80.284187 -0.52447242
47.351692 92.983795 0
41.914429 102.44978 1.2383702
61.314369 68.662483 -0.88708311
60.872124 69.43026 -0.86448014
60.268856 70.477585 -0.82800406
59.45063 71.898094 -0.75977057
58.071648 74.29213 -0.66193599
54.655224 80.223335 -0.52287579
47.306293 92.981705 0
42.39193 101.51346 1.2090534
61.28896 68.693481 -0.89360285
60.848003 69.456879 -0.86932325
60.255955 70.481865 -0.82912874
59.443665 71.888138 -0.75934142
58.061798 74.280479 -0.66164798
54.630424 80.221039 -0.5231663
47.237446 93.020096 0
42.375214 101.43781 1.2074567
61.270905 68.711578 -0.89767689
60.866558 69.40966 -0.86240298
60.260857 70.455353 -0.82631487
59.434135 71.882622 -0.75934142
58.054562 74.264359 -0.66107196
54.662926 80.119766 -0.52026355
47.199787 93.004318 0
42.319576 101.42964 1.2080373
61.287556 68.669815 -0.89034295
60.854977 69.414551 -0.86378866
60.242851 70.468407 -0.82856637
59.406563 71.90818 -0.76233757
58.055153 74.234802 -0.65963078
54.622574 80.144424 -0.52142465
47.156906 92.997505 0
42.162132 101.59664 1.2142779
61.296837 68.640915 -0.88545477
60.850971 69.406403 -0.86309445
60.247822 70.44191 -0.8257525
59.425426 71.853836 -0.75763118
58.021973 74.263351 -0.66193599
54.623997 80.097153 -0.52026355
47.129745 92.963638 0
41.910095 101.92497 1.2257434
61.281261 68.654716 -0.88871461
60.811543 69.458908 -0.87209189
60.232349 70.450539 -0.82744169
59.410767 71.857162 -0.75848627
58.020012 74.238258 -0.66078281
54.625523 80.049911 -0.51910239
47.089504 92.952232 0
41.772552 102.05531 1.2308229
61.278145 68.647156 -0.88789731
60.832836 69.40744 -0.86448014
60.221992 70.450363 -0.82800406
59.385712 71.878189 -0.76105326
58.020714 74.20871 -0.65934163
54.616642 80.020638 -0.51852185
47.051903 92.936264 0
41.710823 102.05534 1.231694
61.297558 68.601242 -0.87974918
60.828846 69.399292 -0.86378866
60.219353 70.437027 -0.82687718
59.378792 71.868179 -0.76062572
58.008385 74.201477 -0.65934163
54.602551 80.000336 -0.51823187
47.022221 92.906799 0
41.651699 102.05078 1.2324196
61.241829 68.683167 -0.89604849
60.81469 69.408409 -0.86586314
60.216732 70.423698 -0.8257525
59.371895 71.85817 -0.76019818
57.998684 74.189774 -0.65905362
54.604324 79.95314 -0.51707071
47.000519 92.863823 0
41.60574 102.02374 1.2324196
61.241207 68.671303 -0.89441699
60.83112 69.365677 -0.85963434
60.201218 70.432259 -0.82744169
59.378059 71.826057 -0.75763118
57.991631 74.173622 -0.6584776
54.598263 79.919411 -0.5163452
46.936539 92.892563 0
41.567741 101.98323 1.231984
61.258232 68.629692 -0.88708311
60.816967 69.374802 -0.8617115
60.208992 70.401421 -0.8240633
59.358154 71.83812 -0.75934142
57.989887 74.148544 -0.65732443
54.616116 79.845428 -0.51431292
46.914898 92.849533 0
41.553642 101.90244 1.2302424
61.224873 68.673134 -0.89604849
60.779732 69.422722 -0.87001741
60.198666 70.401199 -0.82462567
59.359161 71.814865 -0.75763118
57.977631 74.141281 -0.65732443
54.591663 79.843025 -0.5146035
46.890682 92.810974 0
41.513161 101.86636 1.2299523
61.262474 68.603477 -0.88300908
60.807228 69.369026 -0.8617115
60.187004 70.41201 -0.82631487
59.354443 71.812057 -0.75763118
57.98473 74.115395 -0.65588212
54.629902 79.756943 -0.51199126
46.873276 92.800629 0
32.52063 116.93633 1.7200631
61.231602 68.642616 -0.89115715
60.793034 69.378098 -0.86378866
60.189671 70.389938 -0.8240633
59.363415 71.775574 -0.75463498
57.964561 74.121452 -0.65674728
54.63216 79.7099 -0.51083016
46.825165 92.802261 0
41.372711 101.94604 1.2338707
61.251358 68.596848 -0.88300908
60.771091 69.400047 -0.86794025
60.184559 70.380974 -0.82350099
59.346115 71.783188 -0.75591928
57.95499 74.109718 -0.65645927
54.629192 79.671799 -0.50995904
46.795715 92.77256 0
41.462891 101.69121 1.226469
61.225471 68.627441 -0.88952881
60.787788 69.357414 -0.8617115
60.169006 70.389435 -0.82519019
59.336716 71.777557 -0.75591928
57.956078 74.080223 -0.65501809
54.626293 79.633728 -0.50908852
46.777023 92.72496 0
41.513557 101.50351 1.2212446
61.224979 68.615601 -0.88789731
60.786491 69.344925 -0.86032581
60.163918 70.380432 -0.82462567
59.316738 71.78952 -0.75763118
57.949234 74.064041 -0.65444094
54.61277 79.61348 -0.50879794
46.750374 92.690742 0
41.473618 101.4674 1.2209539
61.237263 68.582626 -0.88219488
60.780037 69.341034 -0.86032581
60.169327 70.354034 -0.8218118
59.339138 71.731087 -0.75249559
57.93708 74.056725 -0.65444094
54.601952 79.588783 -0.50836295
46.718407 92.665421 0
41.425682 101.4446 1.221099
61.218945 68.600433 -0.88626891
60.765797 69.350029 -0.86240298
60.156387 70.358109 -0.82293862
59.300591 71.773773 -0.75720197
57.916901 74.062675 -0.6553061
54.604633 79.54184 -0.50720179
46.678391 92.653442 0
41.383141 101.41286 1.2209539
61.228767 68.571693 -0.88137758
60.774933 69.320381 -0.85825133
60.143444 70.362144 -0.8240633
59.309826 71.737366 -0.75420743
57.910107 74.046478 -0.65473008
54.610104 79.490479 -0.50589567
46.654575 92.614685 0
41.297539 101.45216 1.2231312
61.171894 68.652824 -0.89767689
60.750275 69.346481 -0.86309445
60.151592 70.331436 -0.82068712
59.305817 71.722908 -0.75335068
57.906033 74.025848 -0.65386492
54.610291 79.448029 -0.50487959
46.603798 92.620384 0
41.198326 101.5135 1.2260334
61.212574 68.573433 -0.88300908
60.764706 69.308273 -0.85755718
60.122787 70.361496 -0.82519019
59.285801 71.734772 -0.75506252
57.902004 74.005219 -0.65299976
54.605152 79.41449 -0.50415403
46.552971 92.626022 0
41.082691 101.60132 1.2298074
61.176117 68.620682 -0.89278865
60.758293 69.304359 -0.85755718
60.123055 70.343788 -0.82350099
59.289841 71.707169 -0.75292313
57.887222 74.002251 -0.65328777
54.586533 79.40313 -0.50415403
46.518394 92.604919 0
40.988499 101.65341 1.2324196
61.1912 68.583542 -0.88626891
60.733532 69.330391 -0.86240298
60.128666 70.317444 -0.82068712
59.272484 71.714607 -0.75420743
57.888653 73.972809 -0.65184659
54.608662 79.325272 -0.50197679
46.472961 92.601524 0
40.929443 101.64772 1.2331451
61.190845 68.571716 -0.88463742
60.737602 69.309341 -0.85963434
60.115719 70.321411 -0.8218118
59.255108 71.722 -0.75549012
57.879314 73.961014 -0.65155858
54.606468 79.287354 -0.50110626
46.413895 92.620232 0
40.875809 101.63311 1.2335807
61.185322 68.568321 -0.88463742
60.715393 69.331032 -0.86378866
60.116074 70.303749 -0.82012475
59.261936 71.690041 -0.75292313
57.861862 73.96241 -0.6521346
54.617996 79.227318 -0.49950957
46.360222 92.629974 0
40.863064 101.55205 1.2318391
61.190197 68.548096 -0.88137758
60.69577 69.348396 -0.86724877
60.108459 70.299049 -0.82012475
59.252647 71.684311 -0.75292313
57.863419 73.932991 -0.65069342
54.602329 79.211555 -0.49936455
46.298279 92.652924 0
32.096748 115.64026 1.6952453
61.156067 68.590919 -0.89034295
60.710449 69.31028 -0.8617115
60.098179 70.29866 -0.82068712
59.246067 71.67421 -0.75249559
57.851421 73.925568 -0.65069342
54.589436 79.191345 -0.49907401
46.249969 92.653641 0
32.028893 115.61052 1.6955358
61.184425 68.532898 -0.87974918
60.71727 69.284996 -0.85825133
60.09325 70.289627 -0.82012475
59.250351 71.646637 -0.75035447
57.842159 73.913742 -0.65040541
54.584793 79.157898 -0.49834844
46.207115 92.645432 0
31.972046 115.56301 1.6952453
61.178951 68.529495 -0.87974918
60.710884 69.281021 -0.85825133
60.08297 70.289207 -0.82068712
59.227535 71.662697 -0.75249559
57.835659 73.897499 -0.64982826
54.593956 79.102402 -0.49689734
46.167019 92.632744 0
40.665359 101.46624 1.2327095
61.168247 68.534462 -0.88137758
60.699196 69.285545 -0.85963434
60.07806 70.280167 -0.82012475
59.229156 71.639511 -0.75078368
57.829178 73.881279 -0.64925224
54.567451 79.104256 -0.4973329
46.129681 92.615585 0
40.592571 101.4821 1.2341613
61.152279 68.547791 -0.88463742
60.69281 69.281555 -0.85963434
60.078568 70.262497 -0.81843555
59.214485 71.642433 -0.75163883
57.814503 73.878197 -0.64954025
54.571274 79.05761 -0.49617177
46.097878 92.589561 0
40.558334 101.43617 1.2335807
61.157299 68.527603 -0.88137758
60.702435 69.252068 -0.8554827
60.060196 70.274971 -0.82068712
59.218903 71.614906 -0.74949938
57.810814 73.857582 -0.64867622
54.56414 79.028603 -0.49559122
46.077179 92.545876 0
40.521408 101.39462 1.2331451
61.107052 68.595291 -0.89523435
60.680058 69.273544 -0.85963434
60.071571 70.240097 -0.81674635
59.198765 71.626503 -0.75121123
57.801674 73.845711 -0.64838707
54.543221 79.021584 -0.49573621
46.056564 92.502182 0
35.938553 108.5741 1.4710166
61.125256 68.554161 -0.88789731
60.673687 69.269531 -0.85963434
60.061325 70.239639 -0.81730872
59.20874 71.590302 -0.74821508
57.800827 73.820717 -0.6472339
54.538948 78.988174 -0.49501064
42.093758 98.703804 0
35.91523 108.49181 1.46942
61.111824 68.563217 -0.89034295
60.653908 69.286705 -0.86309445
60.072803 70.204826 -0.81337011
59.188587 71.60186 -0.74992692
57.788963 73.813217 -0.6472339
54.570866 78.897697 -0.49239841
42.188229 98.461823 0
35.908737 108.38319 1.4669527
61.122196 68.534691 -0.88545477
60.660965 69.261482 -0.85963434
60.070763 70.19149 -0.81224328
59.179405 71.596039 -0.74992692
57.777111 73.805702 -0.6472339
54.558445 78.87751 -0.49210787
42.213539 98.329971 0
35.866264 108.33167 1.4663721
61.0956 68.570496 -0.89278865
60.676617 69.229828 -0.85479122
60.061565 70.197701 -0.81337011
59.177567 71.588799 -0.74949938
57.785057 73.780121 -0.64579272
54.555027 78.863037 -0.49181786
42.24305 98.237732 0
39.897568 101.9287 1.2550602
61.095398 68.55864 -0.89115715
60.664913 69.234268 -0.85617417
60.045895 70.20578 -0.81505716
59.176682 71.569969 -0.74821508
57.767681 73.781334 -0.64636987
54.545456 78.838463 -0.4913823
42.280006 98.088509 0
39.709339 102.12305 1.2624619
61.151093 68.459328 -0.8724153
60.642387 69.255592 -0.86032581
60.038399 70.201004 -0.81505716
59.167538 71.56414 -0.74821508
57.769798 73.751984 -0.64492756
54.530331 78.822655 -0.49123731
42.303276 97.961365 0
39.67728 102.07178 1.2617364
61.127041 68.485023 -0.87812084
60.654976 69.22197 -0.8554827
60.039124 70.18338 -0.81337011
59.147324 71.575584 -0.74992692
57.769169 73.727043 -0.64377552
54.537651 78.77182 -0.4899312
42.295948 97.88253 0
39.572433 102.13426 1.2647841
61.102932 68.510651 -0.88382328
60.664944 69.192581 -0.85132837
60.026169 70.187134 -0.81449485
59.138176 71.569717 -0.74992692
57.754627 73.723862 -0.64406353
54.531044 78.742882 -0.48935065
42.32534 97.746796 0
39.557266 102.05661 1.2631874
61.108189 68.490524 -0.88056338
60.642365 69.213867 -0.8554827
60.010441 70.195152 -0.81618404
59.142929 71.542259 -0.74778754
57.742882 73.716309 -0.64406353
54.521683 78.718323 -0.48891509
42.304314 97.689949 0
29.478039 117.6071 1.7807277
61.078636 68.524399 -0.88789731
60.63063 69.218231 -0.8568657
60.022255 70.160439 -0.81224328
59.128242 71.545021 -0.74864429
57.739571 73.695694 -0.64319837
54.529274 78.667564 -0.48760897
42.297501 97.611237 0
29.362545 117.64394 1.7833406
61.102715 68.475227 -0.87893504
60.635235 69.197311 -0.85409707
60.012043 70.159904 -0.8128078
59.127502 71.526192 -0.74735993
57.733475 73.679451 -0.64262235
54.508736 78.660469 -0.48775396
42.321953 97.484512 0
29.354237 117.5148 1.7804378
61.09193 68.480011 -0.88056338
60.628956 69.193237 -0.85409707
60.015671 70.138031 -0.81055623
59.132385 71.498772 -0.74522054
57.727421 73.663185 -0.6420452
54.524982 78.59668 -0.48601228
42.341022 97.366608 0
39.715981 101.4106 1.2456263
61.070335 68.501358 -0.88545477
60.614471 69.201782 -0.85617417
59.997169 70.150253 -0.8128078
59.123329 71.492889 -0.74522054
57.715752 73.655594 -0.6420452
54.521523 78.563454 -0.48528674
42.374535 97.227005 0
39.835197 101.12863 1.2372091
61.10812 68.43158 -0.8724153
60.608189 69.197685 -0.85617417
59.9953 70.136887 -0.81168091
59.111477 71.491287 -0.74564809
57.715397 73.630669 -0.64089203
54.501095 78.556335 -0.48543173
42.405514 97.091873 0
39.884071 100.95579 1.2324196
61.067604 68.470032 -0.88137758
60.603897 69.176888 -0.85409707
59.999996 70.097443 -0.80774021
59.104652 71.46228 -0.74393624
57.697811 73.606812 -0.64031601
54.483044 78.507271 -0.48456118
42.43124 96.878571 0
39.783432 100.91478 1.2330002
61.078499 68.441711 -0.87648934
60.581097 69.197937 -0.85825133
59.973083 70.12233 -0.81168091
59.075886 71.486389 -0.74693239
57.697578 73.581902 -0.63916284
54.496941 78.447998 -0.48296449
42.460175 96.748116 0
39.676025 100.981 1.2361929
61.084019 68.421677 -0.8732295
60.591396 69.168663 -0.85409707
59.968483 70.113228 -0.8111186
59.080986 71.458984 -0.74479133
57.688862 73.569946 -0.6388737
54.496651 78.410484 -0.48209393
42.486519 96.622139 0
39.597023 101.00365 1.2379346
61.095032 68.393417 -0.86834127
60.579613 69.17292 -0.8554827
59.983521 70.07444 -0.80661553
59.074806 71.448761 -0.74436378
57.668739 73.575264 -0.63973886
54.479244 78.398987 -0.48209393
42.490181 96.530991 0
39.50074 101.05215 1.2405468
61.048759 68.451691 -0.88056338
60.556736 69.193871 -0.85963434
59.950916 70.107697 -0.81168091
59.077156 71.42569 -0.74265188
57.662888 73.55899 -0.63916284
54.490574 78.344154 -0.48064226
42.49115 96.444244 0
28.610672 117.38176 1.78871
61.029705 68.468704 -0.88463742
60.5588 69.177162 -0.85755718
59.949158 70.094345 -0.81055623
59.062496 71.428291 -0.74350864
57.665657 73.529793 -0.63772166
54.47612 78.328323 -0.48049727
42.492294 96.357559 0
28.534691 117.35627 1.7892905
61.021557 68.469231 -0.88545477
60.574795 69.139618 -0.85202253
59.950256 70.076752 -0.80886704
59.059227 71.413773 -0.74265188
57.662754 73.509216 -0.6368565
54.473225 78.295189 -0.4797717
42.513828 96.240593 0
28.452946 117.33933 1.7901617
61.051861 68.412201 -0.874861
60.568588 69.135475 -0.85202253
59.957031 70.050735 -0.80605316
59.03886 71.424866 -0.74436378
57.645527 73.510139 -0.63743252
54.473274 78.257751 -0.47890115
42.518265 96.149689 0
28.35677 117.34386 1.7917578
61.035526 68.425064 -0.87812084
60.554016 69.143814 -0.85409707
59.929932 70.075386 -0.80999172
59.038467 71.406067 -0.74307948
57.631153 73.506767 -0.63772166
54.456055 78.246231 -0.47890115
42.53447 96.041557 0
38.54847 101.99145 1.2771204
61.052231 68.388657 -0.8716011
60.55899 69.122986 -0.85132837
59.945259 70.036713 -0.80548865
59.026653 71.404343 -0.74350864
57.622562 73.494759 -0.63743252
54.453346 78.213104 -0.47817504
42.510277 95.993996 0
38.522873 101.93047 1.2761042
61.027611 68.41378 -0.87730354
60.558403 69.110512 -0.84994543
59.935123 70.036034 -0.80605316
59.03492 71.372772 -0.74094003
57.619755 73.474182 -0.63656849
54.45649 78.171394 -0.47715947
42.506523 95.916199 0
27.913998 117.58501 1.8042395
61.000149 68.442955 -0.88382328
60.532574 69.13546 -0.85479122
59.913616 70.052177 -0.80886704
59.017395 71.379532 -0.74222434
57.608311 73.466469 -0.63656849
54.459732 78.1297 -0.47614336
42.502926 95.83844 0
27.837643 117.55859 1.8048201
60.991924 68.449341 -0.88545477
60.521049 69.145821 -0.8568657
59.924191 70.028656 -0.80605316
59.041687 71.334 -0.7379455
57.596806 73.471169 -0.63714451
54.468658 78.098114 -0.4752728
42.504105 95.795258 0
27.773281 117.58408 1.8064163
61.044792 68.359779 -0.86834127
60.540169 69.10424 -0.8506369
59.919769 70.019516 -0.80548865
59.004028 71.370491 -0.74222434
57.596977 73.446297 -0.63599133
54.45163 78.086586 -0.4752728
42.486137 95.73912 0
27.679398 117.5833 1.8078679
61.022861 68.38073 -0.8732295
60.528358 69.108368 -0.85202253
59.90678 70.022995 -0.80661553
59.006668 71.347466 -0.74051249
57.568115 73.464233 -0.63772166
54.443382 78.062141 -0.47483724
42.488766 95.652817 0
27.556271 117.62532 1.8107702
61.01479 68.38121 -0.87404364
60.516544 69.11245 -0.85340554
59.902363 70.013847 -0.80605316
58.98912 71.354156 -0.74179679
57.568336 73.439354 -0.63656849
54.446884 78.020515 -0.47382113
42.471043 95.59671 0
27.432976 117.66714 1.8136729
61.017853 68.365364 -0.8716011
60.516026 69.09996 -0.85202253
59.897976 70.004684 -0.80548865
58.99762 71.322655 -0.73922819
57.568607 73.41449 -0.63541532
54.432877 78.004669 -0.47367612
42.438759 95.562073 0
37.976593 102.09393 1.2884403
61.001408 68.378075 -0.874861
60.529716 69.066765 -0.84717673
59.902206 69.982948 -0.80323714
58.991673 71.31237 -0.73880059
57.566006 73.393906 -0.63455015
54.424774 77.98024 -0.47324058
42.382984 95.561768 0
37.921772 102.07533 1.2888759
60.982132 68.394821 -0.87893504
60.486675 69.116333 -0.85617417
59.90073 69.969627 -0.80211246
58.977024 71.314789 -0.73965734
57.551735 73.390381 -0.63483816
54.446133 77.912964 -0.47135389
42.362549 95.509872 0
37.972862 101.90242 1.2840865
60.974022 68.395233 -0.87974918
60.494717 69.091423 -0.85271406
59.876236 69.989777 -0.80548865
58.997307 71.266418 -0.73537689
57.540394 73.382584 -0.63483816
54.43227 77.897133 -0.4712089
42.312683 95.500854 0
37.994858 101.7725 1.2807486
60.999607 68.346825 -0.87078381
60.508522 69.058273 -0.84786826
59.874767 69.976433 -0.80436397
58.994358 71.251923 -0.73452175
57.53788 73.362 -0.633973
54.415485 77.885567 -0.4712089
42.265762 95.48748 0
23.135994 123.20174 2.0090203
60.980282 68.363525 -0.874861
60.471004 69.099442 -0.8554827
59.858871 69.983978 -0.80605316
58.979763 71.254303 -0.73537689
57.529514 73.34993 -0.63368499
54.413498 77.852615 -0.47048333
42.215885 95.478317 0
23.0704 123.14378 2.0087304
60.969383 68.367989 -0.87648934
60.499168 69.045708 -0.84717673
59.86903 69.953911 -0.80267477
58.976849 71.239807 -0.73452175
57.527058 73.329369 -0.63282096
54.408619 77.823936 -0.46990278
42.157104 95.481888 0
23.013775 123.07293 2.0080047
61.00362 68.307526 -0.86508137
60.461552 69.086784 -0.85479122
59.85603 69.957268 -0.80380166
58.968105 71.233734 -0.73452175
57.51284 73.325783 -0.63310897
54.397861 77.803802 -0.46961221
42.08638 95.50248 0
22.98991 122.95511 2.0056825
60.944698 68.38092 -0.88056338
60.504211 69.012527 -0.84302247
59.860462 69.935585 -0.80155009
58.965248 71.219215 -0.73366499
57.495663 73.326416 -0.63368499
54.401993 77.76236 -0.46859667
42.081093 95.429016 0
22.936535 122.87994 2.004812
60.945068 68.369133 -0.87893504
60.469398 69.049431 -0.84994543
59.841648 69.947235 -0.80380166
58.950638 71.22155 -0.73452175
57.502178 73.293121 -0.6319558
54.41217 77.712425 -0.46729055
42.013298 95.445175 0
22.907116 122.77065 2.0027797
60.939789 68.36544 -0.87893504
60.440258 69.078033 -0.8554827
59.84613 69.92556 -0.80155009
58.95076 71.202827 -0.73323745
57.487988 73.289497 -0.63224381
54.383675 77.71785 -0.4678711
41.972332 95.422836 0
22.824203 122.73798 2.0033603
60.937359 68.357697 -0.87812084
60.460091 69.036781 -0.84925389
59.838974 69.92054 -0.80155009
58.94796 71.188324 -0.73238236
57.47974 73.27739 -0.6319558
54.382057 77.684952 -0.467145
41.919418 95.417488 0
22.810028 122.60741 2.000603
60.960571 68.313576 -0.86996961
60.448231 69.040695 -0.8506369
59.828899 69.919655 -0.80211246
58.933369 71.190605 -0.73323745
57.480453 73.252594 -0.63080263
54.38348 77.647842 -0.46627444
41.857491 95.424828 0
22.775162 122.50661 1.9988614
60.96962 68.289719 -0.86589557
60.465302 69.003616 -0.84509963
59.82761 69.906319 -0.80098778
58.945423 71.155121 -0.73024124
57.463314 73.253151 -0.63137865
54.37899 77.619232 -0.46569386
41.816536 95.402298 0
34.802856 105.33066 1.4132541
60.941582 68.318329 -0.8724153
60.444763 69.019814 -0.84855974
59.835167 69.880524 -0.7981717
58.918972 71.174156 -0.7328099
57.452137 73.245247 -0.63137865
54.371555 77.594864 -0.46525833
41.766571 95.392456 0
34.677864 105.40135 1.4168819
60.976429 68.258209 -0.86100733
60.412548 69.052345 -0.85479122
59.822178 69.883789 -0.79929858
58.910305 71.168007 -0.7328099
57.458935 73.212029 -0.62964946
54.370178 77.562042 -0.46453276
41.722626 95.374069 0
34.648911 105.33624 1.4158664
60.95409 68.278709 -0.86589557
60.450096 68.986687 -0.84440809
59.812126 69.882866 -0.79986089
58.901649 71.16185 -0.7328099
57.453815 73.195679 -0.62907231
54.347763 77.558868 -0.46482331
41.699821 95.325928 0
34.592964 105.3092 1.4161564
60.92308 68.311234 -0.8732295
60.432415 68.998734 -0.84717673
59.793213 69.894348 -0.80211246
58.895977 71.151512 -0.73238236
57.433693 73.200401 -0.62993747
54.343464 77.530281 -0.46424276
41.59547 95.392159 0
34.642696 105.13406 1.4113669
60.94376 68.271332 -0.86589557
60.417614 69.00666 -0.84925389
59.806797 69.860329 -0.7981717
58.893322 71.136978 -0.7315256
57.425587 73.188255 -0.62964946
54.345272 77.493233 -0.46337163
41.557556 95.365067 0
34.478104 105.25915 1.4168819
60.947247 68.255585 -0.86344987
60.429123 68.977859 -0.84509963
59.802677 69.851135 -0.79760939
58.893681 71.118286 -0.73024124
57.423538 73.167694 -0.6287843
54.33503 77.473122 -0.46308166
41.507538 95.354843 0
37.960133 100.29998 1.2476585
60.898811 68.312096 -0.87567514
60.426037 68.969475 -0.84440809
59.795609 69.846054 -0.79760939
58.879082 71.120453 -0.731098
57.4034 73.17234 -0.62964946
54.336967 77.436111 -0.46221054
41.469669 95.327637 0
38.031586 100.10817 1.2421435
60.905167 68.292305 -0.8724153
60.422966 68.961082 -0.84371662
59.78558 69.845093 -0.7981717
58.879494 71.101768 -0.72981369
57.413506 73.134987 -0.62763113
54.335934 77.403351 -0.46148497
41.407478 95.334167 0
30.529682 110.42088 1.5982971
60.940521 68.232483 -0.86100733
60.408165 68.968948 -0.8457911
59.766613 69.856468 -0.80042326
58.867912 71.099731 -0.73024124
57.408524 73.118645 -0.62705511
54.319744 77.391663 -0.46148497
41.339149 95.349022 0
30.464478 110.39304 1.5987326
60.897392 68.28669 -0.8724153
60.405163 68.966774 -0.8457911
59.780945 69.829216 -0.79704702
58.866631 71.092476 -0.72981369
57.399986 73.118851 -0.62734312
54.332977 77.356354 -0.46046942
41.304955 95.356407 0
30.457787 110.34329 1.5977166
60.889317 68.286934 -0.8732295
60.407997 68.950256 -0.84371662
59.773907 69.824112 -0.79704702
58.867115 71.073792 -0.72852939
57.382893 73.119247 -0.62792027
54.322956 77.336243 -0.46017885
41.257912 95.341599 0
30.414024 110.28591 1.597136
60.924843 68.227219 -0.86182153
60.38726 68.966194 -0.84717673
59.763885 69.823112 -0.79760939
58.861588 71.063438 -0.72810185
57.384052 73.094513 -0.6267671
54.291565 77.345551 -0.46090442
41.21394 95.32251 0
30.342838 110.2663 1.5978615
60.899357 68.251442 -0.86752397
60.384216 68.957779 -0.84648526
59.765839 69.805664 -0.79592019
58.850037 71.061371 -0.72852939
57.379169 73.078148 -0.62618995
54.306065 77.291832 -0.45945328
41.182236 95.286552 0
30.286961 110.2256 1.5978615
60.900051 68.239723 -0.86589557
60.363426 68.973656 -0.84994543
59.761822 69.796448 -0.79535782
58.841507 71.055145 -0.72852939
57.368206 73.070137 -0.62618995
54.311485 77.25074 -0.45843717
41.126022 95.284164 0
30.231129 110.18483 1.5978615
60.868633 68.271851 -0.8732295
60.381149 68.936882 -0.84440809
59.74881 69.79953 -0.79648465
58.829941 71.053055 -0.72895861
57.363361 73.053787 -0.62561393
54.329269 77.192924 -0.45684105
41.069771 95.281693 0
30.193775 110.11885 1.5969909
60.889816 68.232216 -0.86589557
60.422726 68.867813 -0.83333349
59.74482 69.790283 -0.79592019
58.818386 71.050934 -0.72938615
57.367752 73.024902 -0.62417161
54.285641 77.218918 -0.45814717
41.019661 95.270744 0
37.443634 100.13686 1.2524474
60.867119 68.252327 -0.87078381
60.357323 68.944283 -0.84717673
59.737827 69.785133 -0.79592019
58.819008 71.032265 -0.72810185
57.350708 73.025223 -0.62474877
54.291256 77.177879 -0.45713106
40.972641 95.255508 0
37.464706 100.0169 1.2494001
60.897213 68.200836 -0.86100733
60.396072 68.879333 -0.83679366
59.733856 69.775894 -0.79535782
58.822716 71.009483 -0.72638994
57.345963 73.00885 -0.62417161
54.275337 77.166138 -0.45713106
40.913239 95.256973 0
37.415039 99.993164 1.2496902
60.830368 68.28051 -0.87812084
60.345387 68.935463 -0.84717673
59.720829 69.778915 -0.79648465
58.820354 70.99498 -0.72553486
57.328918 73.009125 -0.62474877
54.28418 77.120964 -0.45596996
40.872395 95.233238 0
37.402485 99.919258 1.248239
60.892967 68.185379 -0.85937583
60.384289 68.870605 -0.83679366
59.722939 69.76149 -0.79479545
58.818031 70.980461 -0.7246781
57.339622 72.971977 -0.62273043
54.280724 77.092529 -0.45538938
40.816051 95.230354 0
37.362209 99.882904 1.2480935
60.864304 68.213348 -0.86589557
60.330479 68.930634 -0.84786826
59.709915 69.764465 -0.79592019
58.79734 70.990669 -0.72638994
57.325703 72.968071 -0.62301844
54.28352 77.055763 -0.45451882
40.762794 95.22319 0
37.303349 99.871552 1.2488196
60.832615 68.245209 -0.8732295
60.357517 68.881973 -0.84025645
59.721184 69.734848 -0.79254395
58.801178 70.967918 -0.7246781
57.314869 72.959999 -0.62301844
54.264648 77.04818 -0.45466384
40.725086 95.195091 0
37.269352 99.826767 1.2483841
60.871891 68.182014 -0.86100733
60.333595 68.901672 -0.84440809
59.711216 69.733742 -0.79310626
58.78968 70.965752 -0.72510731
57.316429 72.935364 -0.62186641
54.258228 77.023918 -0.45422828
40.662468 95.200287 0
37.219864 99.802765 1.248674
60.819401 68.241493 -0.87404364
60.303596 68.929352 -0.84994543
59.692097 69.744812 -0.79535782
58.796677 70.938904 -0.72296625
57.30875 72.923126 -0.62157726
54.258087 76.991348 -0.45350271
40.637276 95.155411 0
37.15168 99.803635 1.2498351
60.835064 68.209999 -0.86834127
60.348892 68.856705 -0.83817929
59.700424 69.719299 -0.79254395
58.79446 70.924408 -0.72211111
57.319725 72.886108 -0.61956006
54.254887 76.962952 -0.45292217
40.596527 95.131317 0
37.111557 99.767021 1.2496902
60.832962 68.202217 -0.86752397
60.340012 68.856293 -0.83887082
59.687405 69.722206 -0.79366863
58.779922 70.926308 -0.72296625
57.315224 72.869759 -0.61898291
54.248604 76.938728 -0.45248717
40.533863 95.136261 0
37.068359 99.734505 1.2496902
60.851715 68.166847 -0.86100733
60.291805 68.907906 -0.84855974
59.677422 69.721062 -0.79423314
58.756073 70.940491 -0.72510731
57.310745 72.853424 -0.61840689
54.226719 76.935226 -0.45277715
40.458607 95.157722 0
37.047134 99.672913 1.248674
60.813858 68.206375 -0.86996961
60.261642 68.935417 -0.85409707
59.688927 69.691521 -0.79085475
58.778698 70.893211 -0.7208268
57.303185 72.841202 -0.61811775
54.24247 76.881989 -0.45132604
40.420975 95.129257 0
36.913055 99.760452 1.252883
60.871555 68.11985 -0.85285616
60.316357 68.85099 -0.84025645
59.67897 69.690369 -0.79141927
58.75795 70.903259 -0.72253865
57.298756 72.824875 -0.61754173
54.21434 76.886742 -0.45190659
40.383377 95.100739 0
36.841583 99.764938 1.2541891
60.842625 68.147537 -0.85937583
60.325703 68.826561 -0.83679366
59.675186 69.681084 -0.79085475
58.758945 70.884659 -0.72125435
57.294357 72.808548 -0.61696571
54.223957 76.841827 -0.45074549
40.342667 95.076324 0
36.798386 99.732101 1.2541891
60.828617 68.15551 -0.86182153
60.286385 68.865997 -0.84440809
59.655991 69.692017 -0.79310626
58.747509 70.882416 -0.72168356
57.286869 72.79631 -0.61667657
54.20845 76.830009 -0.45074549
40.292503 95.064262 0
36.764679 99.686821 1.2537541
60.859642 68.104561 -0.85204196
60.317097 68.81369 -0.83610219
59.664555 69.666588 -0.79029238
58.73608 70.880135 -0.72211111
