# .PCD v0.7 - Point Cloud Data file format
VERSION 0.7
FIELDS x y z
SIZE 4 4 4
TYPE F F F
COUNT 1 1 1
WIDTH 1999
HEIGHT 1
VIEWPOINT 0 0 0 1 0 0 0
POINTS 1999
DATA ascii
80.012268 47.396523 -0.64420623
64 64 0
74.889633 52.708298 0.43811208
64 64 -0
64 64 -0
64 64 -0
71.425888 56.309235 -0.89114875
80.02951 47.398727 -0.6444962
80.565231 46.843903 0
74.860359 52.752258 0.43666098
64 64 -0
64 64 -0
64 64 -0
71.442322 56.310825 -0.8920055
80.042336 47.425568 -0.64420623
80.531647 46.920033 0
74.884789 52.754181 0.43709651
64 64 -0
64 64 -0
64 64 -0
71.462326 56.308781 -0.8932882
80.06958 47.437515 -0.6444962
80.555901 46.936272 0
74.854942 52.812099 0.43535486
64 64 -0
64 64 -0
64 64 -0
71.457306 56.332512 -0.89157796
80.093216 47.453205 -0.64464176
80.580139 46.95256 0
74.857582 52.836403 0.4349193
64 64 -0
64 64 -0
64 64 -0
71.455811 56.352558 -0.8902936
80.109558 47.476395 -0.6444962
80.597092 46.976334 0
81.803513 45.738899 0.71226645
64 64 -0
64 64 -0
64 64 -0
71.46505 56.361572 -0.8902936
80.129517 47.495872 -0.6444962
80.617645 46.996399 0
81.814667 45.77158 0.71183091
64 64 -0
64 64 -0
64 64 -0
71.477859 56.366936 -0.8907212
80.149445 47.515373 -0.6444962
80.641823 47.012775 0
81.847595 45.781979 0.71226645
64 64 -0
64 64 -0
64 64 -0
71.501465 56.361324 -0.89243305
80.173004 47.531181 -0.64464176
80.655029 47.040329 0
81.869591 45.803558 0.71226645
64 64 -0
64 64 -0
64 64 -0
71.507095 56.37405 -0.8920055
80.192886 47.550735 -0.64464176
80.679176 47.056747 0
81.935318 45.78072 0.71400815
64 64 -0
64 64 -0
64 64 -0
71.527115 56.372173 -0.8932882
80.220047 47.56292 -0.64493179
80.685013 47.091736 0
81.982872 45.776505 0.71502423
64 64 -0
64 64 -0
64 64 -0
71.521896 56.395859 -0.89157796
80.225281 47.597313 -0.64435124
80.709091 47.108208 0
82.034119 45.768692 0.71618539
64 64 -0
64 64 -0
64 64 -0
71.5383 56.397671 -0.89243305
80.252411 47.609543 -0.64464176
80.736809 47.121025 0
82.045151 45.801571 0.7157498
64 64 -0
64 64 -0
64 64 -0
71.552063 56.411346 -0.89243305
80.27475 47.6464 -0.64435124
80.774727 47.144005 0
82.052444 45.860092 0.71473372
64 64 -0
64 64 -0
64 64 -0
71.575737 56.405937 -0.89414489
80.294502 47.666077 -0.64435124
80.78405 47.175343 0
82.070679 45.885597 0.7145887
64 64 -0
64 64 -0
64 64 -0
71.570381 56.429619 -0.89243305
80.317894 47.682106 -0.6444962
80.80069 47.19931 0
82.103584 45.896416 0.71502423
64 64 -0
64 64 -0
64 64 -0
71.575897 56.44239 -0.8920055
80.344963 47.694489 -0.64478678
80.817291 47.223297 0
82.132797 45.910973 0.71531427
64 64 -0
64 64 -0
64 64 -0
71.588654 56.447933 -0.89243305
80.37571 47.703247 -0.64522237
80.85231 47.228943 0
82.261459 45.826588 0.71952313
64 64 -0
64 64 -0
64 64 -0
71.586838 56.467964 -0.89114875
80.399078 47.719387 -0.64536732
80.876251 47.245655 0
82.52681 45.607018 0.72910208
64 64 -0
64 64 -0
64 64 -0
71.614174 56.459076 -0.8932882
80.407654 47.750191 -0.64493179
80.892792 47.269718 0
64 64 0
64 64 -0
64 64 -0
64 64 -0
71.608681 56.4827 -0.89157796
80.445755 47.751766 -0.64565736
80.916695 47.286488 0
64 64 0
64 64 -0
64 64 -0
64 64 -0
71.625069 56.484699 -0.89243305
80.450577 47.78624 -0.64507681
80.940582 47.303291 0
82.75251 45.517445 0.73534268
64 64 -0
64 64 -0
64 64 -0
71.626831 56.50111 -0.89157796
80.473869 47.802475 -0.64522237
80.964447 47.320126 0
82.778534 45.536476 0.73548764
64 64 -0
64 64 -0
64 64 -0
71.657867 56.48877 -0.89414489
80.486 47.829681 -0.64493179
80.966019 47.358856 0
82.811958 45.54826 0.73592323
64 64 -0
64 64 -0
64 64 -0
71.641251 56.523163 -0.89114875
80.512962 47.842335 -0.64522237
81.008438 47.357521 0
82.84166 45.563744 0.73621321
64 64 -0
64 64 -0
64 64 -0
71.66864 56.514473 -0.8932882
80.532471 47.862301 -0.64522237
81.024803 47.381729 0
82.867645 45.582893 0.73635823
64 64 -0
64 64 -0
64 64 -0
71.691551 56.501179 -0.89542925
80.553375 47.86142 -0.64565736
81.038574 47.388374 0
82.897385 45.576149 0.73708433
64 64 -0
64 64 -0
64 64 -0
71.693245 56.517643 -0.8945725
80.561699 47.892288 -0.64522237
81.066086 47.401726 0
82.915894 45.602631 0.73693877
64 64 -0
64 64 -0
64 64 -0
71.691223 56.537674 -0.8932882
80.5886 47.905083 -0.64551234
81.086136 47.422356 0
82.941849 45.621868 0.73708433
64 64 -0
64 64 -0
64 64 -0
71.711304 56.536259 -0.8945725
80.608032 47.92514 -0.64551234
81.094925 47.45388 0
82.971504 45.63755 0.73737437
64 64 -0
64 64 -0
64 64 -0
64 64 -0
80.634933 47.937992 -0.64580292
81.126144 47.463696 0
82.997414 45.656876 0.73751932
64 64 -0
64 64 -0
64 64 -0
71.736717 56.547783 -0.89542925
80.643097 47.968925 -0.64536732
81.142365 47.488007 0
83.008347 45.690651 0.73708433
64 64 -0
64 64 -0
64 64 -0
71.753113 56.55003 -0.89628434
80.669937 47.98185 -0.64565736
81.169807 47.501526 0
83.034195 45.710037 0.73722935
64 64 -0
64 64 -0
64 64 -0
71.73246 56.587826 -0.89286059
80.689285 48.002007 -0.64565736
81.185974 47.525887 0
83.056282 45.733047 0.73722935
64 64 -0
64 64 -0
64 64 -0
71.741409 56.597176 -0.89286059
80.716118 48.014992 -0.64594787
81.20211 47.550255 0
83.085846 45.748909 0.73751932
64 64 -0
64 64 -0
64 64 -0
71.754059 56.602993 -0.8932882
80.746704 48.024437 -0.64638346
81.225739 47.567467 0
83.111656 45.768387 0.73766488
64 64 -0
64 64 -0
64 64 -0
71.770439 56.605282 -0.89414489
80.7547 48.055435 -0.64594787
81.253113 47.581123 0
83.133667 45.791496 0.73766488
64 64 -0
64 64 -0
64 64 -0
71.771912 56.621754 -0.8932882
80.777718 48.072117 -0.64609289
81.261627 47.61272 0
83.163193 45.80748 0.73795491
64 64 -0
64 64 -0
64 64 -0
71.787552 56.615849 -0.8945725
80.776024 48.092987 -0.64565736
81.279068 47.615997 0
83.166641 45.826202 0.73766488
64 64 -0
64 64 -0
64 64 -0
71.79274 56.628788 -0.89414489
80.795227 48.113266 -0.64565736
81.306427 47.629726 0
83.19236 45.84581 0.7378099
64 64 -0
64 64 -0
64 64 -0
71.816582 56.624115 -0.8958568
80.818207 48.129997 -0.64580292
81.333755 47.643513 0
83.202942 45.879715 0.73737437
64 64 -0
64 64 -0
64 64 -0
71.81427 56.644127 -0.8945725
72.934692 55.589424 -0.6838451
80.848709 48.139656 -0.64623791
81.342133 47.675175 0
83.239952 45.88868 0.73795491
64 64 -0
64 64 -0
64 64 -0
71.830643 56.646538 -0.89542925
64 64 -0
80.864075 48.163578 -0.64609289
81.358055 47.699699 0
83.258041 45.915497 0.7378099
64 64 -0
64 64 -0
64 64 -0
71.847008 56.648994 -0.89628434
64 64 -0
80.871819 48.19463 -0.64565736
81.385345 47.713562 0
83.283669 45.93523 0.73795491
64 64 -0
64 64 -0
71.840881 56.672501 -0.8945725
64 64 -0
80.894714 48.211468 -0.64580292
81.389801 47.748795 0
83.294083 45.969193 0.73751932
64 64 -0
64 64 -0
71.849724 56.68198 -0.8945725
64 64 -0
80.917572 48.228352 -0.64594787
81.432259 47.748535 0
83.327263 45.981884 0.73795491
64 64 -0
64 64 -0
64 64 -0
71.866089 56.684471 -0.89542925
64 64 -0
80.940422 48.24527 -0.64609289
81.432831 47.787331 0
83.349022 46.005249 0.73795491
64 64 -0
64 64 -0
71.867386 56.700974 -0.8945725
64 64 -0
80.963249 48.262218 -0.64623791
81.475296 47.78717 0
83.374557 46.025112 0.73809987
64 64 -0
64 64 -0
64 64 -0
71.895042 56.69305 -0.89671189
64 64 -0
80.986084 48.27919 -0.64638346
81.491051 47.811829 0
83.392456 46.052063 0.73795491
64 64 -0
64 64 -0
71.892555 56.713036 -0.89542925
64 64 -0
81.008881 48.296204 -0.64652848
81.510597 47.832977 0
83.425583 46.064926 0.73839045
64 64 -0
64 64 -0
71.893799 56.729538 -0.8945725
64 64 -0
81.020187 48.323814 -0.64623791
81.522476 47.861191 0
83.443405 46.091942 0.73824489
64 64 -0
64 64 -0
71.879295 56.751686 -0.89243305
64 64 -0
81.029655 48.334099 -0.64623791
81.539871 47.864738 0
83.461884 46.096649 0.73853546
64 64 -0
64 64 -0
71.903183 56.747326 -0.89414489
74.19165 54.647224 -0.77090555
81.060059 48.344143 -0.64667344
81.563187 47.882431 0
83.48732 46.116669 0.73868048
64 64 -0
64 64 -0
71.923302 56.746475 -0.89542925
74.119003 54.736382 -0.76456368
81.078964 48.364769 -0.64667344
81.578812 47.907173 0
83.505089 46.143734 0.73853546
64 64 -0
64 64 -0
71.928261 56.759529 -0.89500004
73.988861 54.877686 -0.75389713
81.094009 48.388916 -0.64652848
81.617462 47.910881 0
83.530487 46.163815 0.73868048
64 64 -0
64 64 -0
71.944603 56.762192 -0.8958568
64 64 -0
81.116699 48.406086 -0.64667344
81.629196 47.939182 0
83.559708 46.18042 0.73897099
64 64 -0
64 64 -0
71.94194 56.782158 -0.8945725
64 64 -0
81.150917 48.4128 -0.64725399
81.640884 47.967506 0
83.57737 46.207573 0.73882544
64 64 -0
64 64 -0
71.962067 56.78141 -0.8958568
64 64 -0
81.169739 48.433533 -0.64725399
81.66024 47.988831 0
83.591164 46.238213 0.73853546
64 64 -0
64 64 -0
71.963165 56.797932 -0.89500004
64 64 -0
81.192383 48.450809 -0.64739901
81.67186 48.017159 0
83.61261 46.261902 0.73853546
64 64 -0
64 64 -0
71.979492 56.800674 -0.8958568
64 64 -0
81.211159 48.471596 -0.64739901
81.698883 48.031555 0
83.645607 46.275162 0.73897099
64 64 -0
64 64 -0
71.988182 56.810322 -0.8958568
64 64 -0
81.229912 48.492401 -0.64739901
81.729774 48.042503 0
83.667007 46.298912 0.73897099
64 64 -0
64 64 -0
72.000679 56.816551 -0.89628434
64 64 -0
81.260239 48.502815 -0.6478346
81.749039 48.063938 0
83.696114 46.315754 0.73926103
64 64 -0
64 64 -0
72.009354 56.826225 -0.89628434
64 64 -0
81.278954 48.523682 -0.6478346
81.783798 48.071507 0
83.7136 46.343029 0.73911601
64 64 -0
64 64 -0
72.025169 56.820793 -0.89756864
74.128296 54.939369 -0.75735664
81.2883 48.534122 -0.6478346
81.797287 48.078785 0
83.728134 46.351479 0.73926103
64 64 -0
64 64 -0
72.030014 56.833908 -0.8971411
74.19326 54.903397 -0.76139218
81.303101 48.558479 -0.64768958
81.793221 48.12109 0
83.749443 46.375332 0.73926103
64 64 -0
64 64 -0
64 64 -0
74.208099 54.912285 -0.76168019
81.321747 48.579399 -0.64768958
81.824066 48.132214 0
83.790131 46.381935 0.7399866
64 64 -0
64 64 -0
72.06266 56.839699 -0.89885294
74.211349 54.931488 -0.76110417
81.336472 48.603798 -0.64754403
81.847107 48.150311 0
83.791977 46.423111 0.73926103
64 64 -0
64 64 -0
72.063614 56.856262 -0.89799619
74.214546 54.950703 -0.76052701
81.362846 48.617859 -0.6478346
81.874031 48.164989 0
83.813202 46.447037 0.73926103
64 64 -0
64 64 -0
72.064552 56.872803 -0.8971411
74.186722 54.997299 -0.75764465
81.393105 48.628525 -0.64827013
81.877548 48.200386 0
83.846085 46.460663 0.73969656
64 64 -0
64 64 -0
72.080856 56.875771 -0.89799619
74.185944 55.019882 -0.75677949
81.399971 48.659866 -0.6478346
81.920059 48.20134 0
83.867256 46.484657 0.73969656
64 64 -0
64 64 -0
72.097176 56.87875 -0.89885294
74.223984 55.008278 -0.75879782
81.422394 48.677471 -0.64797956
81.935234 48.226437 0
83.888412 46.508675 0.73969656
64 64 -0
64 64 -0
72.113487 56.881775 -0.89970809
74.246506 55.010399 -0.75966299
81.440887 48.698532 -0.64797956
81.950356 48.251564 0
83.909531 46.532719 0.73969656
64 64 -0
64 64 -0
72.125938 56.888206 -0.90013564
74.253464 55.026207 -0.75937384
81.467194 48.712769 -0.64827013
81.985039 48.259552 0
83.938431 46.54995 0.7399866
64 64 -0
64 64 -0
72.130661 56.901402 -0.89970809
74.248711 55.052208 -0.75822067
81.481728 48.737312 -0.64812458
82.004044 48.281296 0
83.971252 46.563797 0.74042213
64 64 -0
64 64 -0
72.135368 56.9146 -0.89928055
76.931488 52.737476 -0.95569074
81.508003 48.751614 -0.64841515
82.015182 48.309891 0
83.980545 46.598183 0.7399866
64 64 -0
64 64 -0
72.128021 56.929626 -0.89799619
76.965614 52.721519 -0.95770907
81.521133 48.758785 -0.64856011
82.036446 48.310524 0
83.991058 46.61026 0.7399866
64 64 -0
64 64 -0
72.16449 56.932495 -0.90013564
64 64 -0
81.557907 48.80117 -0.64856011
82.093979 48.337128 0
84.048737 46.645012 0.74056715
64 64 -0
64 64 -0
72.161377 56.952419 -0.89885294
64 64 -0
81.576263 48.822399 -0.64856011
82.093201 48.376011 0
84.069695 46.66925 0.74056715
64 64 -0
64 64 -0
72.169884 56.962288 -0.89885294
77.067001 52.743805 -0.96116859
81.610336 48.830078 -0.64914072
82.119942 48.391094 0
84.078819 46.703682 0.74013215
64 64 -0
64 64 -0
72.182274 56.968822 -0.89928055
77.080597 52.759602 -0.96116859
81.632591 48.847984 -0.64928567
82.13485 48.416389 0
84.119408 46.711021 0.74085766
64 64 -0
64 64 -0
72.186867 56.982052 -0.89885294
77.117729 52.755222 -0.96289778
81.64695 48.872681 -0.64914072
82.169472 48.424763 0
84.136322 46.738739 0.74071211
64 64 -0
64 64 -0
72.195343 56.991947 -0.89885294
77.052689 52.838306 -0.95713305
81.669159 48.89064 -0.64928567
82.180359 48.453503 0
84.161125 46.759693 0.74085766
64 64 -0
64 64 -0
72.203804 57.001854 -0.89885294
64 64 -0
81.691368 48.908619 -0.64943123
82.207062 48.468719 0
84.18985 46.777328 0.7411477
64 64 -0
64 64 -0
72.22007 57.005127 -0.89970809
72.438965 56.818855 -0.61754173
81.749161 48.896336 -0.65088236
82.233734 48.48399 0
84.214592 46.79837 0.74129266
64 64 -0
64 64 -0
72.228516 57.015064 -0.89970809
72.526512 56.7621 -0.62330759
82.009056 48.712654 -0.6597352
82.252464 48.506031 0
84.251213 46.809357 0.74187326
64 64 -0
64 64 -0
72.24086 57.021698 -0.90013564
72.507614 56.795815 -0.62128925
82.265472 48.532925 -0.66844356
82.275146 48.524738 0
84.303696 46.806969 0.74303436
64 64 -0
64 64 -0
72.24929 57.031658 -0.90013564
72.449135 56.862843 -0.61638856
82.343689 48.504711 -0.6706202
82.325638 48.519958 0
84.395927 46.771149 0.74564713
64 64 -0
64 64 -0
64 64 -0
72.249573 57.039951 -0.89970809
72.500893 56.827919 -0.61984807
82.329224 48.535896 -0.66974968
82.327042 48.537743 0
84.465897 46.733215 0.74782383
64 64 -0
64 64 -0
72.246193 57.059845 -0.89842379
72.489761 56.854851 -0.61840689
82.33596 48.5681 -0.66931409
82.349686 48.556549 0
84.554337 46.701073 0.75029105
64 64 -0
64 64 -0
72.266373 57.059906 -0.89970809
72.573654 56.801926 -0.62388361
82.350616 48.593605 -0.66916913
82.392242 48.558659 0
84.619011 46.689156 0.75188774
64 64 -0
64 64 -0
64 64 -0
72.270821 57.073193 -0.89928055
72.503029 56.878716 -0.61811775
82.373199 48.612453 -0.66931409
82.410889 48.580894 0
84.695686 46.667374 0.75391942
64 64 -0
64 64 -0
72.275246 57.086483 -0.89885294
72.487816 56.90889 -0.61638856
82.391785 48.634666 -0.66931409
82.405548 48.623165 0
84.776443 46.642414 0.75609666
64 64 -0
64 64 -0
72.27964 57.099781 -0.89842379
72.607651 56.82642 -0.62446076
82.398354 48.666885 -0.66887856
82.472092 48.605431 0
84.881233 46.597664 0.75914443
64 64 -0
64 64 -0
72.284027 57.113071 -0.89799619
72.516869 56.919498 -0.61725372
82.408882 48.695763 -0.66858852
82.490685 48.627762 0
84.958183 46.576401 0.76117611
64 64 -0
64 64 -0
72.292343 57.123085 -0.89799619
72.636894 56.837345 -0.62532479
82.415359 48.727974 -0.66815299
82.489212 48.666725 0
85.031219 46.558617 0.76306278
64 64 -0
64 64 -0
72.312515 57.123287 -0.89928055
72.601707 56.884048 -0.62215441
82.48185 48.710487 -0.66989464
82.507729 48.689075 0
85.10833 46.537666 0.76509446
64 64 -0
64 64 -0
72.316864 57.136604 -0.89885294
72.558434 56.937248 -0.61840689
82.516342 48.719597 -0.67047524
82.554306 48.688271 0
85.173508 46.526798 0.76669109
64 64 -0
64 64 -0
72.329109 57.143398 -0.89928055
72.566963 56.947594 -0.61840689
82.546829 48.732071 -0.67091078
82.568779 48.714005 0
85.210655 46.539185 0.7672717
64 64 -0
64 64 -0
72.349297 57.143688 -0.90056485
72.631439 56.911995 -0.62244242
82.557228 48.761093 -0.6706202
82.579193 48.743053 0
85.211662 46.581314 0.76654613
64 64 -0
64 64 -0
72.349625 57.160294 -0.89970809
72.623993 56.935543 -0.62128925
82.539444 48.813164 -0.66931409
82.609688 48.755627 0
85.23671 46.603664 0.76669109
64 64 -0
64 64 -0
72.345818 57.171837 -0.89885294
72.560196 56.996437 -0.61638856
82.592865 48.788166 -0.67091078
82.606819 48.776752 0
85.231125 46.629662 0.76611054
64 64 -0
64 64 -0
72.369972 57.168941 -0.90056485
72.600716 56.980618 -0.6186949
82.631363 48.794216 -0.67163634
82.637283 48.789383 0
85.244041 46.661903 0.76582003
64 64 -0
64 64 -0
72.362289 57.192024 -0.89885294
72.613197 56.987755 -0.61898291
82.685989 48.787212 -0.67294246
82.687943 48.785622 0
85.256927 46.694145 0.76552999
64 64 -0
64 64 -0
72.378471 57.195667 -0.89970809
72.61364 57.004681 -0.61840689
82.712418 48.803257 -0.67323244
82.714401 48.801643 0
85.269745 46.726402 0.76523942
64 64 -0
64 64 -0
72.390678 57.202568 -0.90013564
72.630119 57.008591 -0.61898291
82.714615 48.838963 -0.67265189
82.720612 48.834103 0
85.282532 46.758652 0.76494944
64 64 -0
64 64 -0
72.418846 57.196579 -0.90227509
72.646614 57.012512 -0.61956006
82.749084 48.848522 -0.67323244
82.759163 48.840378 0
85.287178 46.797443 0.76436889
64 64 -0
64 64 -0
64 64 -0
72.411087 57.219631 -0.90056485
72.663101 57.016479 -0.62013608
82.787628 48.85487 -0.67395854
82.781517 48.859795 0
85.299866 46.829697 0.76407886
64 64 -0
64 64 -0
72.423271 57.226585 -0.90099239
72.619125 57.069092 -0.61638856
82.785645 48.893875 -0.67323244
82.803864 48.879227 0
85.304398 46.868469 0.76349831
64 64 -0
64 64 -0
72.419434 57.24641 -0.89970809
72.667839 57.04715 -0.61927092
82.795792 48.92308 -0.67294246
82.82618 48.898705 0
85.312912 46.903984 0.76306278
64 64 -0
64 64 -0
72.435608 57.250168 -0.90056485
72.652008 57.077011 -0.61754173
82.769348 48.981522 -0.67134577
82.832214 48.931221 0
85.325432 46.936249 0.7627722
64 64 -0
64 64 -0
72.447769 57.257164 -0.90099239
72.668442 57.081024 -0.61811775
82.738747 49.043114 -0.66960412
82.866684 48.941002 0
85.333862 46.971745 0.76233721
64 64 -0
64 64 -0
72.45591 57.267376 -0.90099239
72.664673 57.101158 -0.61725372
82.736481 49.081951 -0.66887856
82.86451 48.980015 0
85.342224 47.007248 0.76190168
64 64 -0
64 64 -0
72.447914 57.282074 -0.89970809
72.563576 57.190102 -0.60975868
82.733299 49.102966 -0.66844356
82.873581 48.991417 0
85.340279 47.029854 0.76146609
64 64 -0
64 64 -0
72.464081 57.2859 -0.90056485
72.506958 57.251892 -0.60514599
82.735001 49.138535 -0.66786301
82.928398 48.985123 0
85.352631 47.062103 0.76117611
64 64 -0
64 64 -0
72.480232 57.289768 -0.90141994
72.511047 57.265381 -0.60485798
82.740707 49.17086 -0.66742742
82.930199 49.020924 0
85.360855 47.097595 0.76074052
64 64 -0
64 64 -0
72.484306 57.303196 -0.90099239
72.523239 57.272469 -0.60514599
82.78717 49.170971 -0.66844356
83.001389 49.001888 0
85.377182 47.126633 0.76059556
64 64 -0
64 64 -0
72.496422 57.31028 -0.90141994
72.519165 57.292374 -0.60428083
82.796906 49.200119 -0.66815299
83.02359 49.021641 0
85.385307 47.162125 0.76015997
64 64 -0
64 64 -0
72.500465 57.323719 -0.90099239
72.567932 57.270729 -0.60716319
82.994591 49.081615 -0.67453855
83.008942 49.070347 0
85.389282 47.200817 0.75957942
64 64 -0
64 64 -0
72.524689 57.321331 -0.90270424
72.535347 57.312981 -0.60428083
83.258057 48.912277 -0.68324691
83.067932 49.06123 0
85.405479 47.229874 0.7594344
64 64 -0
64 64 -0
72.532753 57.331635 -0.90270424
72.482292 57.371071 -0.59995729
83.325394 48.897171 -0.68498802
83.081871 49.087482 0
85.413437 47.265358 0.75899887
64 64 -0
64 64 -0
72.54081 57.341949 -0.90270424
72.539238 57.343174 -0.60341567
83.364136 48.904549 -0.68571419
83.112175 49.10096 0
85.425461 47.297626 0.75870883
64 64 -0
72.548843 57.352276 -0.90270424
72.522781 57.372543 -0.60168648
83.390556 48.921581 -0.68600416
83.117851 49.13364 0
85.474327 47.301205 0.75972444
64 64 -0
64 64 -0
72.548752 57.368912 -0.90184748
72.518517 57.392361 -0.60082132
83.453934 48.909981 -0.68760085
85.516968 47.309731 0
85.535561 47.295303 0.76117611
64 64 -0
64 64 -0
72.564888 57.372955 -0.90270424
72.448776 57.462795 -0.5953446
83.525581 48.892159 -0.68948752
85.524765 47.345303 0
85.769447 47.155979 0.76872277
64 64 -0
72.57695 57.380173 -0.90313184
64 64 -0
83.60965 48.86496 -0.69180977
85.651993 47.288643 0
85.999588 47.020363 0.77612448
64 64 -0
72.585007 57.382225 -0.90355939
64 64 -0
83.684631 48.826057 -0.69413143
85.794006 47.200039 0
86.05101 47.001923 0.77757615
64 64 -0
72.584862 57.398857 -0.90270424
64 64 -0
83.77298 48.796001 -0.69659865
83.177773 49.25367 0
86.079758 47.022255 0.77786618
64 64 -0
72.600975 57.402992 -0.90355939
64 64 -0
83.824326 48.794601 -0.69775975
64 64 0
86.071396 47.071087 0.77685004
64 64 -0
72.613014 57.410271 -0.90398693
64 64 -0
83.933479 48.7491 -0.70095253
64 64 0
86.11248 47.08197 0.77757615
64 64 -0
72.612816 57.426907 -0.90313184
64 64 -0
84.001465 48.735363 -0.70269424
64 64 0
86.165939 47.083488 0.77873671
64 64 -0
72.616669 57.440426 -0.90270424
64 64 -0
84.073654 48.71862 -0.7045809
64 64 0
86.289734 47.031593 0.78236508
64 64 -0
72.636841 57.441536 -0.90398693
64 64 -0
84.121078 48.720886 -0.70559704
64 64 0
86.579247 46.854256 0.79179901
64 64 -0
72.64476 57.451977 -0.90398693
64 64 -0
84.19751 48.701286 -0.70762867
90.528122 43.906128 0
86.674507 46.825073 0.79441124
64 64 -0
72.636284 57.474808 -0.90227509
64 64 -0
84.282326 48.675575 -0.70995092
90.689423 43.834652 0
86.703522 46.846222 0.79470122
64 64 -0
72.664673 57.469788 -0.90441614
64 64 -0
84.313278 48.690704 -0.71038646
87.692017 46.144291 0
86.707649 46.886169 0.79412121
64 64 -0
72.656143 57.492603 -0.90270424
64 64 -0
84.348381 48.70277 -0.71096706
87.676132 46.20108 0
86.715851 46.922989 0.79368567
64 64 -0
72.668098 57.499992 -0.90313184
64 64 -0
84.558098 48.583954 -0.7176432
87.672646 46.248428 0
86.728142 46.956692 0.7933951
64 64 -0
72.672028 57.50523 -0.90313184
64 64 -0
84.575722 48.590153 -0.71793318
64 64 0
86.701004 46.998459 0.79208899
64 64 -0
72.692215 57.506493 -0.90441614
64 64 -0
84.777512 48.478176 -0.72431934
64 64 0
86.704872 47.038345 0.79150844
64 64 -0
72.707878 57.527515 -0.90441614
64 64 -0
84.881683 48.47884 -0.726641
64 64 0
89.1231 45.326237 0.87423372
64 64 -0
72.715691 57.53804 -0.90441614
64 64 -0
84.963051 48.457653 -0.72881824
87.551399 46.538605 0
89.199905 45.316372 0.87612045
64 64 -0
72.727615 57.545528 -0.90484369
64 64 -0
85.052841 48.430466 -0.73128545
87.576675 46.563972 0
89.318573 45.275757 0.87945879
64 64 -0
72.735413 57.55608 -0.90484369
64 64 -0
85.151085 48.397308 -0.7340427
87.606094 46.5863 0
89.408081 45.257019 0.88178045
64 64 -0
72.7556 57.557507 -0.90612799
64 64 -0
85.224335 48.382839 -0.73592937
87.622932 46.61792 0
89.522804 45.219963 0.88497376
64 64 -0
72.767517 57.565056 -0.90655553
64 64 -0
85.3228 48.350067 -0.73868716
87.664894 46.631081 0
89.591553 45.217003 0.88656992
64 64 -0
72.779419 57.572624 -0.90698314
64 64 -0
85.396194 48.335938 -0.74057382
87.706856 46.644314 0
89.693901 45.189606 0.8893277
64 64 -0
72.787186 57.583237 -0.90698314
64 64 -0
85.482262 48.312767 -0.74289608
87.76564 46.645348 0
89.813133 45.150185 0.89266551
64 64 -0
72.774185 57.608971 -0.90484369
64 64 -0
85.564201 48.292847 -0.74507272
87.811844 46.655685 0
89.953506 45.095718 0.89672941
64 64 -0
72.786339 57.608238 -0.90569878
64 64 -0
85.674545 48.232506 -0.74855608
87.830727 46.663956 0
90.027954 45.065552 0.89890605
64 64 -0
72.806526 57.60981 -0.90698314
64 64 -0
85.815559 48.170197 -0.752765
92.047379 43.648266 0
90.139137 45.032921 0.90195388
64 64 -0
72.810081 57.623463 -0.90655553
64 64 -0
85.889397 48.15696 -0.75465167
92.050865 43.697426 0
90.233597 45.012726 0.90442109
64 64 -0
72.821945 57.631111 -0.90698314
64 64 -0
85.959084 48.146919 -0.75639331
92.062714 43.740479 0
90.353439 44.974468 0.90775943
64 64 -0
72.82547 57.644772 -0.90655553
64 64 -0
86.016174 48.146133 -0.75769943
92.082954 43.777443 0
90.469177 44.939522 0.91095221
64 64 -0
72.845657 57.646454 -0.90783989
64 64 -0
86.077515 48.142437 -0.75915056
92.132729 43.793175 0
90.614594 44.883598 0.91516113
64 64 -0
72.857498 57.65416 -0.90826744
86.168472 48.117676 -0.76161778
92.186745 43.805962 0
90.751724 44.834061 0.91907948
64 64 -0
72.869331 57.661884 -0.90869498
86.297592 48.065907 -0.76539171
92.223831 43.830952 0
90.817154 44.836178 0.92053115
64 64 -0
72.876984 57.672604 -0.90869498
86.532639 47.93903 -0.77279341
92.210022 43.892265 0
90.93338 44.802238 0.92372394
64 64 -0
72.88044 57.68631 -0.90826744
86.670609 47.881966 -0.77685672
92.179153 43.965576 0
91.049736 44.768555 0.92691672
64 64 -0
72.900612 57.688141 -0.90955007
86.732468 47.879299 -0.77830839
92.169373 44.023727 0
91.149246 44.747147 0.92952895
64 64 -0
72.899857 57.704826 -0.90869498
86.76889 47.894787 -0.7788884
92.185005 44.063782 0
91.270081 44.710938 0.93286729
64 64 -0
72.911652 57.712627 -0.90912253
64 64 -0
86.771362 47.93428 -0.77830839
92.196304 44.106857 0
91.403763 44.666016 0.93664068
64 64 -0
72.915451 57.71801 -0.90912253
86.619637 48.061787 -0.77279341
92.195572 44.132881 0
91.513138 44.613731 0.93997842
64 64 -0
72.914642 57.734688 -0.90826744
64 64 -0
86.460312 48.21463 -0.76669782
92.211029 44.172958 0
91.621582 44.587227 0.94288123
64 64 -0
72.951614 57.724842 -0.91126198
64 64 -0
86.372986 48.316353 -0.76306945
92.2435 44.201077 0
91.738632 44.554993 0.94607401
64 64 -0
72.959198 57.735664 -0.91126198
86.374886 48.355309 -0.7624889
92.284462 44.223289 0
91.911163 44.484306 0.95115352
64 64 -0
72.949913 57.75824 -0.90955007
64 64 -0
86.393768 48.382359 -0.7624889
92.432129 44.171146 0
92.019974 44.458588 0.95405626
64 64 -0
72.974304 57.757332 -0.91126198
64 64 -0
86.395561 48.421299 -0.76190835
92.605621 44.101482 0
92.107559 44.447941 0.9562335
64 64 -0
72.977631 57.771103 -0.91083443
64 64 -0
86.40155 48.45726 -0.76147276
92.727989 44.067825 0
92.250702 44.398979 0.96029687
64 64 -0
73.002037 57.770271 -0.91254628
64 64 -0
86.428871 48.47842 -0.76176333
92.850502 44.034424 0
92.394028 44.350327 0.96436077
64 64 -0
72.99688 57.789906 -0.91126198
64 64 -0
86.439049 48.511444 -0.76147276
92.973114 44.001305 0
92.507553 44.322655 0.96740854
64 64 -0
72.995926 57.806599 -0.91040683
64 64 -0
86.436348 48.553299 -0.76074725
93.177307 43.912361 0
92.58268 44.321751 0.96915025
64 64 -0
73.003403 57.817471 -0.91040683
64 64 -0
86.455002 48.580421 -0.76074725
93.257339 43.909332 0
92.636414 44.335716 0.97016579
64 64 -0
73.032043 57.81385 -0.91254628
64 64 -0
86.486481 48.598751 -0.76118279
93.37606 43.879997 0
92.664452 44.367386 0.97031134
64 64 -0
73.040009 57.816414 -0.91297382
64 64 -0
86.534378 48.585938 -0.7624889
93.529976 43.800777 0
92.620544 44.422848 0.96842468
64 64 -0
73.064438 57.815765 -0.91468573
64 64 -0
86.634544 48.557533 -0.76524615
93.670441 43.757278 0
92.661354 44.445732 0.96900523
64 64 -0
73.054924 57.83828 -0.91297382
64 64 -0
86.73912 48.526421 -0.7681489
93.780945 43.734581 0
92.594742 44.541771 0.96595746
64 64 -0
73.058121 57.852104 -0.91254628
64 64 -0
86.865295 48.480949 -0.77177727
93.917374 43.694588 0
92.609619 44.582176 0.96566689
64 64 -0
73.0783 57.854416 -0.91383058
64 64 -0
86.978699 48.444504 -0.77497005
94.097054 43.62571 0
92.598633 44.640068 0.96450579
64 64 -0
73.094223 57.85965 -0.91468573
64 64 -0
87.092224 48.408306 -0.77816284
94.220856 43.595108 0
92.596176 44.692081 0.96363521
64 64 -0
73.088875 57.879238 -0.91340303
64 64 -0
87.201569 48.375263 -0.78121066
94.349106 43.561863 0
92.580688 44.752769 0.96232909
64 64 -0
73.104774 57.884506 -0.91425812
64 64 -0
87.323967 48.333763 -0.78469402
94.494759 43.517284 0
92.595291 44.793121 0.96203852
64 64 -0
73.124962 57.886936 -0.91554248
75.711365 56.154232 -0.78560764
87.424896 48.307007 -0.78745121
94.618935 43.487526 0
92.588249 44.847939 0.96102244
64 64 -0
73.093925 57.923634 -0.91169119
75.673515 56.200005 -0.78243613
87.517296 48.286243 -0.78991842
94.75621 43.449356 0
92.581131 44.902695 0.96000683
64 64 -0
73.143974 57.906158 -0.91597003
75.68293 56.214119 -0.78243613
87.627083 48.25415 -0.79296625
94.807014 43.469208 0
92.573914 44.95742 0.95899075
64 64 -0
73.142792 57.92289 -0.91511488
75.632027 56.268322 -0.7784006
87.698021 48.248192 -0.79470789
99.86853 40.158592 0
92.605568 44.986202 0.95928133
64 64 -0
73.145836 57.93679 -0.91468573
75.615501 56.29953 -0.77667141
81.007896 52.724648 -0.56989872
99.927689 40.181812 0
92.576538 45.055237 0.95753962
64 64 -0
73.158066 57.936642 -0.91554248
75.538193 56.360809 -0.77119356
81.04937 52.711975 -0.57105982
99.963768 40.189156 0
92.579308 45.078251 0.95724905
64 64 -0
73.165382 57.947712 -0.91554248
75.392029 56.477364 -0.76081616
64 64 -0
100.01422 40.218292 0
92.563126 45.138565 0.95594293
64 64 -0
73.159821 57.967266 -0.91425812
75.241272 56.596409 -0.75014961
64 64 -0
100.02991 40.270409 0
92.577225 45.178806 0.95565295
64 64 -0
73.184273 57.967064 -0.91597003
75.168053 56.66396 -0.74467176
64 64 -0
99.984604 40.362534 0
92.573868 45.230476 0.95478183
64 64 -0
73.204437 57.969719 -0.91725433
75.09903 56.728481 -0.73948306
64 64 -0
99.908646 40.474491 0
92.574799 45.279251 0.95405626
64 64 -0
73.220306 57.975235 -0.91810942
75.086159 56.756042 -0.73804188
81.065048 52.849297 -0.56931818
98.956711 41.15847 0
92.575653 45.328003 0.9533307
64 64 -0
73.227585 57.986382 -0.91810942
75.073242 56.783562 -0.7366007
81.078514 52.869926 -0.56931818
98.844742 41.291664 0
92.59819 45.362541 0.9533307
64 64 -0
73.221939 58.00592 -0.91682678
75.064606 56.808224 -0.73544753
81.074516 52.901897 -0.56873763
98.88089 41.328102 0
92.598907 45.41127 0.95260519
64 64 -0
73.220551 58.022659 -0.91597003
75.047234 56.83849 -0.7337172
81.083557 52.925362 -0.56859261
98.908264 41.37027 0
92.59082 45.46563 0.95158905
64 64 -0
73.26226 58.011505 -0.91939378
75.116699 56.812515 -0.73775387
81.096924 52.946011 -0.56859261
98.953064 41.401161 0
92.595734 45.511478 0.9510085
64 64 -0
73.239281 58.042179 -0.91639757
75.086243 56.851192 -0.73515838
81.084061 52.983582 -0.56772149
98.954086 41.460342 0
92.587494 45.56575 0.94999295
64 64 -0
73.272385 58.036678 -0.91896617
75.112274 56.853401 -0.73631155
81.097359 53.004234 -0.56772149
98.95504 41.519478 0
92.587883 45.614372 0.94926679
64 64 -0
73.27166 58.045063 -0.91853702
75.129654 56.851727 -0.73717672
81.095261 53.020176 -0.56743151
98.911682 41.577164 0
92.537773 45.670959 0.94723517
64 64 -0
73.291817 58.047962 -0.91982132
75.164421 56.848431 -0.73890704
81.112885 53.03804 -0.56757647
98.912445 41.636215 0
92.56427 45.702652 0.94738013
64 64 -0
73.290359 58.064716 -0.91896617
75.155617 56.873066 -0.73775387
81.112976 53.067123 -0.56714094
98.908752 41.698029 0
92.551323 45.759563 0.94621903
64 64 -0
73.306175 58.070435 -0.91982132
75.142395 56.900459 -0.73631155
81.121796 53.090599 -0.56699592
98.918121 41.751411 0
92.542679 45.813614 0.94520348
64 64 -0
73.316147 58.095688 -0.91939378
75.203224 56.899708 -0.73919505
81.165665 53.120876 -0.56757647
98.927811 41.863728 0
92.560196 45.899345 0.94433236
73.336296 58.098717 -0.92067808
75.146202 56.954712 -0.73487037
81.222717 53.113865 -0.5690276
98.901733 41.93932 0
92.564476 45.944973 0.94375181
73.365135 58.096313 -0.92281747
75.154701 56.968185 -0.73487037
81.332588 53.073708 -0.57222098
64 64 0
92.551102 46.001671 0.94259065
73.363556 58.113106 -0.92196071
75.080002 57.033974 -0.72939366
81.376564 53.075306 -0.57323653
98.906487 42.054192 0
92.568428 46.038948 0.9424457
73.414169 58.097145 -0.92624122
74.501152 57.415588 -0.69076413
92.079605 46.393578 -0.92561734
98.906509 42.112984 0
92.532883 46.109367 0.94055903
64 64 -0
73.429993 58.103085 -0.92709637
74.474014 57.450222 -0.68845779
92.096436 46.430283 -0.92547172
98.972656 42.130333 0
92.532448 46.157631 0.93983346
64 64 -0
73.445831 58.109043 -0.92795312
74.416092 57.503937 -0.68413424
92.294037 46.35424 -0.93127733
99.118294 42.098244 0
92.531944 46.205864 0.93910789
64 64 -0
73.444214 58.125889 -0.92709637
74.35804 57.55751 -0.67980957
92.721306 46.135933 -0.94462961
99.294998 42.047234 0
92.540176 46.248589 0.9386723
73.460854 58.123466 -0.92838067
74.353149 57.569221 -0.67923355
92.864525 46.07103 -0.94898349
99.458572 41.975189 0
92.524414 46.282284 0.93780178
73.454849 58.143017 -0.92709637
74.286156 57.628044 -0.67433286
93.089386 45.980034 -0.95565963
99.617897 41.935822 0
92.545807 46.316765 0.93780178
73.470665 58.149044 -0.92795312
74.258644 57.662231 -0.67202652
93.296814 45.900482 -0.96175522
99.795074 41.885872 0
92.536201 46.370392 0.93678564
73.468979 58.165882 -0.92709637
74.217842 57.704483 -0.66885501
93.345207 45.919544 -0.9626258
100.03004 41.800819 0
92.544205 46.413063 0.93635011
73.471649 58.180012 -0.92666876
74.194588 57.735794 -0.66683668
93.49543 45.876114 -0.96683466
100.19875 41.757172 0
92.547722 46.45845 0.93576956
73.509323 58.17268 -0.92966497
74.193336 57.753517 -0.66626066
93.605934 45.85746 -0.96973747
100.39867 41.69487 0
92.537888 46.511955 0.93475395
73.503204 58.192211 -0.92838067
74.209694 57.760448 -0.66683668
93.765282 45.809246 -0.97423637
100.59435 41.635731 0
92.54126 46.557293 0.93417341
73.492683 58.214386 -0.92666876
74.217224 57.772789 -0.66683668
93.778358 45.850639 -0.9739458
100.8169 41.560776 0
92.553436 46.597206 0.93388289
73.521599 58.212528 -0.92880821
74.229179 57.782444 -0.66712582
101.00854 41.50526 0
92.552246 46.645214 0.93315732
73.528587 58.224037 -0.92880821
74.214554 57.808224 -0.66568351
101.16476 41.471752 0
92.550972 46.693192 0.93243176
73.535553 58.235554 -0.92880821
74.261879 57.796478 -0.66827899
101.34785 41.422436 0
92.558517 46.735771 0.93199617
73.551315 58.241776 -0.92966497
74.287094 57.798199 -0.66943216
101.6069 41.327835 0
92.570465 46.775654 0.93170619
73.554794 58.247547 -0.92966497
74.2155 57.84977 -0.66453147
64 64 -0
101.79003 41.24855 0
92.549698 46.811684 0.93069005
73.557327 58.261745 -0.92923576
74.182999 57.886089 -0.66193599
64 64 -0
101.99597 41.187069 0
92.534798 46.867596 0.92952895
73.577469 58.265385 -0.93052006
74.061691 57.975452 -0.65357691
64 64 -0
102.15747 41.152786 0
92.524284 46.920769 0.92851341
73.593216 58.27169 -0.93137681
73.935707 58.067181 -0.64492756
102.43532 41.049469 0
92.549355 46.952583 0.92865843
73.604538 58.280663 -0.93180442
73.8451 58.137413 -0.63858569
102.59717 41.016045 0
92.529755 47.011021 0.92735231
73.611443 58.292271 -0.93180442
73.794357 58.183647 -0.63483816
102.85315 40.927162 0
92.523438 47.061432 0.92648119
73.596245 58.316967 -0.92966497
73.881485 58.148045 -0.64002687
103.08251 40.854786 0
92.53495 47.1012 0.92619115
73.616356 58.32074 -0.93094766
73.942001 58.128422 -0.64348638
103.29868 40.790863 0
92.528488 47.15155 0.92532003
73.632065 58.327148 -0.93180442
73.846581 58.200809 -0.6368565
103.5554 40.703659 0
92.544357 47.188671 0.92517507
73.643341 58.336193 -0.93223196
73.951706 58.155083 -0.64319837
103.72267 40.669754 0
92.501923 47.260017 0.92314339
73.663467 58.340065 -0.93351626
73.851631 58.229855 -0.63627934
103.82267 40.67569 0
92.54454 47.281334 0.92386895
73.665855 58.35434 -0.93308705
73.956879 58.184361 -0.64262235
103.85533 40.721191 0
92.654472 47.26342 0.92677176
73.668236 58.368607 -0.93265951
73.838737 58.269299 -0.63455015
103.79347 40.821758 0
92.764473 47.24575 0.92967397
73.702705 58.356377 -0.93565571
73.994225 58.186817 -0.64435154
103.79846 40.851044 0
92.877914 47.203033 0.93301231
73.705086 58.370678 -0.93522811
73.978867 58.211872 -0.64291036
103.70486 40.969654 0
93.019554 47.167542 0.93693066
73.711876 58.382408 -0.93522811
74.00824 58.210983 -0.64435154
103.68761 41.043701 0
93.183823 47.119354 0.94157511
73.73645 58.383888 -0.93694001
73.930084 58.272194 -0.6388737
103.69278 41.104675 0
93.379753 47.053368 0.94723517
73.734314 58.40078 -0.93608326
74.076012 58.204239 -0.64781106
103.68432 41.173416 0
93.55336 47.000782 0.9521696
73.745529 58.409996 -0.9365108
74.033646 58.244732 -0.64463955
103.65769 41.252457 0
93.740677 46.940834 0.95753962
73.779022 58.406475 -0.9390794
73.887924 58.344181 -0.63483816
103.64449 41.32365 0
93.896591 46.899376 0.96189356
73.776848 58.423386 -0.93822265
74.164337 58.202362 -0.6521346
103.64925 41.384472 0
94.070702 46.847977 0.96682799
73.774658 58.440277 -0.93736756
74.099411 58.255558 -0.64752305
103.63582 41.455551 0
94.263054 46.78669 0.97234303
73.776909 58.45462 -0.93694001
73.980354 58.339226 -0.63945085
103.61777 41.529137 0
94.45108 46.728409 0.97771305
73.801476 58.456329 -0.93865186
74.135773 58.26725 -0.64896423
103.62677 41.587273 0
94.603104 46.691017 0.98192197
73.808167 58.468174 -0.93865186
74.025551 58.34557 -0.64146918
103.62209 41.653076 0
94.700943 46.684612 0.98438919
73.811508 58.474102 -0.93865186
74.132622 58.293251 -0.64809906
103.59023 41.702553 0
94.77478 46.667465 0.98642087
73.827126 58.480938 -0.93950701
74.08989 58.333363 -0.64492756
103.60808 41.755501 0
94.88633 46.653767 0.98932362
73.829308 58.495323 -0.9390794
74.101257 58.343025 -0.6452167
103.55318 41.849159 0
95.029678 46.622543 0.99324197
73.840431 58.504704 -0.93950701
64 64 -0
103.55719 41.909653 0
95.159546 46.599239 0.99672532
73.847061 58.516598 -0.93950701
64 64 -0
103.52928 41.987854 0
95.29406 46.573696 1.0003537
73.862671 58.52351 -0.94036376
64 64 -0
103.4603 42.088692 0
95.374153 46.578728 1.0022403
73.882736 58.527977 -0.9416464
64 64 -0
103.48674 42.136391 0
95.39518 46.616646 1.0022403
73.889343 58.539921 -0.9416464
103.42657 42.231911 0
95.443451 46.63953 1.0031109
73.904938 58.546917 -0.94250315
103.39357 42.312195 0
95.519035 46.647461 1.0048525
73.911522 58.558891 -0.94250315
64 64 -0
103.39694 42.372334 0
95.617416 46.643044 1.0073198
73.913574 58.573341 -0.94207394
64 64 -0
103.38194 42.442451 0
95.734093 46.62886 1.0103676
73.929146 58.580402 -0.9429307
64 64 -0
103.39427 42.497528 0
95.905594 46.585052 1.0151571
73.95372 58.582584 -0.9446426
64 64 -0
103.36993 42.572517 0
96.03614 46.564003 1.0186398
73.956993 58.5886 -0.9446426
64 64 -0
103.36458 42.606247 0
96.12429 46.541176 1.0211071
73.963524 58.600636 -0.9446426
64 64 -0
103.35378 42.673668 0
96.264168 46.515625 1.024881
73.974556 58.610241 -0.94507015
64 64 -0
103.3429 42.741028 0
96.385849 46.500275 1.0280738
73.990105 58.61742 -0.9459269
64 64 -0
103.31816 42.815731 0
96.55336 46.460548 1.0327177
73.992065 58.631931 -0.94549769
64 64 -0
103.2887 42.892815 0
96.716446 46.423649 1.0372171
74.0186 58.648834 -0.94678199
64 64 -0
103.27533 43.022148 0
96.841331 46.458694 1.0398294
74.025063 58.660946 -0.94678199
103.24093 43.101425 0
96.839569 46.510605 1.0391039
74.054169 58.661026 -0.94892144
64 64 -0
103.22938 43.168388 0
96.86068 46.550293 1.0391039
74.042465 58.682789 -0.9472096
64 64 -0
103.21772 43.235287 0
96.890915 46.585155 1.0393938
74.048882 58.694927 -0.9472096
64 64 -0
103.21056 43.299702 0
96.888962 46.637039 1.0386683
74.073456 58.697506 -0.94892144
64 64 -0
103.20792 43.361637 0
91.805634 49.363602 0.87757212
74.085762 58.698811 -0.9497782
64 64 -0
103.19272 43.399864 0
91.768456 49.404587 0.87612045
74.083054 58.715775 -0.94892144
64 64 -0
103.1807 43.466564 0
91.758461 49.452618 0.87524986
74.107635 58.718449 -0.95063329
64 64 -0
103.1363 43.550072 0
91.743774 49.503017 0.87423372
74.114006 58.730667 -0.95063329
64 64 -0
103.11481 43.621429 0
91.742836 49.546158 0.87365317
74.134041 58.735786 -0.95191765
64 64 -0
103.09322 43.692696 0
91.718781 49.60125 0.87234706
74.144943 58.745678 -0.95234519
64 64 -0
103.04379 43.778248 0
91.699234 49.65387 0.87118596
74.151291 58.757942 -0.95234519
64 64 -0
103.04045 43.839764 0
91.711937 49.689735 0.87104094
74.157616 58.77021 -0.95234519
76.831841 57.393345 -0.80434525
103.03238 43.903633 0
91.68763 49.744637 0.86973482
74.168488 58.780144 -0.95277274
64 64 -0
103.02423 43.967442 0
91.68634 49.787594 0.86915427
74.179375 58.790089 -0.95320195
64 64 -0
103.01134 44.033581 0
91.689613 49.828163 0.86871874
74.181076 58.804733 -0.95277274
76.846504 57.444603 -0.80376923
102.98907 44.104397 0
91.692825 49.868721 0.86828315
74.187347 58.817039 -0.95277274
76.835968 57.469513 -0.80261606
102.98526 44.16568 0
91.705254 49.904549 0.86813819
74.213371 58.811562 -0.95491379
76.821465 57.486641 -0.80146289
102.95547 44.210449 0
91.764732 49.895393 0.86973482
74.23336 58.816952 -0.95619649
76.833939 57.499802 -0.8017509
102.93757 44.278698 0
91.855934 49.89138 0.87205708
74.230461 58.833946 -0.95534134
76.851028 57.510647 -0.80232805
102.93349 44.339844 0
92.026024 49.847759 0.87684596
74.24128 58.844006 -0.95576894
76.854225 57.528511 -0.80203891
102.94328 44.393913 0
92.275185 49.76479 0.8841027
74.270439 58.844872 -0.95790833
76.875908 57.537083 -0.80290407
102.99949 44.424644 0
92.478149 49.705711 0.88990825
74.262878 58.864178 -0.95662403
76.869827 57.559593 -0.80203891
103.10689 44.429863 0
92.634819 49.670364 0.89426214
74.292061 58.865116 -0.95876509
76.840569 57.593624 -0.79973257
103.36337 44.360947 0
92.884613 49.588978 0.90151888
74.279877 58.886703 -0.95705324
76.825142 57.620659 -0.79829139
103.65736 44.274078 0
93.102074 49.524372 0.90775943
74.295235 58.894569 -0.95790833
76.763344 57.670628 -0.79396784
103.91432 44.206394 0
93.34301 49.44873 0.9147256
74.319809 58.897911 -0.95962024
76.613327 57.764 -0.78416646
104.22746 44.111629 0
93.509644 49.410496 0.91937006
74.321365 58.912651 -0.95919263
76.560532 57.808975 -0.78041893
104.59694 43.989967 0
93.778946 49.322105 0.92720675
74.336708 58.920601 -0.96004778
76.554077 57.831001 -0.77955377
104.86867 43.917374 0
93.997223 49.259541 0.9334479
74.342834 58.933098 -0.96004778
76.463966 57.893967 -0.77349991
105.27617 43.779015 0
94.187668 49.211216 0.93881732
74.350525 58.937084 -0.96047699
76.463013 57.903767 -0.7732119
105.56422 43.669025 0
94.434669 49.113003 0.94621903
74.370461 58.942848 -0.96175963
76.41922 57.943775 -0.77004039
105.81331 43.609764 0
94.648811 49.054123 0.95231462
74.385811 58.95089 -0.96261638
76.459099 57.942951 -0.77205873
106.01111 43.576103 0
94.872498 48.991188 0.95870072
74.387283 58.965679 -0.96218884
76.517601 57.933197 -0.7752291
106.16221 43.56559 0
95.14312 48.906124 0.96653742
74.425713 58.962605 -0.96518338
76.57151 57.925819 -0.77811259
106.3837 43.52145 0
95.381264 48.837502 0.97335911
74.413284 58.984119 -0.96347153
76.760582 57.85347 -0.78935516
106.52095 43.518467 0
95.661743 48.749146 0.98148638
74.410095 59.001144 -0.96261638
76.828621 57.839783 -0.79310268
106.50345 43.590134 0
95.895638 48.683933 0.98816252
74.430023 59.007076 -0.96390069
76.887383 57.830719 -0.79627419
106.35907 43.722416 0
96.134415 48.617027 0.99498367
74.473099 59.001999 -0.96732283
76.946167 57.821793 -0.79944456
106.27551 43.825165 0
96.37809 48.548439 1.0019498
74.437408 59.034508 -0.96347153
76.972305 57.828552 -0.80059773
106.23405 43.907562 0
96.640747 48.471485 1.0094965
74.471245 59.033916 -0.96604013
74.717682 58.917038 -0.66107196
101.93185 46.010475 0
96.955299 48.370647 1.0186398
74.495804 59.037796 -0.96775198
74.850075 58.870304 -0.66885501
101.95355 46.05632 0
97.180885 48.312744 1.025026
74.470932 59.057293 -0.96518338
74.759613 58.921021 -0.66308916
101.95026 46.085922 0
97.420609 48.224102 1.0321372
74.500122 59.059021 -0.96732283
77.105949 57.832806 -0.80722874
101.93893 46.147293 0
97.735886 48.125099 1.0412805
74.515388 59.067345 -0.96817958
77.075928 57.866222 -0.8049224
101.95575 46.195366 0
97.929123 48.084213 1.0466505
74.521339 59.080055 -0.96817958
77.083328 57.882027 -0.8049224
101.9631 46.247849 0
98.33432 47.944725 1.0585511
74.527275 59.09277 -0.96817958
77.086014 57.900032 -0.80463326
101.96565 46.302528 0
98.52327 47.907181 1.0637761
74.556473 59.094681 -0.97031897
77.088684 57.918026 -0.80434525
101.97755 46.352806 0
98.971535 47.749634 1.0769829
74.553085 59.111752 -0.96946388
77.096024 57.933846 -0.80434525
101.98468 46.405273 0
99.330643 47.63464 1.0874324
74.568298 59.120205 -0.97031897
77.112747 57.945332 -0.8049224
102.05318 46.429359 0
99.529678 47.594559 1.0929474
74.602158 59.120102 -0.97288597
64 64 -0
102.05074 46.486233 0
99.761909 47.539726 1.0994785
74.584717 59.14362 -0.97074652
64 64 -0
102.19487 46.475792 0
100.14545 47.416084 1.1106535
74.585915 59.158546 -0.97031897
64 64 -0
102.41954 46.428875 0
100.43484 47.336571 1.1189264
74.624466 59.156429 -0.97331518
64 64 -0
102.89066 46.270203 0
100.83324 47.208153 1.1305369
74.650749 59.152218 -0.97545457
75.784859 58.636017 -0.72160947
103.25663 46.131996 0
101.2312 47.053886 1.1424376
74.656601 59.165089 -0.97545457
75.654739 58.712231 -0.7132504
103.58629 46.039658 0
101.48355 46.993675 1.1495492
74.685822 59.167393 -0.97759402
75.679962 58.7178 -0.71440244
103.84032 45.982422 0
101.78343 46.91264 1.158112
74.682297 59.184525 -0.97673893
75.648621 58.748913 -0.71209723
104.14201 45.904373 0
121.69688 37.990814 1.767521
74.702141 59.191128 -0.97802156
75.6408 58.769356 -0.71123207
104.54839 45.780102 0
121.7093 38.069069 1.7669405
74.722008 59.197765 -0.97930586
75.623512 58.793995 -0.70979089
104.76988 45.739754 0
121.74059 38.138817 1.7669405
64 64 -0
74.746552 59.202354 -0.98101777
75.629791 58.808044 -0.70979089
105.24342 45.587463 0
121.75755 38.214962 1.766505
64 64 -0
74.733582 59.22369 -0.97930586
75.541534 58.864162 -0.70402503
105.74592 45.423592 0
121.78867 38.284767 1.766505
74.754494 59.245487 -0.98016262
75.539719 58.898346 -0.70315987
106.90935 45.029976 0
121.94571 38.382469 1.7694077
74.746132 59.264698 -0.97887832
75.545868 58.912292 -0.70315987
107.19894 44.96431 0
122.08598 38.404312 1.7727455
74.780037 59.265305 -0.98144531
75.528336 58.936646 -0.70171869
107.51262 44.888847 0
122.16446 38.453613 1.7741972
74.757545 59.290684 -0.97887832
75.425461 58.998287 -0.6950888
107.86942 44.795334 0
122.28573 38.484322 1.7769544
74.793304 59.282795 -0.98187286
75.291031 59.065266 -0.6867286
64 64 0
100.03058 48.252869 1.0981724
74.784889 59.301987 -0.98059022
75.183159 59.128494 -0.67980957
108.81555 44.477859 0
99.98764 48.323395 1.0962857
74.804672 59.308891 -0.98187286
75.136841 59.164673 -0.67663807
109.22581 44.364128 0
99.925522 48.402073 1.0938184
74.791504 59.330101 -0.98016262
75.21389 59.147316 -0.68096274
109.50745 44.307167 0
99.930038 48.451687 1.093383
74.839561 59.324844 -0.98401392
75.234001 59.15472 -0.6818279
64 64 0
99.958344 48.49099 1.0936735
74.8452 59.337944 -0.98401392
75.2351 59.170341 -0.68153989
112.06527 43.338066 0
100.0057 48.522141 1.0945441
74.855545 59.349033 -0.98444152
75.250427 59.179848 -0.68211591
112.25286 43.326466 0
100.01961 48.567703 1.0943991
74.861153 59.362152 -0.98444152
75.275276 59.185318 -0.68326908
112.24907 43.397053 0
100.11469 48.578583 1.0967213
74.871468 59.373272 -0.98486906
75.281082 59.198948 -0.68326908
112.29309 43.447212 0
100.16676 48.607994 1.0977368
74.900681 59.376389 -0.98700845
75.28212 59.2146 -0.68298107
112.38017 43.479164 0
139.79263 31.851952 2.2992842
74.906258 59.389565 -0.98700845
75.311707 59.218166 -0.68442225
64 64 0
139.72612 31.988071 2.2960913
74.911819 59.402744 -0.98700845
75.317482 59.231838 -0.68442225
64 64 0
139.90842 32.019066 2.3004453
74.928802 59.403366 -0.98829281
75.329887 59.234669 -0.68499827
132.43852 35.214874 0
139.87024 32.089111 2.2987037
74.929619 59.418556 -0.98786521
75.345184 59.244358 -0.68557543
132.40128 35.327766 0
151.07553 27.499947 2.6368616
74.935143 59.431767 -0.98786521
75.355698 59.256081 -0.68586344
132.33501 35.452568 0
151.20587 27.56913 2.6394739
64 64 -0
74.950127 59.44104 -0.98872036
75.366188 59.267818 -0.68615144
132.31659 35.557167 0
151.19226 27.698498 2.6377323
74.979332 59.444439 -0.99085975
75.391006 59.273624 -0.68730462
132.19707 35.703568 0
151.17366 27.829769 2.6358454
75.003807 59.44986 -0.99257165
75.411057 59.28146 -0.68816978
132.17831 35.807865 0
151.05882 28.00066 2.6310561
75.014061 59.461197 -0.99300086
75.416748 59.29525 -0.68816978
64 64 -0
148.00578 29.381912 0
153.96103 26.927803 2.7174096
75.00528 59.480362 -0.9917165
75.422424 59.309052 -0.68816978
64 64 -0
147.98495 29.509144 0
153.90961 27.076015 2.7145069
75.001221 59.497559 -0.99085975
75.428085 59.322853 -0.68816978
64 64 -0
148.10365 29.579105 0
154.02631 27.155151 2.7166841
75.03994 59.497276 -0.99385595
75.452888 59.328854 -0.68932295
64 64 -0
148.17409 29.668964 0
128.1544 37.834145 1.9350034
75.031097 59.516422 -0.99257165
75.482483 59.332958 -0.69076413
64 64 -0
148.24927 29.756977 0
128.10413 37.944946 1.9325361
75.065063 59.518188 -0.99514025
75.497711 59.342949 -0.69134128
64 64 -0
148.3147 29.84903 0
126.26193 38.781319 1.8760798
75.079987 59.527721 -0.9959954
75.508125 59.354908 -0.69162929
64 64 -0
148.44278 29.915871 0
126.32608 38.842957 1.8770953
75.068413 59.540165 -0.99471271
75.510925 59.361862 -0.69162929
64 64 -0
148.52129 29.94355 0
126.29308 38.90004 1.8756442
75.069016 59.555462 -0.9942835
75.526115 59.371925 -0.69220531
148.61069 30.026302 0
126.20761 39.021797 1.8721609
75.117279 59.551674 -0.99813479
75.541313 59.382008 -0.69278246
148.67099 30.120831 0
126.20881 39.108562 1.8712903
75.108353 59.570812 -0.99685216
75.498825 59.415119 -0.68989897
148.77956 30.196178 0
126.25333 39.177971 1.8717259
75.142311 59.572865 -0.99941909
