# .PCD v0.7 - Point Cloud Data file format
VERSION 0.7
FIELDS x y z
SIZE 4 4 4
TYPE F F F
COUNT 1 1 1
WIDTH 1635
HEIGHT 1
VIEWPOINT 0 0 0 1 0 0 0
POINTS 1635
DATA ascii
54.570629 62.424667 -0.53278762
51.699795 61.945045 -0.34828231
40.965469 60.151699 0
19.152523 56.507484 1.2698636
58.60136 63.091362 -0.90256822
57.84993 62.96489 -0.86032581
56.833813 62.793865 -0.80492634
55.639561 62.592865 -0.70670432
54.567425 62.412415 -0.53307676
51.712547 61.931911 -0.34799176
40.995796 60.128189 0
19.171867 56.455029 1.2695731
58.640903 63.094688 -0.89604849
57.895077 62.968693 -0.85409707
56.834541 62.789539 -0.80492634
55.615086 62.583534 -0.70884538
54.573502 62.407578 -0.53278762
51.708656 61.923622 -0.34813732
40.982735 60.111691 0
19.19693 56.431408 1.2689925
58.680984 63.094845 -0.88952881
57.876541 62.957951 -0.8568657
56.831005 62.780029 -0.80548865
55.62188 62.574268 -0.70841616
54.565224 62.394455 -0.53336477
51.721432 61.910515 -0.34784675
41.018227 60.089119 0
19.211227 56.378151 1.2688475
58.652859 63.083412 -0.89441699
57.892628 62.953094 -0.85479122
56.837486 62.772224 -0.80492634
55.623608 62.564144 -0.70841616
54.572262 62.383926 -0.53307676
51.739338 61.898315 -0.34741119
40.997326 60.056953 0
19.210217 56.322277 1.2691381
58.69294 63.083679 -0.88789731
57.844463 62.93718 -0.8617115
56.833973 62.762707 -0.80548865
55.620274 62.55315 -0.70884538
54.553833 62.369015 -0.53422993
51.767487 61.887924 -0.34668565
41.03289 60.034477 0
19.15807 56.257553 1.2708797
58.679436 63.074726 -0.89034295
57.855648 62.931465 -0.86032581
56.830452 62.753178 -0.80605316
55.596741 62.538628 -0.71098477
54.566013 62.359379 -0.53365278
51.744453 61.868694 -0.34741119
40.976162 59.996029 0
19.203304 56.20961 1.2698636
58.53936 63.043564 -0.91397619
57.822342 62.91798 -0.86517161
56.786919 62.736626 -0.8111186
55.598515 62.528477 -0.71098477
54.568001 62.34798 -0.53365278
51.767513 61.857471 -0.34683064
41.052788 59.980782 0
19.192276 56.151901 1.2704442
58.628136 63.052422 -0.89930838
57.823654 62.910515 -0.86517161
56.838505 62.73674 -0.80548865
55.60537 62.519218 -0.71055561
54.590382 62.340179 -0.53249961
51.764977 61.841789 -0.34697619
41.016651 59.945824 0
28.433987 57.726292 1.008626
58.663357 63.051987 -0.89360285
57.884258 62.913586 -0.8568657
56.830021 62.726307 -0.80661553
55.602097 62.508175 -0.71098477
54.572021 62.325191 -0.53365278
51.762482 61.826099 -0.34712121
40.995949 59.913506 0
28.467171 57.687866 1.0079004
58.601254 63.034222 -0.90419662
57.890511 62.907078 -0.85617417
56.821571 62.715858 -0.80774021
55.603905 62.498032 -0.71098477
54.574051 62.313801 -0.53365278
51.765118 61.811314 -0.34712121
41.082882 59.900379 0
28.566895 57.661404 1.0052881
58.558647 63.019814 -0.91153049
57.891834 62.899696 -0.85617417
56.813114 62.705379 -0.80886704
55.595627 62.486069 -0.71183991
54.550644 62.297829 -0.53509396
51.752422 61.793766 -0.34755677
41.051987 59.86623 0
28.830299 57.664661 0.99803144
58.705738 63.039707 -0.88708311
57.888237 62.891422 -0.8568657
56.804695 62.694885 -0.80999172
55.597466 62.475914 -0.71183991
54.573067 62.290104 -0.53394079
51.780678 61.783611 -0.34683064
41.031399 59.833862 0
64 64 0
58.658268 63.024426 -0.89523435
57.899445 62.885841 -0.8554827
56.841255 62.692581 -0.80605316
55.579109 62.462074 -0.71355176
54.590393 62.281502 -0.53307676
51.783367 61.768845 -0.34683064
41.087643 59.81546 0
64 64 0
58.640022 63.0144 -0.89849108
57.910675 62.880287 -0.85409707
56.832855 62.682095 -0.80717784
55.570866 62.450039 -0.71440852
54.551777 62.26265 -0.53538311
51.775841 61.752205 -0.34712121
41.062012 59.782131 0
64 64 0
58.592602 62.998924 -0.90664226
57.852825 62.861969 -0.86240298
56.824448 62.671585 -0.80830473
55.562656 62.437988 -0.71526366
54.564064 62.253117 -0.53480595
51.788795 61.73933 -0.34683064
41.04665 59.750629 0
64 64 0
58.613251 62.996014 -0.90338242
57.869007 62.8573 -0.86032581
56.821068 62.661983 -0.80886704
55.579697 62.430618 -0.7139793
54.571262 62.242664 -0.53451794
51.786411 61.723621 -0.34697619
41.04158 59.720993 0
29.007164 57.478008 0.99411255
58.658192 62.997711 -0.89604849
57.845722 62.845264 -0.86378866
56.837677 62.656124 -0.80717784
55.5816 62.420444 -0.7139793
54.563232 62.229366 -0.53509396
51.789169 61.708866 -0.34697619
41.051876 59.694214 0
29.12743 57.456814 0.99091977
58.605988 62.981167 -0.90501076
57.906284 62.849003 -0.8554827
56.819332 62.6437 -0.80942941
55.573414 62.408367 -0.71483606
54.560284 62.217003 -0.53538311
51.786846 61.69315 -0.34712121
41.062202 59.667454 0
29.303875 57.44651 0.9861303
58.534378 62.9608 -0.91723603
57.912605 62.842579 -0.85479122
56.791016 62.629326 -0.8128078
55.540031 62.391472 -0.71783227
54.562447 62.205597 -0.53538311
51.769222 61.674511 -0.34770176
41.077694 59.641685 0
29.332241 57.408474 0.98554975
58.642437 62.974636 -0.89930838
57.894314 62.831455 -0.85755718
56.832603 62.628258 -0.80830473
55.562153 62.385109 -0.71612042
54.559544 62.193226 -0.53567111
51.746521 61.65485 -0.34842733
41.062527 59.610081 0
29.432098 57.384174 0.98293751
58.614567 62.962555 -0.90419662
57.880947 62.821228 -0.85963434
56.819313 62.616718 -0.80999172
55.543945 62.371033 -0.71783227
54.55666 62.180843 -0.53595912
51.744267 61.639065 -0.34857231
41.124054 59.593193 0
29.516647 57.357151 0.98076081
58.654648 62.963573 -0.89767689
57.91684 62.820518 -0.85479122
56.825974 62.609009 -0.80942941
55.550972 62.361797 -0.71740305
54.548698 62.167461 -0.53653628
51.706314 61.616344 -0.34973344
41.119186 59.563576 0
29.601231 57.33033 0.97858357
58.709259 62.967529 -0.88871461
57.89859 62.80933 -0.85755718
56.822678 62.599369 -0.80999172
55.547905 62.350601 -0.71783227
54.550919 62.156044 -0.53653628
51.739799 61.60746 -0.34886289
41.088799 59.528954 0
29.619507 57.29076 0.9782936
58.681416 62.955421 -0.89360285
57.865566 62.795189 -0.86240298
56.824371 62.590698 -0.80999172
55.554958 62.341381 -0.71740305
54.553154 62.144627 -0.53653628
51.742699 61.592651 -0.34886289
41.140182 59.5103 0
29.734722 57.270252 0.97524583
58.619644 62.936539 -0.90419662
57.847336 62.783886 -0.86517161
56.841022 62.58498 -0.80830473
55.567032 62.333168 -0.71654797
54.555401 62.133213 -0.53653628
51.766006 61.581871 -0.34828231
41.155846 59.484703 0
29.778572 57.235909 0.97422969
58.600891 62.92944 -0.90745646
57.833302 62.777241 -0.86724877
56.85186 62.582634 -0.80717784
55.537834 62.322086 -0.71911496
54.561623 62.128517 -0.53624713
51.772564 61.575489 -0.34813732
41.153458 59.469887 0
29.874413 57.233429 0.97161746
58.631268 62.928719 -0.90256822
57.903679 62.783539 -0.85755718
56.843597 62.57201 -0.80830473
55.539867 62.311859 -0.71911496
54.553734 62.115086 -0.53682429
51.780613 61.561737 -0.34799176
41.153847 59.441269 0
29.887707 57.193214 0.97147244
58.700424 62.93586 -0.89115715
57.890392 62.773209 -0.85963434
56.800495 62.554359 -0.81337011
55.546944 62.30265 -0.71868736
54.556019 62.103676 -0.53682429
51.79884 61.550041 -0.34755677
41.133862 59.408543 0
30.064091 57.185764 0.96668297
58.60965 62.910854 -0.90664226
57.872208 62.761852 -0.86240298
56.847073 62.554718 -0.80830473
55.559055 62.294468 -0.71783227
54.558315 62.092266 -0.53682429
51.806919 61.536331 -0.34741119
41.154736 59.38401 0
64 64 0
58.572216 62.896465 -0.91316199
57.903198 62.760445 -0.85825133
56.838871 62.544052 -0.80942941
55.551067 62.282227 -0.71868736
54.545433 62.07777 -0.53768831
51.82008 61.52367 -0.34712121
41.170521 59.358482 0
64 64 0
58.71883 62.919624 -0.88871461
57.870304 62.74604 -0.86309445
56.840637 62.5354 -0.80942941
55.528008 62.266876 -0.7208268
54.557892 62.068417 -0.5371123
51.833275 61.51104 -0.34683064
41.186356 59.332989 0
64 64 0
58.681408 62.905273 -0.89523435
57.930779 62.750771 -0.85479122
56.822502 62.522655 -0.81168091
55.555244 62.261814 -0.71868736
54.56023 62.057011 -0.5371123
51.795567 61.487961 -0.34799176
41.207291 59.308571 0
64 64 0
58.629501 62.887825 -0.90419662
57.843864 62.725124 -0.86724877
56.839226 62.517075 -0.80999172
55.532219 62.246407 -0.7208268
54.552464 62.04351 -0.53768831
51.798611 61.473213 -0.34799176
41.207886 59.27998 0
64 64 0
58.650208 62.885368 -0.90093672
57.850319 62.718712 -0.8665573
56.801224 62.50013 -0.81449485
55.539364 62.237221 -0.72039926
54.549759 62.031036 -0.53797746
51.776241 61.453175 -0.3487173
41.208511 59.251381 0
64 64 0
58.627373 62.873837 -0.90501076
57.871513 62.715397 -0.86378866
56.832874 62.497688 -0.8111186
55.5415 62.227001 -0.72039926
54.552143 62.019619 -0.53797746
51.779327 61.438404 -0.3487173
41.219357 59.224915 0
64 64 0
58.619053 62.865303 -0.90664226
57.922173 62.718349 -0.8568657
56.84465 62.491127 -0.80999172
55.538631 62.215725 -0.7208268
54.55962 62.009277 -0.53768831
51.777332 61.422565 -0.34886289
41.23534 59.199543 0
64 64 0
58.683289 62.872135 -0.89604849
57.879559 62.701637 -0.86309445
56.841492 62.481426 -0.81055623
55.550827 62.20763 -0.71997172
54.54179 61.993576 -0.53884149
51.780457 61.407799 -0.34886289
41.225876 59.168797 0
64 64 0
58.641148 62.85643 -0.90338242
57.915466 62.701569 -0.85825133
56.84333 62.472778 -0.81055623
55.527901 62.192066 -0.72211111
54.554329 61.984306 -0.53826547
51.803925 61.397373 -0.34828231
41.236816 59.142368 0
64 64 0
58.792347 62.882114 -0.87812084
57.907238 62.692112 -0.85963434
56.845181 62.46413 -0.81055623
55.540138 62.183987 -0.72125435
54.536541 61.968552 -0.53941864
51.807079 61.382641 -0.34828231
41.257973 59.118145 0
64 64 0
58.639099 62.842438 -0.90419662
57.908821 62.684753 -0.85963434
56.812286 62.447983 -0.81449485
55.547352 62.17485 -0.7208268
54.539001 61.957119 -0.53941864
51.84074 61.374493 -0.34741119
41.253704 59.08847 0
64 64 0
58.66465 62.841206 -0.90012258
57.866291 62.667809 -0.86586314
56.83403 62.443611 -0.81224328
55.554577 62.165726 -0.72039926
54.536427 61.944592 -0.53970665
51.833755 61.357594 -0.34770176
41.269836 59.063202 0
64 64 0
58.61293 62.823154 -0.90908796
57.965927 62.681812 -0.85202253
56.840878 62.436039 -0.81168091
55.536736 62.151138 -0.72211111
54.52375 61.929844 -0.54057181
51.816647 61.338459 -0.34828231
41.296158 59.040184 0
64 64 0
58.590218 62.811344 -0.91316199
57.913628 62.662682 -0.85963434
56.862625 62.431751 -0.80942941
55.549015 62.14312 -0.72125435
54.52626 61.918396 -0.54057181
51.81987 61.323738 -0.34828231
41.286911 59.009399 0
64 64 0
58.659245 62.819744 -0.90175092
57.910355 62.654247 -0.86032581
56.824829 62.414356 -0.81393248
55.536221 62.129585 -0.72253865
54.528782 61.906952 -0.54057181
51.858643 61.316875 -0.3472662
41.287884 58.980839 0
64 64 0
58.699257 62.821869 -0.89523435
57.848316 62.63274 -0.86932325
56.831707 62.406788 -0.81337011
55.528454 62.11713 -0.72339541
54.546471 61.898876 -0.53970665
51.841599 61.297695 -0.34784675
41.314289 58.957916 0
64 64 0
58.710342 62.817623 -0.89360285
57.864647 62.628586 -0.86724877
56.858429 62.403671 -0.81055623
55.545769 62.110256 -0.72211111
54.543976 61.88633 -0.53999466
51.844872 61.283009 -0.34784675
41.300079 58.925964 0
64 64 0
58.687668 62.805813 -0.89767689
57.915276 62.632179 -0.86032581
56.84053 62.390583 -0.8128078
55.563091 62.10342 -0.7208268
54.53643 61.872631 -0.54057181
51.85323 61.269463 -0.34770176
41.301155 58.8974 0
64 64 0
58.693932 62.800484 -0.89686269
57.907135 62.622616 -0.8617115
56.852402 62.384178 -0.81168091
55.530331 62.085304 -0.72382301
54.539009 61.861198 -0.54057181
51.846413 61.252495 -0.34799176
41.332714 58.875717 0
64 64 0
58.71394 62.801647 -0.89360285
57.903076 62.617825 -0.86240298
56.838509 62.376488 -0.81337011
55.561543 62.086998 -0.72125435
54.535263 61.85434 -0.54085982
51.842991 61.244003 -0.34813732
41.290131 58.851665 0
64 64 0
58.623814 62.774384 -0.90908796
57.865616 62.60154 -0.86794025
56.825626 62.364449 -0.81505716
55.548836 62.07338 -0.72253865
54.527763 61.840603 -0.54143697
51.841267 61.228161 -0.34828231
41.311581 58.827698 0
64 64 0
58.707207 62.786667 -0.89523435
57.906437 62.603096 -0.86240298
56.852367 62.361458 -0.81224328
55.55117 62.063168 -0.72253865
54.53038 61.829163 -0.54143697
51.859825 61.216957 -0.34784675
41.328003 58.802612 0
64 64 0
58.621979 62.760288 -0.90990216
57.903244 62.594608 -0.86309445
56.834545 62.348259 -0.81449485
55.538506 62.0495 -0.72382301
54.538067 61.818886 -0.54114783
51.837883 61.196453 -0.34857231
41.319077 58.771713 0
64 64 0
58.663506 62.756271 -0.90338242
57.911541 62.581017 -0.86240298
56.828651 62.328636 -0.81562167
55.548237 62.030224 -0.72339541
54.533279 61.793674 -0.54172498
51.849747 61.168247 -0.34842733
41.326714 58.71574 0
64 64 0
58.689072 62.755463 -0.89930838
57.94746 62.581676 -0.85755718
56.835636 62.321136 -0.81505716
55.535645 62.016502 -0.7246781
54.535954 61.782238 -0.54172498
51.858234 61.154755 -0.34828231
41.363514 58.695469 0
64 64 0
58.632843 62.735443 -0.90908796
57.929642 62.569759 -0.86032581
56.847553 62.314808 -0.81393248
55.558037 62.010986 -0.72296625
54.538639 61.770805 -0.54172498
51.866734 61.141277 -0.34813732
41.369942 58.668121 0
32.023911 56.466099 0.91748339
58.682484 62.740353 -0.90093672
57.916725 62.558956 -0.86240298
56.844654 62.304996 -0.81449485
55.545452 61.997234 -0.72425056
54.531281 61.756992 -0.542301
51.860092 61.124222 -0.34842733
41.371338 58.639584 0
32.169582 56.459812 0.91356444
58.525326 62.696136 -0.9278298
57.952641 62.559746 -0.85755718
56.831871 62.29282 -0.81618404
55.517921 61.979885 -0.72681755
54.528973 61.744354 -0.54258901
51.868629 61.11076 -0.34828231
41.377831 58.612244 0
32.087727 56.399689 0.91617668
58.733608 62.739014 -0.89278865
57.934868 62.547764 -0.86032581
56.838879 62.285343 -0.81562167
55.545326 61.975613 -0.7246781
54.531704 61.732914 -0.54258901
51.877178 61.097313 -0.34813732
41.379303 58.583702 0
32.051434 56.350239 0.91748339
58.682281 62.719933 -0.90175092
57.917114 62.53574 -0.86309445
56.840958 62.276691 -0.81562167
55.537788 61.962994 -0.72553486
54.539474 61.722683 -0.542301
51.850388 61.075371 -0.34900787
41.385864 58.556374 0
64 64 0
58.693436 62.715828 -0.90012258
57.879871 62.518951 -0.86863178
56.843044 62.26804 -0.81562167
55.545242 61.953979 -0.72510731
54.55228 61.713684 -0.54172498
51.864044 61.063141 -0.3487173
41.402565 58.531498 0
64 64 0
58.723801 62.716427 -0.89523435
57.930412 62.523415 -0.8617115
56.850094 62.260601 -0.81505716
55.562691 61.947407 -0.72382301
54.539986 61.698605 -0.54258901
51.862534 61.047245 -0.34886289
41.394032 58.500511 0
64 64 0
58.605335 62.680702 -0.91560453
57.941956 62.518467 -0.86032581
56.837387 62.248337 -0.81674635
55.550209 61.933552 -0.72510731
54.532715 61.684715 -0.54316616
51.871174 61.033821 -0.3487173
41.431019 58.480618 0
64 64 0
58.654926 62.685982 -0.90745646
57.909637 62.502762 -0.86517161
56.839508 62.239685 -0.81674635
55.547729 61.922119 -0.72553486
54.535515 61.673279 -0.54316616
51.849518 61.012962 -0.34944344
41.402317 58.444653 0
64 64 0
58.637321 62.674782 -0.9107163
57.926071 62.49902 -0.86309445
56.84164 62.231033 -0.81674635
55.580162 61.9193 -0.72296625
54.538334 61.661846 -0.54316616
51.843056 60.995792 -0.34973344
41.414116 58.418602 0
64 64 0
58.691704 62.681412 -0.90175092
57.869453 62.477165 -0.87140042
56.868439 62.228512 -0.81393248
55.562752 61.904179 -0.7246781
54.541168 61.650414 -0.54316616
51.811386 60.972332 -0.35074955
41.41581 58.390057 0
64 64 0
58.640541 62.661827 -0.9107163
57.949188 62.489204 -0.86032581
56.816345 62.206352 -0.82012475
55.535393 61.88652 -0.7272467
54.549026 61.64024 -0.54287815
51.820091 60.958866 -0.35060453
41.457962 58.371601 0
64 64 0
58.723663 62.675804 -0.89686269
57.955879 62.483116 -0.85963434
56.862892 62.208809 -0.81505716
55.552898 61.880043 -0.7259624
54.546875 61.627563 -0.54316616
51.818737 60.942886 -0.35074955
41.424389 58.334232 0
64 64 0
58.658173 62.652508 -0.90827066
57.923656 62.46722 -0.86448014
56.855198 62.197701 -0.81618404
55.545517 61.867329 -0.72681755
54.544735 61.614876 -0.54345417
51.797249 60.921814 -0.35147512
41.421165 58.304413 0
64 64 0
58.683758 62.652126 -0.90419662
57.896339 62.452484 -0.86863178
56.852459 62.18782 -0.81674635
55.572983 61.863422 -0.7246781
54.537586 61.60091 -0.54403132
51.831196 60.914734 -0.35060453
41.48859 58.29248 0
64 64 0
58.671017 62.64204 -0.90664226
57.956562 62.45998 -0.86032581
56.825096 62.171654 -0.82012475
55.555668 61.848171 -0.72638994
54.550526 61.592033 -0.54345417
51.845013 60.902603 -0.35031399
41.460213 58.25629 0
64 64 0
58.706184 62.644188 -0.90093672
57.94384 62.44894 -0.86240298
56.822392 62.161724 -0.82068712
55.553307 61.836697 -0.72681755
54.553444 61.58062 -0.54345417
51.868904 60.893074 -0.34973344
41.462132 58.227772 0
64 64 0
58.636017 62.619308 -0.91316199
57.931137 62.43787 -0.86448014
56.84922 62.159386 -0.81787324
55.555923 61.826492 -0.72681755
54.546345 61.566624 -0.54403132
51.872665 60.878418 -0.34973344
41.443901 58.19405 0
64 64 0
58.727798 62.639538 -0.89767689
57.966095 62.442982 -0.85963434
56.840504 62.152531 -0.81899792
55.577106 61.826515 -0.72510731
54.547817 61.560913 -0.54403132
51.874554 60.871094 -0.34973344
41.46254 58.184326 0
33.493607 56.127987 0.87989378
58.743786 62.636887 -0.89523435
57.943699 62.429398 -0.86309445
56.847656 62.145153 -0.81843555
55.574776 61.815052 -0.72553486
54.545769 61.548199 -0.54431933
51.868271 60.853832 -0.35002398
41.484703 58.161022 0
33.462898 56.080696 0.88105488
58.711967 62.621811 -0.90093672
57.965023 62.427139 -0.86032581
56.835144 62.132668 -0.82012475
55.542656 61.795815 -0.72852939
54.548737 61.536774 -0.54431933
51.882149 60.841801 -0.34973344
41.496807 58.135132 0
33.422188 56.030693 0.88250655
58.675381 62.605404 -0.90745646
57.860134 62.39188 -0.87555474
56.817741 62.118862 -0.82237631
55.560211 61.789497 -0.7272467
54.536705 61.521423 -0.54518449
51.870888 60.823208 -0.350169
41.498878 58.106628 0
33.421799 55.991119 0.88279659
58.710537 62.60778 -0.90175092
57.925159 62.401062 -0.8665573
56.854427 62.11924 -0.81843555
55.55793 61.777992 -0.72767431
54.544724 61.511311 -0.54489535
51.864693 60.805912 -0.35045898
41.495941 58.07679 0
33.421455 55.951538 0.88308656
58.75523 62.612766 -0.89441699
57.931961 62.395012 -0.86586314
56.86161 62.111904 -0.81787324
55.575516 61.771736 -0.72638994
54.547737 61.499889 -0.54489535
51.873581 60.79258 -0.35031399
41.52829 58.056263 0
33.456318 55.921238 0.88236099
58.670906 62.583569 -0.90908796
57.972694 62.397991 -0.86032581
56.824608 62.092838 -0.82237631
55.558365 61.756283 -0.72810185
54.540756 61.485809 -0.5454725
51.882484 60.779263 -0.350169
41.515366 58.023766 0
33.551479 55.907028 0.87989378
58.715618 62.588615 -0.90175092
57.955246 62.385532 -0.86309445
56.82692 62.084171 -0.82237631
55.570995 61.74873 -0.7272467
54.518814 61.467709 -0.54691368
51.85125 60.755241 -0.35118455
41.507511 57.992569 0
33.82235 55.939972 0.87234706
58.698231 62.577106 -0.90501076
57.874825 62.356121 -0.87486058
56.868504 62.08604 -0.81787324
55.568768 61.737217 -0.72767431
54.54187 61.461617 -0.54576051
51.850147 60.739212 -0.3513301
41.51981 57.966743 0
33.892342 55.919678 0.87060541
58.704723 62.571987 -0.90419662
57.964005 62.372234 -0.86240298
56.865917 62.076103 -0.81843555
55.566555 61.725697 -0.72810185
54.524963 61.444805 -0.54691368
51.84407 60.721828 -0.35162011
41.522095 57.938232 0
33.907139 55.884659 0.87046039
58.668282 62.555248 -0.9107163
57.965977 62.364941 -0.86240298
56.848629 62.062168 -0.82068712
55.564358 61.714165 -0.72852939
54.543041 61.437416 -0.54604852
51.848042 60.707146 -0.35162011
41.55957 57.919243 0
33.92701 55.851021 0.87016982
58.71772 62.56179 -0.90256822
57.967957 62.357651 -0.86240298
56.880405 62.061543 -0.81730872
55.562157 61.702621 -0.72895861
54.546143 61.425991 -0.54604852
51.872086 60.697926 -0.35103956
41.536812 57.88393 0
33.971962 55.824245 0.86915427
58.643192 62.534542 -0.91560453
57.98447 62.354336 -0.86032581
56.858231 62.046234 -0.82012475
55.579803 61.696495 -0.72767431
54.539272 61.411839 -0.54662567
51.886101 60.686012 -0.35074955
41.549232 57.858166 0
34.062069 55.809906 0.86683208
58.659252 62.531998 -0.91316199
57.860661 62.312492 -0.87832338
56.870407 62.040302 -0.81899792
55.56279 61.680878 -0.72938615
54.562359 61.405891 -0.5454725
51.885109 60.670002 -0.35089454
41.561684 57.83242 0
34.097038 55.780624 0.86610651
58.675327 62.529495 -0.9107163
57.964268 62.333122 -0.86378866
56.902161 62.039803 -0.81562167
55.575504 61.673424 -0.72852939
54.550537 61.390358 -0.54633766
51.904175 60.659515 -0.35045898
41.579197 57.808086 0
64 64 0
58.748562 62.542889 -0.89849108
57.951794 62.321808 -0.86586314
56.86536 62.020359 -0.82012475
55.553574 61.656376 -0.73067045
54.548717 61.37756 -0.54662567
51.898193 60.64212 -0.35074955
41.556595 57.772648 0
34.121986 55.709774 0.86596149
58.712234 62.525925 -0.90501076
57.953827 62.314503 -0.86586314
56.902027 62.02129 -0.81618404
55.551468 61.644794 -0.731098
54.522003 61.357811 -0.54835486
51.877235 60.620525 -0.35147512
41.559124 57.744137 0
34.071976 55.656937 0.8677026
58.675938 62.508869 -0.91153049
57.917213 62.296371 -0.87140042
56.879959 62.005867 -0.81899792
55.579037 61.64151 -0.72895861
54.535156 61.349148 -0.54777884
51.881325 60.605881 -0.35147512
41.591755 57.724045 0
33.886902 55.566116 0.8733632
58.65871 62.497082 -0.91479039
57.967567 62.302612 -0.86448014
56.901943 62.002769 -0.81674635
55.572018 61.628559 -0.72981369
54.523441 61.333515 -0.54864287
51.915443 60.599682 -0.35060453
41.58934 57.694153 0
34.027191 55.566338 0.86958927
58.68906 62.498695 -0.90990216
57.940662 62.287136 -0.86863178
56.894569 61.991428 -0.81787324
55.569954 61.616982 -0.73024124
54.511734 61.317841 -0.54950804
51.909569 60.58226 -0.35089454
41.596977 57.66708 0
34.382446 55.627666 0.85957539
58.785984 62.519287 -0.89360285
57.966866 62.286671 -0.86517161
56.89212 61.981457 -0.81843555
55.572838 61.606796 -0.73024124
54.524925 61.309204 -0.54893202
51.898705 60.563393 -0.3513301
41.599648 57.638596 0
34.582546 55.645832 0.85406035
58.716469 62.492645 -0.90582812
57.85796 62.247719 -0.88109201
56.860352 61.963108 -0.82237631
55.575737 61.596615 -0.73024124
54.493374 61.287827 -0.55094922
51.912868 60.551628 -0.35103956
41.617348 57.614388 0
34.647621 55.625973 0.8524642
58.669861 62.475864 -0.91397619
57.916912 62.260563 -0.87278605
56.890907 61.967182 -0.81899792
55.562378 61.587292 -0.7315256
54.490028 61.280659 -0.55123836
51.924938 60.54718 -0.35074955
41.626213 57.602295 0
34.712646 55.625385 0.85072255
58.761982 62.495358 -0.89849108
57.972069 62.268452 -0.86517161
56.912907 61.964203 -0.81674635
55.570229 61.578514 -0.731098
54.49332 61.269169 -0.55123836
51.91415 60.52829 -0.35118455
41.638973 57.576706 0
34.692825 55.581398 0.85159314
58.702049 62.47121 -0.90908796
57.906685 62.241699 -0.87486058
56.881187 61.945778 -0.82068712
55.583035 61.571178 -0.73024124
54.481731 61.253384 -0.55210239
51.933319 60.518009 -0.35074955
41.641735 57.548244 0
34.698029 55.544552 0.8517381
58.656429 62.45105 -0.91723603
57.875072 62.224556 -0.87970638
56.922722 61.948498 -0.81618404
55.576103 61.558151 -0.731098
54.475109 61.239002 -0.55267954
51.912582 60.496197 -0.35147512
41.659554 57.524136 0
34.867973 55.555447 0.84709418
58.696274 62.45565 -0.9107163
57.954304 62.239601 -0.86863178
56.876427 61.925743 -0.8218118
55.574135 61.546539 -0.7315256
54.458588 61.22171 -0.55383271
51.916824 60.481594 -0.35147512
41.642414 57.489872 0
64 64 0
58.660191 62.438141 -0.91723603
57.980507 62.239338 -0.86517161
56.922829 61.929974 -0.81674635
55.591896 61.540684 -0.73024124
54.442089 61.204376 -0.55498588
51.926067 60.468456 -0.3513301
41.650299 57.46286 0
64 64 0
58.752197 62.458168 -0.90175092
57.997086 62.236313 -0.86309445
56.905834 61.915695 -0.81899792
55.565308 61.521839 -0.7328099
54.445473 61.192829 -0.55498588
51.925362 60.452404 -0.35147512
41.648216 57.432922 0
64 64 0
58.739838 62.447628 -0.90419662
57.999222 62.229057 -0.86309445
56.898598 61.904243 -0.82012475
55.592922 61.518917 -0.73067045
54.45385 61.182755 -0.55469674
51.949596 60.443703 -0.35089454
41.656166 57.405922 0
64 64 0
58.746452 62.442677 -0.90338242
57.924397 62.198994 -0.87416905
56.896271 61.894222 -0.82068712
55.600864 61.510223 -0.73024124
54.427494 61.162395 -0.55642706
51.924015 60.420284 -0.3517651
41.689098 57.386322 0
64 64 0
58.767288 62.441971 -0.90012258
58.008324 62.215992 -0.86240298
56.913433 61.889992 -0.81899792
55.608795 61.501541 -0.72981369
54.421021 61.147884 -0.55700308
51.943275 60.410141 -0.3513301
41.727043 57.368282 0
35.183968 55.420097 0.83969253
58.740768 62.427155 -0.90501076
57.986454 62.201569 -0.86586314
56.906242 61.878517 -0.82012475
55.577381 61.481102 -0.7328099
54.424477 61.136311 -0.55700308
51.927708 60.389618 -0.35191065
41.715126 57.335411 0
35.184406 55.382309 0.83998251
58.700066 62.408005 -0.91234469
57.940567 62.179867 -0.87278605
56.88448 61.86264 -0.82293862
55.609943 61.479794 -0.73024124
54.398209 61.11581 -0.5587334
51.942043 60.378029 -0.35162011
41.718216 57.306992 0
35.229668 55.35796 0.83896697
58.730381 62.410168 -0.90745646
57.899544 62.159504 -0.87901485
56.925991 61.865784 -0.81843555
55.578583 61.459274 -0.73323745
54.401699 61.10421 -0.5587334
51.931496 60.358955 -0.35205567
41.711365 57.275562 0
35.274963 55.33371 0.83795083
58.722836 62.400928 -0.90908796
57.969006 62.172508 -0.86932325
56.923714 61.855766 -0.81899792
55.586571 61.450588 -0.7328099
54.395313 61.089619 -0.55930942
51.925968 60.341366 -0.35234568
41.719505 57.248634 0
64 64 0
58.729515 62.396 -0.90827066
57.923206 62.150612 -0.87624621
56.931168 61.848698 -0.81843555
55.589653 61.440426 -0.7328099
54.398838 61.078014 -0.55930942
51.940331 60.329803 -0.35205567
41.727684 57.221718 0
35.335762 55.276424 0.83678973
58.712547 62.38385 -0.91153049
57.992615 62.163799 -0.8665573
56.890038 61.82679 -0.82350099
55.592754 61.430264 -0.7328099
54.372684 61.057343 -0.56103975
51.929859 60.310673 -0.35249123
41.74086 57.196331 0
35.316513 55.232685 0.83766025
58.586906 62.338295 -0.93353534
58.009232 62.160961 -0.86448014
56.882965 61.81522 -0.82462567
55.595863 61.420109 -0.7328099
54.366364 61.042679 -0.56161577
51.919437 60.291523 -0.35292622
41.739159 57.166389 0
35.29731 55.188881 0.83853137
58.62199 62.341949 -0.9278298
58.054607 62.167027 -0.85825133
56.919586 61.817097 -0.82068712
55.594086 61.408443 -0.73323745
54.340275 61.021893 -0.56334609
51.88916 60.266209 -0.35394233
41.767326 57.14563 0
35.342751 55.164925 0.83751529
58.619282 62.333992 -0.928644
57.927429 62.119778 -0.87693769
56.902813 61.802532 -0.82293862
55.597225 61.398289 -0.73323745
54.348839 61.011757 -0.56305695
51.903618 60.254654 -0.35365179
41.765671 57.115688 0
35.323647 55.121078 0.83838642
58.696823 62.350979 -0.91560453
58.006367 62.13628 -0.86586314
56.89093 61.789436 -0.82462567
55.610168 61.391182 -0.73238236
54.357391 61.001633 -0.56276894
51.883324 60.232323 -0.3543779
41.759087 57.08419 0
35.349289 55.091064 0.83795083
58.646912 62.328362 -0.92456996
57.97509 62.118568 -0.87070894
56.912991 61.7869 -0.82237631
55.637848 61.388702 -0.73024124
54.336334 60.982273 -0.56421012
51.89286 60.219238 -0.35423234
41.782372 57.061977 0
35.290634 55.034767 0.83998251
58.735825 62.342155 -0.90990216
58.032303 62.120594 -0.86309445
56.918358 61.769779 -0.82237631
55.605003 61.356167 -0.73366499
54.299255 60.944946 -0.56680447
51.906986 60.191547 -0.35408732
41.774384 57.000492 0
35.352043 54.977905 0.83882141
58.670841 62.31815 -0.92131007
57.909023 62.077724 -0.88109201
56.924568 61.767036 -0.8218118
55.606606 61.351093 -0.73366499
54.296154 60.937523 -0.56709361
51.894417 60.17955 -0.35452288
41.828247 57.002728 0
35.367401 54.963722 0.83853137
58.748272 62.335606 -0.90827066
58.002235 62.099171 -0.86794025
56.936951 61.761555 -0.82068712
55.604919 61.339405 -0.73409253
54.280136 60.919552 -0.56824678
51.894093 60.163357 -0.3546679
41.816872 56.96965 0
35.398155 54.935413 0.83795083
58.731445 62.323265 -0.91153049
57.980633 62.084316 -0.87140042
56.939659 61.753025 -0.82068712
55.603233 61.327702 -0.73452175
54.269093 60.903107 -0.56911081
51.878929 60.142429 -0.35524845
41.810516 56.938122 0
35.38932 54.894554 0.83853137
58.695808 62.304863 -0.91805023
58.006844 62.084679 -0.86794025
56.918182 61.736759 -0.82350099
55.621147 61.322247 -0.73323745
54.243267 60.881897 -0.57084113
51.893486 60.130947 -0.35495844
41.794258 56.903389 0
35.360741 54.847336 0.83969253
58.77787 62.324131 -0.90419662
58.013935 62.078972 -0.86724877
56.925758 61.729755 -0.82293862
55.619507 61.310558 -0.73366499
54.227341 60.863789 -0.5719943
51.883343 60.111561 -0.35539344
41.837547 56.887695 0
35.371819 54.812737 0.83969253
58.751659 62.308723 -0.90908796
57.99239 62.064045 -0.87070894
56.933338 61.722767 -0.82237631
55.632523 61.303581 -0.7328099
54.221298 60.848812 -0.57257032
51.888046 60.096924 -0.35539344
41.806526 56.848152 0
35.392845 54.781342 0.83940196
58.767822 62.30695 -0.90664226
58.042461 62.072235 -0.86378866
56.955433 61.72049 -0.82012475
55.630909 61.291893 -0.73323745
54.210342 60.832222 -0.57343549
51.872993 60.07589 -0.35597402
41.830044 56.826149 0
35.379288 54.738785 0.84012753
58.769871 62.300629 -0.90664226
58.030491 62.06039 -0.86586314
56.934032 61.704128 -0.82293862
55.629311 61.280197 -0.73366499
54.20435 60.8172 -0.5740115
51.872787 60.059631 -0.35611957
41.799126 56.786499 0
35.370728 54.697784 0.84070808
58.739044 62.283581 -0.91234469
58.004211 62.043839 -0.87001741
56.936813 61.695591 -0.82293862
55.632599 61.270084 -0.73366499
54.173771 60.794132 -0.57602984
51.887451 60.048206 -0.355829
41.852386 56.774208 0
35.391861 54.66642 0.84041804
58.811573 62.300304 -0.90012258
57.915997 62.00692 -0.88316649
56.95892 61.693386 -0.82068712
55.61639 61.253582 -0.73537689
54.182564 60.783871 -0.57574183
51.872478 60.027103 -0.35640958
41.841351 56.740971 0
35.413048 54.635098 0.84012753
58.710335 62.260059 -0.91805023
58.018497 62.032494 -0.86863178
56.961712 61.684879 -0.82068712
55.624588 61.245056 -0.73494929
54.156982 60.762318 -0.57747102
51.897034 60.018948 -0.355829
41.85508 56.715824 0
35.350327 54.576202 0.84230477
58.778145 62.275368 -0.90664226
57.992283 62.015823 -0.87278605
56.988636 61.684345 -0.81787324
55.627922 61.23494 -0.73494929
54.155994 60.748806 -0.57775903
51.877186 59.996178 -0.35655457
41.858955 56.687443 0
35.455482 54.572556 0.83954751
58.719242 62.248837 -0.91723603
58.032784 62.021198 -0.86724877
56.996277 61.677479 -0.81730872
55.6264 61.223213 -0.73537689
54.150101 60.733654 -0.57833618
51.882034 59.981533 -0.35655457
41.907333 56.673801 0
35.397842 54.515175 0.8415792
58.74012 62.248703 -0.91397619
58.025669 62.010822 -0.86863178
56.974968 61.660988 -0.82012475
55.634628 61.214718 -0.73494929
54.149151 60.720119 -0.57862419
51.911545 59.975101 -0.355829
41.856941 56.62738 0
35.414253 54.482262 0.84143418
58.775063 62.253319 -0.90827066
57.961445 61.981331 -0.87832338
56.977798 61.6525 -0.82012475
55.642864 61.206238 -0.73452175
54.113873 60.695099 -0.58093053
51.901627 59.955551 -0.35626456
41.895493 56.610535 0
35.425774 54.447727 0.84143418
58.692818 62.218693 -0.92294157
57.949635 61.96925 -0.88039786
56.999908 61.650486 -0.81787324
55.63166 61.191246 -0.73580444
54.098259 60.676571 -0.5820837
51.931152 59.949203 -0.35553902
41.874821 56.573891 0
35.506321 54.436363 0.83940196
58.793339 62.24543 -0.90582812
58.023399 61.985973 -0.87001741
56.99313 61.638786 -0.81899792
55.63018 61.179489 -0.73623365
54.08757 60.659653 -0.58294886
51.970535 59.946243 -0.35452288
41.913414 56.557137 0
64 64 0
58.790787 62.237556 -0.90664226
57.949791 61.953022 -0.88109201
56.971924 61.622181 -0.8218118
55.633591 61.16938 -0.73623365
54.042622 60.631104 -0.58583122
51.975441 59.931709 -0.35452288
41.91748 56.528782 0
35.209541 54.259274 0.84883589
58.624435 62.174034 -0.93597788
58.037796 61.974766 -0.86863178
56.984417 61.616955 -0.82068712
55.632164 61.157623 -0.7366612
54.041805 60.617413 -0.58611923
51.995132 59.922199 -0.35408732
41.9216 56.500435 0
35.344345 54.266281 0.84520751
58.799732 62.226566 -0.90582812
57.907276 61.922215 -0.88801229
56.944019 61.593719 -0.8257525
55.640457 61.14917 -0.73623365
54.026314 60.598701 -0.58727241
52.019745 59.914406 -0.35350677
41.906052 56.465363 0
64 64 0
58.731743 62.196274 -0.91805023
58.009472 61.948982 -0.87347758
56.990196 61.600006 -0.82068712
55.653633 61.142399 -0.73537689
54.005966 60.578278 -0.58871359
52.034512 59.903297 -0.35321677
41.915169 56.438671 0
64 64 0
58.691856 62.175449 -0.92538416
57.997715 61.936852 -0.87555474
56.983501 61.588238 -0.8218118
55.647369 61.128975 -0.73623365
53.99543 60.561157 -0.58957875
52.029652 59.885468 -0.35350677
41.95385 56.422142 0
35.46336 54.191185 0.8427403
58.764145 62.193218 -0.91316199
57.995476 61.927967 -0.87624621
57.000816 61.584732 -0.82012475
55.621735 61.108841 -0.73880059
53.960472 60.535572 -0.59188509
52.049355 59.876087 -0.35307178
41.977783 56.400604 0
64 64 0
58.766335 62.186893 -0.91316199
58.073841 61.946991 -0.86517161
57.003738 61.576275 -0.82012475
55.63493 61.102077 -0.7379455
53.979332 60.528526 -0.59101993
52.049442 59.859951 -0.35321677
41.99683 56.377411 0
64 64 0
58.730068 62.170765 -0.91968173
57.999241 61.917088 -0.87624621
57.019611 61.577049 -0.81843555
55.646393 61.100395 -0.73708874
53.942337 60.508904 -0.59332627
52.047039 59.851028 -0.35336179
41.98177 56.357292 0
64 64 0
58.727619 62.162773 -0.92049593
58.006496 61.911488 -0.87555474
57.003349 61.561928 -0.82068712
55.645058 61.088615 -0.73751628
53.89772 60.479733 -0.59620863
52.037334 59.831459 -0.35379735
41.976273 56.325554 0
64 64 0
58.748508 62.162933 -0.91723603
57.994827 61.899281 -0.87762922
56.996719 61.550125 -0.8218118
55.638878 61.075127 -0.73837304
53.892208 60.464111 -0.59678578
52.047298 59.818726 -0.35365179
41.980652 56.29723 0
64 64 0
58.764729 62.161503 -0.91479039
58.039974 61.906986 -0.87140042
57.009262 61.545029 -0.82068712
55.642418 61.065025 -0.73837304
53.891613 60.450188 -0.59707379
52.057259 59.806007 -0.35350677
41.985069 56.268906 0
64 64 0
58.724998 62.140388 -0.92212427
58.028305 61.894783 -0.87347758
56.973892 61.523067 -0.82519019
55.65081 61.056637 -0.7379455
53.866627 60.427654 -0.59880412
52.052525 59.78812 -0.35379735
42.038601 56.257885 0
64 64 0
58.741219 62.138958 -0.91968173
57.983562 61.870831 -0.88039786
57.000839 61.523052 -0.82237631
55.649536 61.044838 -0.73837304
53.841702 60.40506 -0.60053331
52.067429 59.777161 -0.35350677
42.023422 56.222668 0
35.235001 53.820297 0.85217369
58.752796 62.135918 -0.91805023
58.0145 61.873638 -0.87624621
56.999054 61.512897 -0.82293862
55.648281 61.033035 -0.73880059
53.836292 60.38932 -0.60111046
52.057846 59.757523 -0.35394233
42.008316 56.187408 0
35.159184 53.754238 0.85478592
58.782978 62.139538 -0.91316199
58.026535 61.869781 -0.87486058
57.016426 61.509563 -0.82124943
55.647041 61.021221 -0.73922819
53.81144 60.366623 -0.60283965
52.092339 59.753567 -0.35307178
42.027588 56.164341 0
35.289043 53.761284 0.8513031
58.757317 62.123245 -0.91805023
58.005478 61.854103 -0.87832338
57.024223 61.502838 -0.82068712
55.650646 61.011131 -0.73922819
53.781738 60.342106 -0.60485798
52.11705 59.746189 -0.35249123
42.017471 56.130779 0
64 64 0
58.778194 62.123596 -0.91479039
58.022247 61.851955 -0.87624621
56.993782 61.482388 -0.82462567
55.663918 61.004513 -0.73837304
53.766693 60.322765 -0.60601115
52.127106 59.733597 -0.35234568
42.022102 56.102467 0
35.34811 53.704235 0.85028702
58.789757 62.12064 -0.91316199
58.048439 61.853245 -0.87278605
57.01593 61.480812 -0.82237631
55.672367 60.996185 -0.7379455
53.756561 60.305141 -0.60687518
49.218815 58.668358 -0.43884432
42.056137 56.084743 0
35.267685 53.636116 0.85304481
58.778099 62.109303 -0.91560453
58.018028 61.834103 -0.87762922
57.033321 61.47757 -0.82068712
55.651871 60.977386 -0.74008495
53.765892 60.294529 -0.60658717
49.274124 58.66819 -0.43739322
42.075497 56.061775 0
35.167854 53.560719 0.85638255
58.836121 62.123249 -0.90582812
58.015919 61.825157 -0.87832338
56.998165 61.455265 -0.82519019
55.660351 60.969051 -0.73965734
53.746071 60.273331 -0.60802835
49.324532 58.666374 -0.4360871
42.085106 56.03529 0
35.239098 53.547192 0.8546409
58.759453 62.088215 -0.91968173
57.976135 61.802452 -0.88455218
56.991707 61.443329 -0.82631487
55.668854 60.960743 -0.73922819
53.736 60.255623 -0.60889351
49.326107 58.646866 -0.43623209
42.084976 56.005253 0
35.198044 53.492851 0.85623759
58.794262 62.093781 -0.91397619
58.01178 61.807255 -0.87970638
57.042511 61.452332 -0.82068712
55.667698 60.948906 -0.73965734
53.73568 60.241447 -0.60918152
49.303314 58.61842 -0.43710265
42.099533 55.980568 0
64 64 0
58.726971 62.061913 -0.92620146
57.953213 61.777519 -0.88870382
64 64 -0
55.666576 60.937073 -0.74008495
53.730507 60.225475 -0.60975868
49.334213 58.609631 -0.43637711
42.079933 55.943336 0
35.189388 53.410736 0.85725313
58.780334 62.074364 -0.91723603
58.04533 61.803207 -0.87555474
57.024853 61.426731 -0.82350099
55.65583 60.921673 -0.74136925
53.691399 60.196957 -0.61235303
49.340736 58.591911 -0.43637711
42.109219 55.924065 0
35.143696 53.354347 0.85899478
58.75021 62.056042 -0.92294157
58.062111 61.801243 -0.87347758
57.037491 61.421833 -0.82237631
55.674004 60.916943 -0.74008495
53.71056 60.189896 -0.61148787
49.342396 58.572395 -0.43652266
42.123871 55.899426 0
35.156578 53.319489 0.85899478
58.798908 62.066925 -0.91479039
58.069469 61.795815 -0.87278605
57.040607 61.413422 -0.82237631
55.663292 60.901516 -0.74136925
53.695778 60.170258 -0.61264104
49.348965 58.554688 -0.43652266
42.13855 55.874809 0
35.081829 53.25206 0.86160702
58.824402 62.069279 -0.9107163
57.992222 61.758839 -0.88455218
57.015182 61.39436 -0.8257525
55.68148 60.896832 -0.74008495
53.666481 60.145149 -0.61465937
49.340961 58.531544 -0.43695766
42.163017 55.853859 0
35.07048 53.208038 0.86233318
58.789703 62.04916 -0.91723603
58.027832 61.763901 -0.87970638
57.032616 61.39127 -0.8240633
55.680431 60.884983 -0.74051249
53.661465 60.129044 -0.61523539
49.35244 58.515656 -0.43681267
42.133881 55.812881 0
34.981339 53.134823 0.86538094
58.764309 62.032433 -0.92212427
58.039925 61.760212 -0.87832338
57.040527 61.38464 -0.82350099
55.67458 60.871319 -0.74136925
53.646782 60.109276 -0.61638856
49.354218 58.496136 -0.43695766
42.177879 55.799278 0
34.897209 53.06321 0.86828315
58.752811 62.020874 -0.92456996
58.000385 61.737076 -0.88455218
57.053192 61.379814 -0.82237631
55.7024 60.870323 -0.73922819
53.6418 60.093113 -0.61696571
49.346287 58.472939 -0.43739322
42.168343 55.765572 0
34.954208 53.044559 0.86697704
58.727474 62.00404 -0.9294582
58.073517 61.756477 -0.87416905
57.061131 61.373226 -0.8218118
55.686981 60.853031 -0.74094003
53.622345 60.071445 -0.61840689
49.38213 58.46627 -0.43652266
42.202644 55.748413 0
34.845963 52.963474 0.87060541
58.830357 62.039413 -0.91153049
58.05611 61.745781 -0.87693769
57.072212 61.372635 -0.82068712
55.688881 60.848007 -0.74094003
53.60054 60.056004 -0.61984807
49.39035 58.45929 -0.43637711
42.163834 55.718636 0
34.828346 52.936649 0.87133098
58.809635 62.024376 -0.91560453
57.979122 61.708256 -0.88870382
57.046906 61.353424 -0.8240633
55.687885 60.836136 -0.74136925
53.585976 60.036079 -0.62100124
49.387329 58.437939 -0.43666765
42.237091 55.716324 0
34.764023 52.87183 0.87365317
58.83511 62.026924 -0.91153049
57.991261 61.704563 -0.88732082
57.040604 61.341393 -0.82519019
55.662949 60.815105 -0.74393624
53.561787 60.012428 -0.62273043
49.394062 58.420288 -0.43666765
42.208221 55.675175 0
34.738655 52.821678 0.87481433
58.759037 61.990604 -0.92538416
58.06432 61.724247 -0.87693769
57.05806 61.338448 -0.82350099
55.690765 60.814224 -0.74179679
53.547291 59.992413 -0.62388361
49.395966 58.400784 -0.43681267
42.237732 55.656303 0
64 64 0
58.793751 61.996696 -0.91968173
58.057697 61.71347 -0.87832338
57.037571 61.320938 -0.82631487
55.694622 60.804184 -0.74179679
53.518341 59.966778 -0.62590194
49.412434 58.386871 -0.43652266
42.223549 55.62067 0
64 64 0
58.810013 61.99575 -0.91723603
57.9809 61.675564 -0.89008945
57.064514 61.321678 -0.82350099
55.679329 60.786755 -0.74350864
53.479797 59.937347 -0.62849629
49.404697 58.36364 -0.43695766
42.243393 55.59811 0
64 64 0
58.798607 61.984119 -0.91968173
58.007118 61.677364 -0.88662666
57.077221 61.316971 -0.82237631
55.68322 60.776703 -0.74350864
53.460602 59.915291 -0.62993747
49.416359 58.347885 -0.43681267
42.234146 55.564304 0
64 64 0
58.810268 61.981422 -0.91805023
58.042648 61.682854 -0.88178349
57.080467 61.308605 -0.82237631
55.687119 60.766655 -0.74350864
53.460728 59.900688 -0.63022548
49.461945 58.345337 -0.43565154
42.254066 55.541786 0
64 64 0
58.812714 61.975155 -0.91805023
58.050125 61.677479 -0.88109201
57.060059 61.291012 -0.82519019
55.686256 60.754749 -0.74393624
53.465691 59.887955 -0.63022548
49.439735 58.316433 -0.43652266
42.215805 55.49659 0
64 64 0
58.815163 61.968887 -0.91805023
58.08564 61.683105 -0.87624621
57.063339 61.282627 -0.82519019
55.68063 60.740963 -0.74479133
53.451401 59.867683 -0.63137865
49.451466 58.300743 -0.43637711
42.25032 55.479763 0
64 64 0
58.822216 61.964432 -0.91723603
58.069767 61.668617 -0.87901485
57.071369 61.276112 -0.82462567
55.689346 60.732788 -0.74436378
53.451572 59.853043 -0.63166779
49.458363 58.283169 -0.43637711
42.246117 55.447781 0
64 64 0
58.787895 61.943665 -0.92375576
64 64 -0
57.065205 61.264008 -0.8257525
55.683743 60.718979 -0.74522054
53.437344 59.832703 -0.63282096
49.460434 58.263691 -0.43652266
42.300037 55.438694 0
64 64 0
58.827152 61.951923 -0.91723603
58.047436 61.643211 -0.88316649
57.073235 61.2575 -0.82519019
55.711594 60.718388 -0.74307948
53.452015 59.823757 -0.63224381
49.472221 58.248047 -0.43637711
42.257156 55.391399 0
64 64 0
58.783699 61.927425 -0.92538416
58.045631 61.634171 -0.88385803
57.067116 61.245384 -0.82631487
55.706013 60.704578 -0.74393624
53.447445 59.80719 -0.63282096
49.464687 58.224735 -0.43681267
42.320789 55.386276 0
64 64 0
58.820835 61.927677 -0.91968173
58.074654 61.629108 -0.88039786
57.073795 61.228638 -0.82631487
55.70924 60.68264 -0.74436378
53.433598 59.772095 -0.63426214
49.488327 58.193485 -0.43652266
42.331997 55.33004 0
64 64 0
58.864643 61.938004 -0.91234469
58.049576 61.610729 -0.88455218
57.086571 61.224052 -0.82519019
55.703716 60.668797 -0.74522054
53.419514 59.751621 -0.63541532
49.500191 58.177895 -0.43637711
42.308689 55.290295 0
34.522026 52.163719 0.88715047
58.80294 61.90593 -0.92375576
58.052467 61.603539 -0.88455218
57.080513 61.211906 -0.82631487
55.693474 60.653023 -0.74650317
53.424652 59.738838 -0.63541532
49.521683 58.166203 -0.43594208
42.304741 55.258255 0
26.882088 49.043953 1.1176202
58.828381 61.908916 -0.91968173
58.05072 61.594475 -0.88524365
57.074455 61.199734 -0.82744169
55.711792 60.648758 -0.74522054
53.410629 59.718307 -0.63656849
49.52393 58.146767 -0.4360871
42.300838 55.226192 0
26.794197 48.956261 1.120813
58.798862 61.889664 -0.92538416
58.039677 61.581627 -0.88732082
57.073139 61.189461 -0.82800406
55.711094 60.636818 -0.74564809
53.401443 59.699688 -0.63743252
49.526199 58.127327 -0.43623209
42.33075 55.207806 0
26.822044 48.915226 1.1205225
58.815136 61.888966 -0.92294157
58.084423 61.591454 -0.88109201
57.081242 61.183006 -0.82744169
55.700893 60.620995 -0.74693239
53.40184 59.684929 -0.63772166
49.5285 58.107883 -0.43637711
42.336571 55.179668 0
26.821045 48.862473 1.121103
58.821003 61.887707 -0.92212427
58.071953 61.582203 -0.88316649
57.092365 61.182671 -0.82631487
55.712452 60.619862 -0.74607563
53.394878 59.674622 -0.63829768
49.527237 58.097176 -0.43652266
42.365997 55.176407 0
26.859058 48.851788 1.1202325
58.8144 61.877705 -0.92375576
58.056305 61.56744 -0.88593513
57.091076 61.172401 -0.82687718
55.716541 60.609848 -0.74607563
53.395332 59.659851 -0.63858569
49.534378 58.079689 -0.43652266
42.352592 55.140419 0
26.906239 48.818729 1.1193619
58.899269 61.905235 -0.90908796
58.05925 61.560257 -0.88593513
57.089783 61.162121 -0.82744169
55.720646 60.599842 -0.74607563
53.381439 59.639183 -0.63973886
49.527134 58.056297 -0.43695766
42.339245 55.104385 0
27.025558 48.815376 1.1163142
58.883537 61.891548 -0.91234469
58.090027 61.564548 -0.88178349
57.097927 61.155712 -0.82687718
55.710514 60.583973 -0.74735993
53.386719 59.626354 -0.63973886
49.515106 58.030895 -0.43753821
42.354816 55.0802 0
31.81496 50.736813 0.97219801
58.886089 61.885368 -0.91234469
58.116154 61.566994 -0.87832338
57.096661 61.145428 -0.82744169
55.719387 60.575916 -0.74693239
53.39201 59.613533 -0.63973886
49.555931 58.027294 -0.43652266
42.375221 55.058025 0
31.898254 50.725739 0.97016579
58.824718 61.852665 -0.92375576
58.105209 61.554123 -0.88039786
57.104824 61.139042 -0.82687718
55.723534 60.565914 -0.74693239
53.39732 59.600719 -0.63973886
49.558365 58.007854 -0.43666765
42.357208 55.019939 0
31.947903 50.700893 0.96915025
58.859268 61.859715 -0.91805023
58.052582 61.523861 -0.88870382
57.098892 61.126804 -0.82800406
55.713482 60.550003 -0.74821508
53.407413 59.589897 -0.63945085
49.560822 57.988415 -0.43681267
42.372871 54.995792 0
32.00238 50.678154 0.96798909
58.866413 61.855408 -0.91723603
58.106491 61.537945 -0.88109201
57.11644 61.124344 -0.82631487
55.736607 60.547909 -0.74650317
53.398426 59.571117 -0.64031601
49.58728 57.978985 -0.43623209
42.374172 54.96566 0
32.01371 50.637501 0.96813411
58.864456 61.847298 -0.91805023
58.104851 61.528889 -0.88178349
57.105858 61.110134 -0.82800406
55.721844 60.529987 -0.74821508
53.403786 59.558311 -0.64031601
49.570602 57.95153 -0.43695766
42.370697 54.933495 0
32.068222 50.614933 0.96697301
58.857937 61.837257 -0.91968173
58.121719 61.527603 -0.87970638
57.104671 61.099838 -0.82856637
55.716568 60.516003 -0.74907184
53.41394 59.547523 -0.64002687
49.58271 57.936111 -0.43681267
42.386463 54.909382 0
32.093987 50.580387 0.96668297
58.869671 61.834892 -0.91805023
58.138584 61.52636 -0.87762922
57.108181 61.091507 -0.82856637
55.711334 60.502007 -0.74992692
53.414551 59.532715 -0.64031601
49.580482 57.914658 -0.43710265
42.373489 54.873158 0
32.115028 50.543869 0.96653742
58.890499 61.836407 -0.91479039
58.113846 61.507534 -0.88178349
57.121052 61.087143 -0.82744169
55.734474 60.500004 -0.74821508
53.419956 59.519928 -0.64031601
49.602188 57.903313 -0.43666765
42.360573 54.836887 0
32.13131 50.505352 0.96653742
58.843067 61.808968 -0.92375576
58.10302 61.494545 -0.88385803
57.115231 61.07486 -0.82856637
55.715088 60.47998 -0.75035447
53.42062 59.505127 -0.64060402
49.590431 57.877792 -0.4372482
42.366875 54.808712 0
32.166756 50.474976 0.96595746
58.859364 61.808556 -0.92131007
58.110664 61.489388 -0.88316649
57.128113 61.070526 -0.82744169
55.733505 60.476009 -0.74907184
53.411777 59.486259 -0.64146918
49.602634 57.862431 -0.43710265
42.406715 54.794823 0
32.192688 50.440601 0.96566689
58.843838 61.794571 -0.92456996
58.113701 61.482273 -0.88316649
57.122322 61.058231 -0.82856637
55.737766 60.466022 -0.74907184
53.422009 59.47551 -0.64118004
49.614834 57.84708 -0.43695766
42.37957 54.752365 0
32.161324 50.381744 0.96711802
58.841965 61.786396 -0.92538416
58.153633 61.490993 -0.87762922
57.125881 61.049923 -0.82856637
55.742043 60.456039 -0.74907184
53.40847 59.454571 -0.64233321
49.627052 57.831749 -0.43681267
42.362068 54.713932 0
32.196907 50.351482 0.96653742
58.87188 61.791889 -0.92049593
58.133614 61.474003 -0.88109201
57.129448 61.041618 -0.82856637
55.736908 60.442009 -0.74992692
53.413971 59.441776 -0.64233321
49.639282 57.816441 -0.43666765
42.330284 54.66927 0
32.232494 50.321278 0.96595746
58.842781 61.771969 -0.92620146
58.132069 61.464928 -0.88178349
57.137688 61.035336 -0.82800406
55.750633 60.436096 -0.74907184
53.433716 59.435139 -0.64146918
49.613384 57.784672 -0.43768322
42.384571 54.661671 0
32.206116 50.264359 0.96726358
58.850025 61.767712 -0.92538416
58.125938 61.453854 -0.88316649
57.13662 61.025024 -0.82856637
55.750237 60.424091 -0.74949938
53.434502 59.420319 -0.64175719
49.668575 57.787956 -0.43623209
42.352898 54.616932 0
32.237045 50.232151 0.96682799
58.879917 61.773315 -0.92049593
58.142811 61.452755 -0.88109201
57.13089 61.012676 -0.82969326
55.740437 60.407982 -0.75078368
53.444778 59.409618 -0.64146918
49.637966 57.754063 -0.43739322
42.373787 54.594929 0
