# .PCD v0.7 - Point Cloud Data file format
VERSION 0.7
FIELDS x y z
SIZE 4 4 4
TYPE F F F
COUNT 1 1 1
WIDTH 1850
HEIGHT 1
VIEWPOINT 0 0 0 1 0 0 0
POINTS 1850
DATA ascii
60.436306 63.250759 -0.10170303
64 64 0
16.996613 54.117897 1.3414134
60.79594 63.322327 -0.5399251
64 64 -0
60.643814 63.290154 -0.37997156
60.607662 63.282505 -0.28903127
60.613453 63.28373 -0.19290945
60.340626 63.226025 -0.10446027
64 64 0
16.800133 54.017021 1.3473639
60.811253 63.321541 -0.53748256
64 64 -0
60.649658 63.287159 -0.37940705
60.613567 63.27948 -0.28860205
60.573864 63.27103 -0.19521467
60.453381 63.245396 -0.10126748
29.591278 56.678959 0
16.802052 53.957832 1.3476545
60.79274 63.313549 -0.5407424
64 64 -0
60.655487 63.284172 -0.37884471
60.639538 63.280758 -0.28646263
60.559566 63.263641 -0.19607984
60.378063 63.224796 -0.10344471
29.620506 56.641743 0
17.002243 53.941051 1.3422844
60.783913 63.307594 -0.5423708
64 64 -0
60.65139 63.279064 -0.37940705
60.645424 63.277779 -0.28603506
60.570564 63.261662 -0.1955038
60.399326 63.224796 -0.10286415
29.654861 56.605686 0
17.105869 53.903957 1.3396722
60.799252 63.30685 -0.5399251
64 64 -0
60.662189 63.277168 -0.37828237
60.621216 63.268295 -0.28817451
60.566406 63.256424 -0.19579181
60.410431 63.222649 -0.1025736
64 64 0
17.158737 53.856102 1.3385111
60.833889 63.310345 -0.53422272
64 64 -0
60.663063 63.273136 -0.37828237
60.622101 63.26421 -0.28817451
60.526871 63.243469 -0.19809815
60.416447 63.219414 -0.10242859
29.784725 56.547081 0
17.206577 53.807255 1.337495
60.776779 63.293823 -0.54400229
64 64 -0
60.654026 63.26693 -0.37940705
60.612953 63.257931 -0.28903127
60.578331 63.250347 -0.19521467
60.351402 63.200626 -0.10431527
29.844593 56.516884 0
17.198624 53.746273 1.3380755
60.753502 63.284611 -0.54807633
64 64 -0
60.664829 63.265072 -0.37828237
60.598824 63.250526 -0.29031393
60.559032 63.24176 -0.19636784
60.362511 63.198456 -0.10402527
29.965477 56.500256 0
17.200905 53.687496 1.3383656
60.797798 63.290314 -0.5407424
64 64 -0
60.655807 63.258846 -0.37940705
60.629799 63.253082 -0.28774694
60.585197 63.243198 -0.19492666
60.33812 63.188438 -0.10475083
29.959312 56.455757 0
17.086559 53.602844 1.3419939
60.755241 63.276768 -0.54807633
64 64 -0
60.666618 63.257015 -0.37828237
60.615665 63.245659 -0.28903127
60.601246 63.242443 -0.19406261
60.410107 63.199841 -0.10271915
30.05991 56.435017 0
16.810036 53.481724 1.3502667
60.818386 63.288826 -0.53748256
64 64 -0
60.642273 63.249458 -0.38109624
60.626152 63.245857 -0.28817451
60.571426 63.233624 -0.19579181
60.385239 63.192005 -0.10344471
30.089878 56.420189 0
16.608459 53.406738 1.3562173
60.732449 63.265469 -0.55215037
64 64 -0
60.653091 63.247631 -0.37997156
60.637074 63.24403 -0.28731939
60.557209 63.226074 -0.19665697
60.340588 63.17738 -0.10475083
30.170147 56.395203 0
16.580753 53.340366 1.3573778
60.829769 63.283321 -0.53585106
64 64 -0
60.658974 63.244709 -0.37940705
60.627983 63.237705 -0.28817451
60.563206 63.223061 -0.19636784
60.285839 63.160358 -0.10634694
30.235214 56.366955 0
16.613922 53.287659 1.3567978
60.729416 63.256481 -0.55296457
64 64 -0
60.659885 63.240673 -0.37940705
60.623905 63.232494 -0.28860205
60.584324 63.223495 -0.19521467
60.29192 63.157021 -0.10620194
30.305367 56.340012 0
16.667442 53.239624 1.3556367
60.836323 63.276764 -0.53503686
64 64 -0
60.640991 63.232109 -0.38165858
60.614815 63.226124 -0.28945881
60.565094 63.214756 -0.19636784
60.206821 63.132854 -0.10866918
30.324783 56.30162 0
16.660213 53.177807 1.3562173
60.769764 63.257439 -0.54644483
64 64 -0
60.64687 63.229187 -0.38109624
60.635769 63.226635 -0.28774694
60.581154 63.214081 -0.1955038
60.314228 63.152721 -0.10562138
30.425411 56.281921 0
16.627747 53.110138 1.3575234
60.847721 63.271347 -0.53340536
64 64 -0
60.647804 63.225136 -0.38109624
60.621693 63.219101 -0.28903127
60.556911 63.204124 -0.19694498
30.500683 56.256599 0
16.053627 52.917145 1.3743584
60.733047 63.240681 -0.55296457
64 64 -0
60.65863 63.223385 -0.37997156
60.617645 63.21386 -0.28945881
60.532684 63.194111 -0.19838616
30.530342 56.22084 0
15.940506 52.829807 1.3779868
60.786903 63.249104 -0.54400229
64 64 -0
60.654629 63.218193 -0.3805339
60.608608 63.207439 -0.29031393
60.609207 63.207577 -0.19406261
30.595524 56.193436 0
16.009712 52.784756 1.3763901
60.7397 63.233917 -0.55215037
64 64 -0
60.665482 63.216476 -0.37940705
60.619553 63.205688 -0.28945881
60.574932 63.195202 -0.19607984
30.650581 56.163792 0
15.992931 52.719643 1.3772613
60.760799 63.23061 -0.54889053
64 64 -0
60.652546 63.204899 -0.38109624
60.616493 63.196335 -0.28988636
60.602043 63.192902 -0.19463864
30.765839 56.106079 0
16.045609 52.609665 1.3765357
60.790569 63.233585 -0.54400229
64 64 -0
60.658447 63.202034 -0.3805339
60.63744 63.197018 -0.28817451
60.613075 63.1912 -0.19406261
30.810822 56.074387 0
16.175671 52.579494 1.3731973
60.709789 63.210091 -0.5578559
64 64 -0
60.654476 63.196812 -0.38109624
60.598476 63.183365 -0.29159823
60.578861 63.178658 -0.19607984
30.881157 56.04887 0
16.17939 52.519287 1.3734878
60.729965 63.210754 -0.55459607
64 64 -0
60.660385 63.193962 -0.3805339
60.599464 63.179256 -0.29159823
60.559742 63.16967 -0.19723299
30.931267 56.018627 0
16.162994 52.454201 1.3743584
60.706909 63.200977 -0.5586701
64 64 -0
60.671249 63.192326 -0.37940705
60.620415 63.179993 -0.28988636
60.626095 63.18137 -0.19348547
31.016815 55.997086 0
16.00528 52.354744 1.379293
60.789513 63.216911 -0.54481643
64 64 -0
60.662342 63.18589 -0.3805339
60.616425 63.174694 -0.29031393
60.596943 63.169941 -0.19521467
31.056839 55.964638 0
-3.2360382 47.60006 1.9328262
60.72757 63.199707 -0.55541021
64 64 -0
60.643089 63.179047 -0.38278544
60.626892 63.175087 -0.28945881
60.587383 63.165424 -0.19579181
31.097095 55.953392 0
15.617588 52.167786 1.3910486
60.781345 63.208736 -0.54644483
64 64 -0
60.658894 63.178631 -0.38109624
60.63287 63.172234 -0.28903127
60.588394 63.161301 -0.19579181
31.16243 55.927307 0
15.626862 52.108086 1.3911941
60.767902 63.201286 -0.54889053
64 64 -0
60.664818 63.175812 -0.3805339
60.603977 63.160778 -0.29159823
60.468887 63.127396 -0.20271084
31.217678 55.898872 0
15.616043 52.043415 1.3919196
60.773663 63.198574 -0.54807633
64 64 -0
60.651016 63.168106 -0.3822231
60.63488 63.164101 -0.28903127
60.510105 63.133106 -0.2004045
31.262856 55.86805 0
15.660797 51.992481 1.3910486
60.697899 63.175518 -0.56111574
64 64 -0
60.666817 63.167755 -0.3805339
60.58609 63.147598 -0.29331011
60.531231 63.133904 -0.19925132
31.353504 55.848675 0
15.685417 51.936596 1.3907585
60.746853 63.183563 -0.55296457
64 64 -0
60.662903 63.162495 -0.38109624
60.572178 63.139725 -0.29459441
60.567406 63.138527 -0.19723299
31.388615 55.815567 0
12.030678 50.957336 1.4964144
60.719074 63.172375 -0.5578559
64 64 -0
60.644207 63.153488 -0.38334778
60.618038 63.146889 -0.29074147
60.558411 63.131847 -0.19781014
31.438904 55.786354 0
12.05151 50.895821 1.4962695
60.777576 63.182991 -0.54807633
64 64 -0
60.669857 63.155678 -0.3805339
60.609108 63.140278 -0.29159823
60.544434 63.123878 -0.19867419
31.489216 55.757248 0
-3.0040588 47.011864 1.930504
60.706726 63.160789 -0.56029844
64 64 -0
60.661041 63.149147 -0.38165858
60.605179 63.134914 -0.2920258
60.560516 63.123531 -0.19781014
31.524414 55.7244 0
-2.9834824 46.930916 1.930504
60.774773 63.173981 -0.54889053
64 64 -0
60.652214 63.14259 -0.38278544
60.636059 63.138454 -0.28945881
60.551567 63.116814 -0.19838616
31.579811 55.696785 0
-2.942688 46.855141 1.9299239
60.72311 63.156528 -0.5578559
64 64 -0
60.648338 63.13728 -0.38334778
60.637104 63.134388 -0.28945881
60.562645 63.115223 -0.19781014
31.655392 55.674484 0
-2.9370041 46.770386 1.9303589
60.771999 63.164951 -0.54970467
64 64 -0
60.659214 63.135773 -0.3822231
60.623257 63.126472 -0.29074147
60.553711 63.108482 -0.19838616
31.705788 55.645836 0
-2.9111099 46.690819 1.9302139
60.77301 63.161053 -0.54970467
64 64 -0
60.665192 63.133022 -0.38165858
60.609402 63.118515 -0.2920258
60.564793 63.106918 -0.19781014
31.74612 55.614677 0
-2.8599777 46.617825 1.9293433
60.692726 63.13591 -0.56355834
64 64 -0
60.671154 63.130276 -0.38109624
60.645226 63.123501 -0.28903127
60.515835 63.089695 -0.2006925
31.801617 55.587555 0
-2.8389282 46.537048 1.9293433
60.708103 63.135677 -0.56111574
64 64 -0
60.672207 63.126255 -0.38109624
60.626442 63.114239 -0.29074147
60.531952 63.089428 -0.19982736
31.852058 55.559227 0
-2.8077164 46.458942 1.9290528
60.6996 63.129181 -0.56274414
64 64 -0
60.65361 63.117046 -0.38334778
60.662251 63.119328 -0.28774694
60.438015 63.060162 -0.20530519
31.912621 55.533669 0
-2.7864761 46.378231 1.9290528
60.724014 63.133507 -0.5586701
64 64 -0
60.614841 63.10463 -0.38785088
60.647888 63.113373 -0.28903127
60.363583 63.038174 -0.20962875
31.963024 55.52626 0
-2.7707977 46.339211 1.9289078
60.787167 63.146053 -0.54807633
64 64 -0
60.640476 63.107067 -0.38503698
60.653938 63.110645 -0.28860205
60.319759 63.02182 -0.2122231
32.003456 55.495579 0
-2.7494049 46.258545 1.9289078
60.697472 63.117943 -0.56355834
64 64 -0
60.675934 63.112186 -0.38109624
60.620289 63.097328 -0.29159823
60.290947 63.009365 -0.21395341
32.386227 55.556404 -0.91386116
32.043938 55.464981 0
-2.70784 46.18327 1.9283272
60.731949 63.122917 -0.5578559
64 64 -0
60.637741 63.097633 -0.38559932
60.63131 63.095909 -0.29074147
60.277153 63.000858 -0.21481855
32.366325 55.510124 -0.91473228
32.119621 55.443916 0
-2.6762161 46.105377 1.9280367
60.733009 63.118969 -0.5578559
64 64 -0
60.643738 63.094894 -0.38503698
60.642311 63.094509 -0.28988636
60.288364 62.999058 -0.21424142
32.396679 55.477322 -0.91415173
32.165146 55.414883 0
-2.6495285 46.026176 1.9278917
60.824734 63.139587 -0.5423708
64 64 -0
60.630131 63.086857 -0.38672403
60.658276 63.094482 -0.28860205
60.24963 62.983749 -0.21654776
32.427063 55.444576 -0.91357118
32.225792 55.390038 0
-2.6227493 45.947014 1.9277467
60.725616 63.108482 -0.55948424
64 64 -0
60.596909 63.073437 -0.39066476
60.634609 63.083702 -0.29074147
47.608635 59.537109 -0.94675452
32.467499 55.414623 -0.91270059
32.266342 55.359856 0
-2.605896 45.865162 1.9278917
60.731461 63.105827 -0.5586701
64 64 -0
60.647041 63.082733 -0.38503698
60.610943 63.072861 -0.29288256
47.673916 59.533688 -0.943295
32.512993 55.386131 -0.91168445
32.316971 55.332504 0
-2.6089935 45.77784 1.9286172
60.699192 63.092712 -0.56437248
64 64 -0
60.618759 63.070606 -0.38841322
60.646725 63.078293 -0.28988636
47.669342 59.511223 -0.94387215
32.56852 55.360485 -0.91037834
32.377663 55.308025 0
-2.5568771 45.705631 1.9277467
60.738392 63.099247 -0.5578559
64 64 -0
60.634586 63.07058 -0.38672403
60.603306 63.061939 -0.29373765
47.709686 59.501133 -0.94185382
32.604019 55.32943 -0.90965283
32.418282 55.278133 0
11.701195 49.556732 1.5152818
60.568024 63.047733 -0.58719152
64 64 -0
60.586735 63.052925 -0.39235395
60.629173 63.064701 -0.29159823
47.740051 59.488365 -0.94041264
32.674614 55.308174 -0.90791112
32.489029 55.25668 0
11.703659 49.48938 1.5157173
64 64 -0
64 64 -0
60.661312 63.069271 -0.38391012
60.59074 63.049599 -0.29502198
47.760468 59.472893 -0.93954748
32.685139 55.270329 -0.90791112
32.49461 55.217216 0
11.806347 49.449928 1.5132495
64 64 -0
64 64 -0
60.55479 63.035088 -0.39629251
60.591892 63.045479 -0.29502198
64 64 -0
32.730743 55.24231 -0.90689504
32.560364 55.194588 0
11.899014 49.40789 1.5110729
64 64 -0
64 64 -0
60.570621 63.035053 -0.39460549
60.588112 63.039974 -0.29544953
64 64 -0
32.786369 55.217201 -0.90558892
32.611111 55.167885 0
11.956707 49.356209 1.5099118
64 64 -0
64 64 -0
60.591351 63.036438 -0.39235395
60.574448 63.031658 -0.29673386
64 64 -0
32.85202 55.195042 -0.90399224
32.681908 55.146957 0
12.01944 49.306061 1.5086056
64 64 -0
64 64 -0
60.587635 63.030933 -0.39291629
60.649708 63.048561 -0.29031393
47.802444 59.400108 -0.93839431
32.897659 55.167347 -0.90297669
32.727684 55.119076 0
12.032238 49.241844 1.5087507
64 64 -0
64 64 -0
60.603474 63.030994 -0.3912271
60.586681 63.026203 -0.2958771
47.808014 59.380539 -0.93839431
32.953327 55.142601 -0.90167058
32.763458 55.088432 0
12.040104 49.176208 1.5090412
64 64 -0
64 64 -0
60.594276 63.026146 -0.39235395
60.616879 63.032608 -0.29331011
47.815773 59.372177 -0.9381063
32.998657 55.135277 -0.90050942
32.808884 55.081013 0
12.089043 49.156246 1.5078801
64 64 -0
64 64 -0
60.595455 63.02203 -0.39235395
60.603241 63.024269 -0.29459441
47.771667 59.338348 -0.94098866
33.08432 55.119347 -0.89833218
32.869701 55.057697 0
12.141987 49.103577 1.506864
64 64 -0
64 64 -0
60.601517 63.019325 -0.39179161
60.594566 63.017319 -0.29544953
47.787247 59.321609 -0.94041264
33.154991 55.099289 -0.89659053
32.905533 55.027306 0
12.234905 49.062538 1.5046873
64 64 -0
64 64 -0
60.632 63.023712 -0.38841322
60.620407 63.020351 -0.29331011
47.797874 59.303459 -0.94012463
33.230652 55.080833 -0.89470387
32.946396 54.998436 0
12.312893 49.017365 1.5029457
64 64 -0
64 64 -0
60.647823 63.023907 -0.38672403
60.596951 63.009094 -0.29544953
47.828407 59.291122 -0.93868232
33.226479 55.039299 -0.8951394
33.00227 54.974014 0
12.375935 48.967995 1.5016395
64 64 -0
64 64 -0
60.595348 63.004162 -0.39291629
60.617863 63.010746 -0.29373765
47.839069 59.273037 -0.93839431
33.282215 55.015251 -0.89383328
33.03817 54.943871 0
12.439041 48.918762 1.5003328
64 64 -0
64 64 -0
60.606297 63.002911 -0.39179161
60.589493 62.997974 -0.29630628
47.834854 59.250591 -0.93897146
33.263184 54.969357 -0.89470387
33.064125 54.91087 0
12.547043 48.882839 1.4977206
64 64 -0
64 64 -0
60.588009 62.993057 -0.39404315
60.575947 62.989498 -0.29758894
47.86541 59.238384 -0.93753028
33.254181 54.926338 -0.89528441
33.120056 54.886757 0
13.796413 49.18399 1.4618732
60.462021 62.951229 -0.60837907
64 64 -0
60.69154 63.019264 -0.3822231
60.552567 62.978069 -0.29972839
47.856308 59.214485 -0.93839431
33.225307 54.87738 -0.89644551
33.175995 54.862762 0
13.978775 49.172081 1.4570838
60.657509 63.004784 -0.57496941
64 64 -0
60.614819 62.992069 -0.3912271
60.642365 63.000271 -0.2920258
47.847229 59.190552 -0.93925947
33.236351 54.840202 -0.89644551
33.231949 54.83889 0
14.031597 49.122032 1.4560677
64 64 -0
64 64 -0
60.577087 62.976334 -0.39573017
60.599308 62.982979 -0.2958771
47.843147 59.168076 -0.93983549
33.24247 54.801548 -0.89659053
33.267975 54.809174 0
14.04961 49.061668 1.4560677
60.569988 62.969692 -0.59045136
64 64 -0
60.573467 62.970737 -0.39629251
60.610367 62.981819 -0.29502198
47.844028 59.147064 -0.94012463
33.213787 54.75243 -0.89775163
33.318977 54.784027 0
14.027882 48.989361 1.4572288
60.575966 62.966976 -0.58963722
64 64 -0
60.545513 62.957787 -0.3996709
60.63126 62.983658 -0.29331011
47.844955 59.126053 -0.94041264
33.479622 54.792061 0
13.96645 48.904976 1.459551
64 64 -0
64 64 -0
60.522461 62.946247 -0.4024848
52.948147 60.651104 -0.96261638
47.850857 59.106537 -0.94041264
33.341343 54.709908 0
13.855419 48.805347 1.4633243
60.592663 62.963024 -0.58719152
64 64 -0
60.548042 62.949444 -0.3996709
52.898186 60.621311 -0.96732283
47.871635 59.091549 -0.93954748
33.561718 54.736519 0
13.853931 48.738716 1.4639049
64 64 -0
64 64 -0
60.57848 62.954189 -0.39629251
52.892448 60.604897 -0.96817958
47.902306 59.079624 -0.9381063
64 64 0
13.847561 48.67054 1.4646305
64 64 -0
64 64 -0
60.579113 62.952122 -0.39629251
52.869961 60.590668 -0.97031897
47.895401 59.066872 -0.93868232
64 64 0
13.777328 48.615891 1.4669527
60.539112 62.935291 -0.59697109
64 64 -0
60.531799 62.933044 -0.40192243
64 64 -0
47.906311 59.048935 -0.93839431
64 64 0
13.681725 48.520077 1.4702904
64 64 -0
64 64 -0
60.586506 62.945354 -0.39573017
64 64 -0
47.917244 59.031017 -0.9381063
64 64 0
13.630939 48.437809 1.4723227
60.513378 62.918144 -0.60185933
64 64 -0
60.534389 62.924664 -0.40192243
64 64 -0
47.928192 59.013119 -0.93781829
64 64 0
13.669636 48.383118 1.4717422
64 64 -0
64 64 -0
60.521133 62.915939 -0.40361163
64 64 -0
47.91943 58.98909 -0.93868232
64 64 0
13.708389 48.328499 1.4711616
64 64 -0
64 64 -0
60.527309 62.913261 -0.40304714
64 64 -0
47.930428 58.971207 -0.93839431
64 64 0
15.036667 48.677475 1.4328464
64 64 -0
64 64 -0
60.55286 62.916679 -0.40023324
52.865593 60.500835 -0.97288597
47.921707 58.94714 -0.93925947
33.507881 54.417366 0
15.080002 48.626114 1.4321209
64 64 -0
64 64 -0
52.850243 60.481205 -0.97459781
47.917969 58.924606 -0.93983549
33.588982 54.402466 0
15.093643 48.565445 1.4322665
64 64 -0
64 64 -0
52.878349 60.460499 -0.97288597
47.954922 58.8936 -0.93839431
33.532906 54.303745 0
15.160809 48.456764 1.4313953
64 64 -0
64 64 -0
52.882633 60.44706 -0.97288597
47.966026 58.87579 -0.9381063
33.539688 54.265354 0
15.100422 48.372452 1.4337176
64 64 -0
64 64 -0
64 64 -0
52.877148 60.430489 -0.97374272
47.947609 58.848518 -0.93954748
33.62085 54.25082 0
14.980804 48.268917 1.4377809
64 64 -0
64 64 -0
52.896133 60.42178 -0.97245842
47.96862 58.833885 -0.93868232
33.573204 54.194962 0
15.034462 48.220852 1.4367653
64 64 -0
64 64 -0
52.890686 60.405201 -0.97331518
47.969936 58.812923 -0.93897146
33.560318 54.150196 0
14.939854 48.124905 1.4401032
64 64 -0
64 64 -0
52.899937 60.393372 -0.97288597
47.981148 58.795158 -0.93868232
33.502945 54.090904 0
14.810806 48.017464 1.4444571
64 64 -0
52.914055 60.383144 -0.97203088
47.982517 58.7742 -0.93897146
33.53968 54.062134 0
14.815327 47.953201 1.4448926
64 64 -0
64 64 -0
52.928181 60.372944 -0.97117573
47.988846 58.754848 -0.93897146
33.561592 54.028572 0
14.839684 47.895401 1.4447476
60.432865 62.829044 -0.61897284
64 64 -0
52.910881 60.359856 -0.97288597
47.987106 58.743565 -0.93925947
33.577522 54.013435 0
14.721054 47.823563 1.4485209
64 64 -0
52.944534 60.356102 -0.97031897
47.998375 58.725838 -0.93897146
33.525352 53.955505 0
14.69622 47.74939 1.4498271
64 64 -0
52.953815 60.344357 -0.96989143
48.014595 58.709763 -0.93839431
33.789509 54.002087 0
14.651756 47.668602 1.4517138
64 64 -0
52.948505 60.327778 -0.97074652
48.045536 58.698605 -0.93695313
33.663307 53.919632 0
14.646873 47.600796 1.4524393
64 64 -0
52.957817 60.316048 -0.97031897
48.06176 58.682602 -0.93637711
33.645897 53.873104 0
14.602642 47.519794 1.454326
64 64 -0
52.976887 60.307602 -0.96903467
48.073116 58.664993 -0.93608797
33.519958 53.790146 0
14.593014 47.450211 1.4551971
64 64 -0
52.957008 60.286098 -0.97117573
48.089371 58.649048 -0.93551195
30.069164 52.588619 -0.99977928
33.512585 53.746685 0
14.642612 47.400467 1.454326
64 64 -0
52.966385 60.274406 -0.97074652
48.110558 58.634792 -0.93464679
30.373447 52.645706 -0.99121702
33.529922 53.711517 0
14.702076 47.354134 1.4531654
64 64 -0
64 64 -0
52.966019 60.259422 -0.97117573
48.131752 58.620583 -0.93378162
30.76123 52.731888 -0.98018694
33.557167 53.679726 0
14.776371 47.312935 1.4515687
64 64 -0
52.980274 60.249405 -0.97031897
48.123566 58.596413 -0.93464679
30.94215 52.748665 -0.97525191
33.520397 53.626179 0
14.855606 47.273567 1.4498271
52.97509 60.232769 -0.97117573
48.105637 58.568871 -0.93608797
30.985268 52.718811 -0.97438139
33.518173 53.584309 0
14.915195 47.227638 1.448666
52.969948 60.216122 -0.97203088
64 64 -0
31.013672 52.683987 -0.9739458
33.525864 53.545799 0
14.994484 47.188576 1.4469243
52.984226 60.206139 -0.97117573
48.133469 58.535522 -0.93522394
31.02737 52.644138 -0.9739458
33.469608 53.485252 0
15.083614 47.153065 1.4448926
52.988815 60.192829 -0.97117573
48.140083 58.516357 -0.93522394
31.070576 52.614491 -0.97307527
33.462677 53.44157 0
15.128559 47.102463 1.444167
52.998291 60.181217 -0.97074652
48.166267 58.503983 -0.93407077
31.103996 52.581528 -0.97249472
33.441032 53.392731 0
15.217739 47.067276 1.4421353
53.0126 60.171303 -0.96989143
48.197338 58.493362 -0.93262959
31.132542 52.546921 -0.97205913
33.399803 53.336975 0
15.311852 47.033997 1.4399581
53.017235 60.158028 -0.96989143
48.204002 58.474274 -0.93262959
31.18565 52.520943 -0.97089803
33.373402 53.286255 0
15.361809 46.985474 1.4390876
53.014717 60.149696 -0.97031897
48.207344 58.464729 -0.93262959
31.163155 52.490799 -0.97176915
33.365158 53.262596 0
15.440769 46.98016 1.4370553
53.029053 60.139832 -0.96946388
48.218941 58.447372 -0.93234044
31.162373 52.445957 -0.97220469
33.343781 53.213493 0
15.485874 46.930122 1.4363298
53.033726 60.126575 -0.96946388
48.225662 58.42831 -0.93234044
31.210663 52.418404 -0.9711886
33.312672 53.160858 0
15.531033 46.880165 1.4356042
53.033581 60.111614 -0.96989143
48.217773 58.404064 -0.9332056
31.195305 52.368378 -0.97205913
33.330688 53.125526 0
17.393349 47.47459 1.3810346
53.04797 60.101814 -0.96903467
48.219677 58.383266 -0.93349361
31.214272 52.330486 -0.97191417
33.309525 53.076256 0
17.359489 47.399117 1.3826313
53.047836 60.086849 -0.96946388
48.216724 58.360718 -0.93407077
31.228397 52.290882 -0.97191417
33.293343 53.028675 0
17.379585 47.342773 1.3826313
53.067078 60.078823 -0.96817958
48.218685 58.339909 -0.93435878
31.345291 52.288132 -0.96886635
33.228233 52.963463 0
17.380177 47.279434 1.3832119
53.062172 60.062141 -0.96903467
48.235279 58.324352 -0.93378162
31.545265 52.315575 -0.96335137
33.207321 52.913956 0
17.361317 47.209042 1.3843724
53.066936 60.048927 -0.96903467
48.266468 58.314095 -0.93234044
31.662041 52.313461 -0.96030354
33.166893 52.857296 0
17.342541 47.138569 1.3855335
53.062057 60.032215 -0.96989143
48.27821 58.296852 -0.93205243
31.759232 52.30452 -0.95783633
33.136345 52.804073 0
17.353168 47.078659 1.3858241
53.06686 60.019001 -0.96989143
48.299698 58.283169 -0.93118727
31.817333 52.281574 -0.95653021
33.130333 52.759666 0
30.103626 51.657574 1.0074648
53.095783 60.014603 -0.96775198
48.316326 58.267754 -0.93061125
31.797344 52.230206 -0.95754629
33.041279 52.684853 0
30.172241 51.636246 1.0058687
53.095795 59.999664 -0.96817958
48.31356 58.245247 -0.93118727
31.835999 52.200256 -0.95682019
33.035427 52.640282 0
30.245754 51.616859 1.004127
53.091007 59.982948 -0.96903467
48.339943 58.233444 -0.9300341
31.850277 52.161404 -0.95682019
33.01498 52.590286 0
30.290012 51.586861 1.003256
53.105492 59.973324 -0.96817958
48.342056 58.21273 -0.93032324
31.762245 52.084732 -0.95986801
32.984856 52.536613 0
30.314774 51.549736 1.0029659
53.110367 59.960163 -0.96817958
48.34906 58.193813 -0.93032324
31.674347 52.007828 -0.96291578
32.906021 52.464756 0
30.373688 51.525311 1.0016598
53.115253 59.947006 -0.96817958
48.375477 58.182129 -0.92917007
31.528149 51.908936 -0.96770525
32.900471 52.41993 0
30.398537 51.488319 1.0013692
53.117706 59.940434 -0.96817958
48.383854 58.174503 -0.92888093
31.428349 51.849365 -0.97089803
32.844078 52.377495 0
30.415833 51.471649 1.0010792
53.11301 59.923691 -0.96903467
48.410286 58.162891 -0.92772776
31.408981 51.79726 -0.97191417
32.770393 52.306999 0
30.416409 51.425621 1.0015142
53.132347 59.915951 -0.96775198
48.39798 58.13678 -0.92888093
31.418888 51.756062 -0.97205913
32.774811 52.265617 0
30.446205 51.39053 1.0010792
53.142109 59.90464 -0.96732283
48.424435 58.125237 -0.92772776
31.487183 51.73687 -0.97046304
32.706226 52.196671 0
30.456608 51.34816 1.0012243
53.14225 59.889702 -0.96775198
48.431545 58.106419 -0.92772776
31.516609 51.703117 -0.97002751
32.574486 52.103584 0
30.462208 51.303963 1.0015142
53.147224 59.876583 -0.96775198
48.448341 58.091286 -0.92715174
31.565502 51.676796 -0.96901137
29.801003 51.006393 0
30.46785 51.259754 1.0018048
53.142628 59.859818 -0.96860713
48.45549 58.072498 -0.92715174
31.609543 51.648724 -0.96814078
29.904282 50.998466 0
30.449272 51.206284 1.002821
53.152428 59.848534 -0.96817958
48.477161 58.059269 -0.92628658
31.663319 51.624454 -0.96697968
29.915138 50.95541 0
30.440491 51.156467 1.0035465
53.162243 59.837269 -0.96775198
48.50367 58.047935 -0.92513341
31.697701 51.592842 -0.96639913
29.935799 50.916107 0
30.412376 51.099159 1.0048525
53.162495 59.822334 -0.96817958
48.525337 58.03479 -0.92426938
31.741802 51.565033 -0.96552855
29.96619 50.880569 0
30.374645 51.038021 1.0064492
53.177135 59.81295 -0.96732283
48.527737 58.014233 -0.92455739
31.776237 51.533566 -0.964948
30.011204 50.850727 0
17.832859 46.139282 1.3824857
53.163059 59.792442 -0.96903467
48.534981 57.995541 -0.92455739
31.801022 51.498405 -0.96465749
30.031963 50.811546 0
17.88353 46.094791 1.3816152
53.177708 59.783073 -0.96817958
48.551895 57.980621 -0.92398024
31.850033 51.47271 -0.96364188
30.038231 50.766739 0
17.948776 46.056061 1.380309
53.187588 59.77187 -0.96775198
48.563995 57.96384 -0.92369223
31.870049 51.435768 -0.96349633
30.05909 50.727608 0
17.999538 46.011787 1.3794379
53.197498 59.760689 -0.96732283
48.585751 57.950863 -0.92282706
31.928787 51.41404 -0.96219021
30.070312 50.684704 0
18.064842 45.973305 1.3781317
53.20961 59.757915 -0.96646768
48.584579 57.939655 -0.92311621
31.970238 51.407974 -0.96117467
30.063824 50.658493 0
18.128929 45.966469 1.3765357
53.195641 59.737347 -0.96817958
48.591911 57.921032 -0.92311621
32.053165 51.395985 -0.95914245
30.065441 50.611767 0
18.203938 45.932037 1.374939
53.205566 59.726181 -0.96775198
48.594463 57.900517 -0.92340422
32.092575 51.366959 -0.95841688
30.052616 50.55928 0
18.278957 45.897758 1.3733423
53.191654 59.705559 -0.96946388
48.606647 57.883816 -0.92311621
32.112686 51.33033 -0.95827186
30.068878 50.518272 0
18.339481 45.857872 1.3721818
53.211163 59.698208 -0.96817958
48.599648 57.859478 -0.92398024
32.161812 51.305283 -0.95725578
30.051346 50.463783 0
18.443497 45.835434 1.3697145
53.206844 59.681366 -0.96903467
48.626289 57.84856 -0.92282706
32.196476 51.274544 -0.95667523
30.058071 50.418911 0
18.586098 45.828663 1.3660862
53.207779 59.651451 -0.96989143
48.660378 57.819153 -0.92167503
32.198387 51.186069 -0.95754629
30.01857 50.307747 0
18.755463 45.769463 1.3623128
53.227325 59.644192 -0.96860713
48.658272 57.796745 -0.92225105
32.247627 51.161289 -0.95653021
30.011013 50.256943 0
18.811253 45.728447 1.3612968
53.223072 59.627312 -0.96946388
48.675358 57.782101 -0.92167503
32.248711 51.117069 -0.95696574
24.68874 48.049648 0
18.910416 45.70512 1.3589745
53.247383 59.62204 -0.96775198
48.678093 57.761639 -0.92196304
32.302811 51.094391 -0.95580465
24.693573 47.996269 0
18.971058 45.666328 1.3578134
53.252682 59.609051 -0.96775198
48.71917 57.756828 -0.9199447
32.332863 51.062 -0.95536911
24.708126 47.946819 0
19.022099 45.623722 1.3569428
53.248505 59.592175 -0.96860713
48.71714 57.73444 -0.92052186
32.372559 51.0336 -0.95464355
24.698666 47.887512 0
19.058765 45.575306 1.3565073
53.277573 59.588951 -0.96646768
48.715164 57.712044 -0.92109787
32.412273 51.00528 -0.95391798
18.990276 45.483665 0
19.042614 45.505199 1.3576684
53.254444 59.564251 -0.96903467
48.746677 57.703449 -0.91965669
32.452011 50.977032 -0.95319241
26.902637 48.686256 0
19.026566 45.435028 1.3588295
53.250317 59.547337 -0.96989143
48.754295 57.685024 -0.91965669
32.50618 50.954834 -0.95203131
26.945206 48.651402 0
18.986618 45.354847 1.3607162
53.260441 59.53632 -0.96946388
48.785816 57.676529 -0.91821551
32.536369 50.922775 -0.95159572
27.021454 48.630611 0
18.92281 45.264572 1.3633285
53.267891 59.531811 -0.96903467
32.55867 50.90976 -0.95116019
27.011528 48.600273 0
18.881355 45.21537 1.364925
53.2733 59.518845 -0.96903467
32.632057 50.895821 -0.94941849
27.006153 48.545559 0
18.846542 45.136826 1.3666668
53.264511 59.499931 -0.97031897
32.657486 50.861942 -0.94912851
26.981655 48.482765 0
18.768723 45.040092 1.3697145
53.293617 59.496914 -0.96817958
32.697334 50.834152 -0.94840294
27.005226 48.44006 0
18.738983 44.963295 1.3713107
53.289612 59.479992 -0.96903467
32.742001 50.808464 -0.94753182
27.033653 48.399422 0
18.671043 44.870224 1.3740685
53.276173 59.459045 -0.97074652
32.796249 50.786919 -0.94637072
27.086067 48.368969 0
18.598499 44.774948 1.3769706
53.30529 59.456127 -0.96860713
32.821793 50.753284 -0.94608074
27.157681 48.346767 0
18.655228 44.734322 1.3759551
53.329681 59.451263 -0.96689522
32.861725 50.725807 -0.94535518
27.200558 48.312466 0
18.683319 44.68158 1.3758101
53.297421 59.422218 -0.97031897
32.896896 50.696369 -0.94477463
27.248245 48.280289 0
18.826141 44.677933 1.3721818
53.293514 59.405239 -0.97117573
32.932098 50.666996 -0.94419402
27.310329 48.254375 0
27.168346 48.193443 1.1193619
53.313225 59.398399 -0.96989143
32.972092 50.63974 -0.94346851
27.348484 48.218281 0
27.268612 48.183887 1.1168947
53.328228 59.389565 -0.96903467
33.007339 50.610504 -0.9428879
27.36758 48.174004 0
27.3307 48.158073 1.1155879
53.310242 59.366459 -0.97117573
33.047379 50.583397 -0.94216239
27.415394 48.142178 0
27.454762 48.159241 1.1123952
53.339401 59.363789 -0.96903467
33.087456 50.556374 -0.94143623
27.434582 48.097984 0
27.516815 48.133747 1.1110891
53.34029 59.34885 -0.96946388
33.137047 50.533577 -0.94042069
27.496754 48.072548 0
27.555065 48.097988 1.1105086
53.341221 59.333916 -0.96989143
33.186672 50.510883 -0.93940461
27.554169 48.045151 0
27.588593 48.060219 1.110073
53.356277 59.325176 -0.96903467
33.22678 50.484108 -0.93867904
27.61636 48.019958 0
27.617386 48.020409 1.1097829
53.349693 59.314606 -0.96989143
33.253979 50.473892 -0.93809849
27.664135 48.014748 0
27.631798 48.000523 1.109638
53.388248 59.316254 -0.96689522
33.298862 50.449337 -0.9372279
27.71204 47.983459 0
27.651157 47.956589 1.109638
53.379826 59.297199 -0.96817958
33.348526 50.426979 -0.93621176
27.793285 47.967022 0
27.656326 47.906376 1.110073
53.380829 59.282288 -0.96860713
33.374458 50.39418 -0.93592125
27.907818 47.965549 0
27.6758 47.862473 1.110073
53.381851 59.267372 -0.96903467
33.433632 50.376221 -0.93461514
28.055584 47.979164 0
27.662094 47.80378 1.1110891
53.387581 59.254543 -0.96903467
33.450119 50.339298 -0.93461514
28.041706 47.920868 0
27.648476 47.745033 1.1121053
53.402679 59.245922 -0.96817958
33.514053 50.323662 -0.933164
27.994682 47.84761 0
27.625473 47.68198 1.1134113
53.427158 59.24155 -0.96646768
33.51638 50.280437 -0.93359953
28.023708 47.808388 0
27.60257 47.618847 1.1147175
53.423569 59.224556 -0.96732283
33.570869 50.260719 -0.93243843
28.057537 47.771355 0
27.447147 47.495754 1.1200875
53.429344 59.211781 -0.96732283
33.6017 50.2304 -0.9320029
28.115101 47.745117 0
27.301441 47.376556 1.1251669
53.439808 59.201134 -0.96689522
33.623085 50.195827 -0.93185788
28.167927 47.716839 0
27.122852 47.241928 1.1312625
53.445614 59.188377 -0.96689522
33.644516 50.161285 -0.93171287
28.239727 47.697304 0
26.958721 47.113312 1.1369225
53.451435 59.175629 -0.96689522
33.661255 50.124619 -0.93171287
28.292591 47.669266 0
26.912998 47.038307 1.1389542
53.447929 59.1586 -0.96775198
33.701675 50.098812 -0.93098676
28.335999 47.636982 0
26.952393 47.002171 1.1383742
53.458466 59.148006 -0.96732283
33.709045 50.057861 -0.93127733
28.407795 47.617836 0
26.98241 46.961769 1.1380837
53.464336 59.135273 -0.96732283
33.758945 50.036522 -0.93026119
28.446518 47.583565 0
26.99831 46.914875 1.1382287
53.47953 59.126858 -0.96646768
33.804123 50.013096 -0.92939067
28.480553 47.547188 0
26.981258 46.852703 1.1393898
53.482475 59.120502 -0.96646768
33.784302 49.981735 -0.93026119
30.605667 48.507042 0
27.043468 46.854393 1.1377937
53.48838 59.107796 -0.96646768
33.801262 49.945236 -0.93026119
30.563072 48.438152 0
20.694458 43.845215 1.3340117
53.503613 59.099449 -0.96561092
33.81356 49.906563 -0.93040621
64 64 0
20.652908 43.762115 1.3360438
53.504879 59.084583 -0.96604013
33.863544 49.885521 -0.92939067
30.629047 48.370636 0
20.602112 43.674496 1.3383656
53.496899 59.065365 -0.96732283
33.880619 49.849117 -0.92939067
30.728039 48.36795 0
20.598469 43.60881 1.3392366
53.507507 59.054863 -0.96689522
33.930653 49.828243 -0.92837453
28.78371 47.402477 0
20.562035 43.52758 1.3411233
53.522766 59.046574 -0.96604013
33.929008 49.783035 -0.92895508
28.841434 47.377735 0
20.483448 43.426247 1.3443161
53.514854 59.027325 -0.96732283
33.955589 49.75116 -0.9286651
28.917965 47.362022 0
20.527122 43.382587 1.3437356
53.51622 59.012447 -0.96775198
33.982224 49.719337 -0.92837453
28.942806 47.321884 0
20.528606 43.318916 1.3444611
53.53616 59.006416 -0.96646768
34.018257 49.692032 -0.92779398
28.995853 47.295227 0
20.548923 43.26416 1.3446066
53.514427 58.98048 -0.96903467
34.059006 49.66703 -0.92706841
29.039532 47.264175 0
20.602142 43.225136 1.3437356
53.53437 58.974476 -0.96775198
34.090401 49.637615 -0.92663288
29.097317 47.239967 0
20.660057 43.188454 1.34272
53.535828 58.95961 -0.96817958
34.121811 49.608246 -0.92619789
29.150425 47.213623 0
20.732067 43.158661 1.3412683
53.555801 58.953671 -0.96689522
34.134548 49.569897 -0.92634284
29.19416 47.182846 0
20.771305 43.113171 1.3408333
53.557289 58.938816 -0.96732283
34.189419 49.551952 -0.92518175
29.251976 47.158962 0
20.815281 43.070019 1.3402528
53.558781 58.92395 -0.96775198
34.211567 49.518211 -0.92503673
29.305122 47.132919 0
22.504417 43.826729 1.2885853
53.552628 58.913155 -0.96860713
34.243698 49.5116 -0.92431062
29.348064 47.127907 0
22.451191 43.769806 1.2906176
53.568001 58.905037 -0.96775198
34.2939 49.491615 -0.92329508
29.401222 47.102043 0
22.475666 43.719616 1.2906176
53.583393 58.896957 -0.96689522
34.302128 49.451164 -0.92358506
29.435692 47.06712 0
22.514206 43.676319 1.290182
53.554314 58.851372 -0.97074652
34.374664 49.39782 -0.92242396
29.58408 47.03656 0
22.4842 43.537064 1.2926493
53.555927 58.836472 -0.97117573
34.410965 49.371246 -0.92184341
29.651268 47.018059 0
22.471687 43.468491 1.2938104
53.548386 58.81702 -0.97245842
34.456589 49.34935 -0.92097282
29.755741 47.018188 0
22.431355 43.386009 1.2958421
53.55925 58.806679 -0.97203088
34.492924 49.322922 -0.92039227
29.836864 47.006958 0
22.367878 43.291817 1.2985998
53.547157 58.784901 -0.97374272
34.506035 49.284962 -0.92053729
29.922619 46.998215 0
22.309235 43.199772 1.3012121
53.571831 58.781464 -0.97203088
34.509888 49.242355 -0.92097282
29.971123 46.971035 0
22.213573 43.088951 1.3049854
53.601082 58.78038 -0.96989143
34.578838 49.23238 -0.91937619
30.061489 46.964947 0
22.215652 43.026817 1.3057109
53.616577 58.772442 -0.96903467
34.63382 49.215527 -0.91821563
30.110001 46.938 0
22.152824 42.931942 1.3084687
53.650391 58.773781 -0.96646768
34.656357 49.182404 -0.91807008
30.107395 46.885323 0
22.145855 42.865002 1.3094844
53.633816 58.74968 -0.96860713
34.66037 49.139912 -0.91850561
30.142036 46.85144 0
22.083328 42.769829 1.3122422
53.644741 58.739483 -0.96817958
34.659813 49.095058 -0.91908616
30.148853 46.803471 0
22.016346 42.672119 1.3151449
53.661652 58.740215 -0.96689522
34.682724 49.084404 -0.91865063
30.094311 46.749985 0
21.9505 42.606701 1.3176122
53.663448 58.725395 -0.96732283
34.700768 49.048992 -0.91865063
30.036369 46.668808 0
21.971756 42.553547 1.3177571
53.678959 58.717583 -0.96646768
34.741982 49.025436 -0.91792506
29.969315 46.582733 0
23.575157 43.310139 1.2682669
53.644249 58.684017 -0.97031897
34.797081 49.009083 -0.91676396
29.758865 46.422783 0
23.540089 43.230457 1.2701536
53.678059 58.685604 -0.96775198
34.815216 48.973808 -0.91676396
29.655178 46.317085 0
23.551346 43.174446 1.2705891
53.661682 58.661358 -0.96989143
34.82415 48.933781 -0.91705447
29.588711 46.230232 0
23.571926 43.123203 1.2707342
64 64 -0
53.677265 58.653599 -0.96903467
34.860836 48.908096 -0.91647393
29.545509 46.155159 0
23.564873 43.057636 1.2717503
64 64 -0
53.692837 58.645859 -0.96817958
34.88372 48.875305 -0.91632837
29.562466 46.111134 0
23.571762 42.999214 1.2723309
64 64 -0
53.690216 58.62867 -0.96903467
34.929657 48.854534 -0.91545784
29.593346 46.074348 0
23.560295 42.931168 1.273492
64 64 -0
53.696716 58.616215 -0.96903467
34.943382 48.817017 -0.9156028
29.628876 46.040024 0
23.516705 42.846226 1.2756686
64 64 -0
53.698666 58.601379 -0.96946388
34.984756 48.793976 -0.91487724
29.645977 45.996082 0
23.422623 42.734608 1.279442
64 64 -0
53.709755 58.591331 -0.96903467
34.970947 48.742001 -0.91589338
29.635521 45.937641 0
23.397743 42.658997 1.2810386
64 64 -0
53.711742 58.5765 -0.96946388
35.016998 48.721481 -0.91502225
29.684986 45.91069 0
23.382187 42.588142 1.2823448
64 64 -0
53.709236 58.559277 -0.97031897
35.04007 48.6889 -0.91487724
29.711468 45.87167 0
30.078674 46.065811 1.0716134
64 64 -0
53.729427 58.554066 -0.96903467
35.095322 48.673393 -0.91371614
29.701221 45.813194 0
23.255001 42.395103 1.2880048
64 64 -0
53.722412 58.534424 -0.97031897
35.141384 48.653114 -0.91284561
29.539398 45.674004 0
23.267365 42.338566 1.2884403
64 64 -0
53.715431 58.514759 -0.97160327
35.150787 48.613373 -0.91313559
29.667202 45.688721 0
23.357758 42.323601 1.2864087
64 64 -0
53.714222 58.50613 -0.97203088
35.187584 48.61063 -0.91226506
29.907799 45.790581 0
23.36628 42.2966 1.2865536
64 64 -0
53.707287 58.486431 -0.97331518
35.233696 48.590557 -0.91139394
30.012424 45.79364 0
23.387959 42.245071 1.2866987
64 64 -0
53.718491 58.476437 -0.97288597
35.256905 48.558266 -0.91124892
29.332951 45.375721 0
23.469212 42.225525 1.2849571
64 64 -0
53.729691 58.46645 -0.97245842
35.280159 48.526009 -0.9111039
30.299355 45.8424 0
23.555023 42.208611 1.2830703
64 64 -0
53.727341 58.449158 -0.97331518
35.317162 48.501202 -0.91052336
30.472431 45.883347 0
23.595085 42.167164 1.2826353
64 64 -0
53.734055 58.436749 -0.97331518
35.331348 48.464081 -0.91066837
28.929352 44.994751 0
23.662613 42.14064 1.2813292
64 64 -0
53.740784 58.424347 -0.97331518
35.336437 48.422005 -0.9111039
30.676361 45.889359 0
23.739288 42.119217 1.2797326
64 64 -0
53.734016 58.404594 -0.97459781
35.364418 48.392361 -0.91081333
30.675419 45.836655 0
23.793125 42.085503 1.278862
64 64 -0
53.754288 58.399574 -0.97331518
35.378723 48.35527 -0.91095895
30.752197 45.826359 0
23.810524 42.031956 1.2791519
64 64 -0
53.738556 58.374859 -0.97545457
35.43866 48.343178 -0.90965283
30.824394 45.813721 0
23.868999 42.0009 1.2781359
64 64 -0
53.758862 58.369888 -0.97417027
35.443947 48.301178 -0.91008782
30.837261 45.768631 0
23.973026 41.994987 1.2756686
64 64 -0
53.743195 58.345123 -0.97630972
35.467484 48.269192 -0.90994281
30.854759 45.726059 0
24.022396 41.959179 1.2749431
64 64 -0
53.768009 58.342674 -0.97459781
35.504704 48.244785 -0.90936226
30.895084 45.696098 0
24.080898 41.928497 1.273927
64 64 -0
53.752388 58.317856 -0.97673893
35.505585 48.200287 -0.90994281
30.94453 45.671249 0
30.947426 45.672859 1.0555034
64 64 -0
53.759262 58.305481 -0.97673893
35.542862 48.175968 -0.90936226
30.953068 45.623741 0
30.983208 45.640503 1.0550684
64 64 -0
53.766151 58.29311 -0.97673893
35.566536 48.144123 -0.90921724
30.979836 45.586357 0
31.050812 45.625938 1.0536166
64 64 -0
53.774094 58.28944 -0.97630972
35.571587 48.124416 -0.90936226
31.05912 45.604469 0
31.111816 45.6339 1.0520205
64 64 -0
53.776512 58.27457 -0.97673893
35.595322 48.092617 -0.90921724
28.4884 44.112549 0
31.111366 45.581482 1.0527461
64 64 -0
53.76553 58.252167 -0.97845078
35.591911 48.045586 -0.90994281
31.094604 45.519829 0
31.151768 45.551933 1.0521655
64 64 -0
53.768013 58.237286 -0.97887832
35.593098 48.001068 -0.91052336
31.107876 45.474968 0
31.210308 45.532658 1.0510044
64 64 -0
53.779449 58.227451 -0.97845078
35.61697 47.969311 -0.91037834
31.193745 45.471077 0
31.29599 45.528824 1.0489727
64 64 -0
53.781971 58.212578 -0.97887832
35.600185 47.914536 -0.91153949
28.399269 43.835983 0
31.28669 45.471405 1.0499883
64 64 -0
53.788971 58.200233 -0.97887832
35.628689 47.885372 -0.91124892
31.274822 45.412418 0
24.653172 41.651382 1.2637681
64 64 -0
53.782597 58.180275 -0.98016262
35.634628 47.843384 -0.91168445
31.333473 45.393486 0
24.639565 41.580711 1.2650741
64 64 -0
53.794109 58.170486 -0.97973347
35.636124 47.798813 -0.91226506
31.383106 45.369526 0
24.644127 41.520283 1.2657996
64 64 -0
53.796692 58.155602 -0.98016262
35.651215 47.761971 -0.91241002
31.428219 45.343063 0
24.648773 41.459831 1.2665253
64 64 -0
53.790417 58.135612 -0.98144531
35.634804 47.70702 -0.91357118
31.432732 45.29335 0
31.529892 45.349159 1.0457799
64 64 -0
53.793068 58.12072 -0.98187286
35.618484 47.652008 -0.91473228
31.49144 45.274796 0
24.46019 41.224735 1.2743626
64 64 -0
53.804619 58.110958 -0.98144531
35.593269 47.591736 -0.91618335
31.550148 45.256355 0
24.483246 41.174377 1.2745075
64 64 -0
53.802849 58.093491 -0.98230207
35.577133 47.536587 -0.91734451
31.581818 45.222374 0
31.65617 45.265438 1.0438933
64 64 -0
53.818882 58.086334 -0.98144531
35.55661 47.478767 -0.91865063
31.631546 45.198906 0
31.714779 45.247253 1.0427321
64 64 -0
53.812721 58.066284 -0.98272961
35.509232 47.405174 -0.92082787
31.676769 45.172905 0
24.314766 40.884808 1.2826353
64 64 -0
53.811874 58.057545 -0.98315716
35.460907 47.353928 -0.92271453
31.73761 45.182228 0
24.310783 40.850365 1.2832159
64 64 -0
53.845646 58.060787 -0.98059022
35.431709 47.2906 -0.92431062
31.764862 45.145885 0
31.852329 45.197044 1.0401194
64 64 -0
53.830692 58.035538 -0.98272961
35.393631 47.221905 -0.92619789
31.792152 45.109581 0
36.155861 47.668968 0.90151888
64 64 -0
53.836296 58.005768 -0.98358476
35.331318 47.09211 -0.92953563
31.900654 45.068813 0
36.222275 47.617569 0.90064776
64 64 -0
53.843548 57.993492 -0.98358476
35.315983 47.03632 -0.93069679
31.950443 45.045944 0
36.277878 47.605183 0.8994866
64 64 -0
53.855225 57.983841 -0.98315716
35.27393 46.964565 -0.93272847
32.018127 45.033775 0
32.033554 45.042923 1.0379428
64 64 -0
53.858093 57.968964 -0.98358476
35.240932 46.897995 -0.93447012
32.094757 45.027073 0
32.038612 44.993687 1.0385233
64 64 -0
53.847748 57.946198 -0.98529661
35.212517 46.833977 -0.93606681
32.193695 45.033852 0
36.096466 47.361076 0.9073239
64 64 -0
53.863876 57.939198 -0.98444152
35.170841 46.761871 -0.93809849
32.238968 45.008785 0
36.121048 47.33004 0.90717888
64 64 -0
53.866806 57.924316 -0.98486906
35.160488 46.70834 -0.93911457
32.284256 44.983803 0
23.759956 39.872784 1.3103554
64 64 -0
53.852161 57.898853 -0.98700845
35.127972 46.64138 -0.94085568
32.360786 44.977676 0
23.757973 39.805443 1.311371
64 64 -0
53.855129 57.883938 -0.98743767
35.104454 46.579674 -0.94230735
32.401627 44.950211 0
23.711563 39.711212 1.3138387
64 64 -0
53.858139 57.86903 -0.98786521
35.152214 46.560905 -0.94143623
32.438034 44.920128 0
23.714264 39.646423 1.3147093
64 64 -0
53.856781 57.851463 -0.98872036
35.408829 46.668827 -0.93374455
36.244339 47.175289 0
23.717064 39.581604 1.3155799
64 64 -0
53.868599 57.841877 -0.98829281
36.091446 47.036465 -0.91212004
36.260242 47.139061 0
23.688873 39.497864 1.3174666
64 64 -0
53.854782 57.825077 -0.99000466
36.190487 47.073647 -0.90921724
36.29266 47.135834 0
23.561626 39.387047 1.322111
64 64 -0
53.857872 57.810154 -0.9904322
36.242012 47.05901 -0.90820116
36.317497 47.10508 0
23.480499 39.270523 1.3257394
64 64 -0
53.865356 57.797901 -0.9904322
36.315697 47.058037 -0.90645945
36.369011 47.09066 0
23.443932 39.180901 1.327916
64 64 -0
53.87286 57.78566 -0.9904322
34.768242 46.062454 -0.95783633
26.754211 41.144787 0
23.380936 39.074837 1.3309639
64 64 -0
53.862885 57.762665 -0.99214411
34.772232 46.016251 -0.95841688
26.755264 41.083439 0
23.357967 38.993095 1.3327055
64 64 -0
53.866062 57.74773 -0.99257165
34.785126 45.975487 -0.95870745
26.809551 41.054848 0
23.31303 38.897621 1.3351728
64 64 -0
53.877987 57.73819 -0.99214411
34.82019 45.948402 -0.95827186
26.841724 41.012657 0
23.263832 38.799255 1.3377855
64 64 -0
53.850658 57.704311 -0.9955678
34.846436 45.915894 -0.9581269
26.89164 40.981495 0
23.232491 38.711708 1.3398172
64 64 -0
53.823395 57.670361 -0.99899155
34.894798 45.897156 -0.95725578
26.941593 40.950424 0
23.157166 38.596592 1.3433006
64 64 -0
34.925499 45.867496 -0.95696574
26.951805 40.894646 0
23.108528 38.497765 1.3459128
64 64 -0
34.960655 45.840649 -0.95653021
26.988567 40.855415 0
23.09972 38.423576 1.3472189
64 64 -0
35.009026 45.822132 -0.95565963
26.95483 40.772003 0
23.029396 38.310684 1.3505567
64 64 -0
35.039822 45.792652 -0.95536911
26.947674 40.705093 0
22.98568 38.21418 1.3530239
64 64 -0
35.075035 45.765991 -0.95493352
26.975845 40.660343 0
22.977287 38.13969 1.3543305
64 64 -0
35.123436 45.747707 -0.954063
22.771702 37.940426 0
22.903149 38.023514 1.3578134
64 64 -0
35.211361 45.754562 -0.95188576
33.332092 44.56353 0
33.363644 44.58353 1.0129799
64 64 -0
35.463711 45.89032 -0.94390351
33.339447 44.542221 0
33.38855 44.57338 1.0125443
64 64 -0
36.011723 46.190624 -0.92648786
33.398109 44.527542 0
33.425186 44.544769 1.0121093
64 64 -0
36.155933 46.235085 -0.92242396
33.430428 44.496174 0
33.483765 44.530201 1.0109482
64 64 -0
36.199303 46.215454 -0.92169839
33.475937 44.473274 0
33.542336 44.515747 1.0097871
64 64 -0
36.413269 46.305321 -0.91531283
33.534603 44.458885 0
33.592136 44.495789 1.0089165
64 64 -0
36.92857 46.589638 -0.89891279
33.575748 44.43335 0
33.624474 44.464691 1.008626
64 64 -0
37.102478 46.65551 -0.89383328
33.630035 44.416351 0
33.65683 44.433628 1.0083359
64 64 -0
37.175827 46.656879 -0.89209163
33.666824 44.388138 0
33.702328 44.411095 1.0076098
64 64 -0
37.214245 46.635788 -0.89151108
33.699287 44.35717 0
33.73909 44.382973 1.0071748
64 64 -0
37.24395 46.609093 -0.89122105
33.753597 44.340431 0
33.815102 44.380409 1.0054332
64 64 -0
37.282402 46.588127 -0.8906405
33.7948 44.315254 0
33.860596 44.358135 1.0047076
64 64 -0
64 64 -0
37.316513 46.564388 -0.89020497
33.853462 44.301552 0
33.897408 44.330261 1.004272
64 64 -0
64 64 -0
37.368034 46.552097 -0.88918883
33.881653 44.267998 0
33.929882 44.299595 1.0039821
64 64 -0
64 64 -0
37.436905 46.551308 -0.88759273
33.93161 44.248764 0
33.988457 44.286102 1.002821
64 64 -0
64 64 -0
37.484055 46.536381 -0.88672161
33.964188 44.218163 0
34.020988 44.255573 1.0025303
64 64 -0
64 64 -0
37.557217 46.538719 -0.8849799
34.04023 44.216305 0
34.075226 44.239414 1.0015142
64 64 -0
64 64 -0
37.621658 46.535461 -0.88352883
34.077183 44.188744 0
34.103455 44.206139 1.0013692
64 64 -0
64 64 -0
37.627888 46.516663 -0.88367379
34.093491 44.173538 0
34.132744 44.199562 1.0007887
64 64 -0
64 64 -0
37.674992 46.502064 -0.88280326
34.143486 44.154713 0
34.195641 44.189377 0.99948257
64 64 -0
64 64 -0
37.717773 46.484676 -0.88207769
34.18914 44.13308 0
34.236897 44.164909 0.99890202
64 64 -0
64 64 -0
37.77784 46.478912 -0.88077158
34.230476 44.108643 0
34.26952 44.134727 0.99861199
64 64 -0
64 64 -0
37.837902 46.473282 -0.87946492
34.271832 44.084274 0
34.323772 44.119072 0.99759591
64 64 -0
64 64 -0
37.846153 46.432987 -0.87990046
34.326149 44.068672 0
34.378017 44.103512 0.99657977
64 64 -0
64 64 -0
37.906189 46.427521 -0.87859434
34.358898 44.038654 0
34.402081 44.067734 0.99657977
64 64 -0
64 64 -0
37.927441 46.396004 -0.87859434
34.400295 44.014503 0
34.460625 44.055237 0.9954192
64 64 -0
64 64 -0
37.944431 46.361603 -0.87873936
34.463257 44.005013 0
34.510574 44.037048 0.99454808
64 64 -0
64 64 -0
37.991554 46.347641 -0.87786877
34.49604 43.975174 0
34.543312 44.007259 0.99425811
64 64 -0
64 64 -0
38.017197 46.319145 -0.87772381
34.52887 43.945404 0
34.593277 43.989227 0.99338698
64 64 -0
64 64 -0
38.038578 46.287766 -0.87772381
34.600426 43.942078 0
34.621769 43.956638 0.99324197
64 64 -0
64 64 -0
38.059998 46.256409 -0.87772381
34.633266 43.912441 0
34.684608 43.947559 0.99193585
64 64 -0
64 64 -0
38.072895 46.219208 -0.87801379
34.670441 43.885803 0
34.726002 43.923908 0.9913553
64 64 -0
64 64 -0
38.07299 46.173172 -0.87873936
34.724777 43.871017 0
34.754562 43.891495 0.99121028
64 64 -0
64 64 -0
38.100887 46.169296 -0.87815881
34.762676 43.871048 0
34.792404 43.891518 0.99033922
64 64 -0
64 64 -0
38.122452 46.138016 -0.87815881
34.799858 43.844597 0
34.846649 43.876896 0.98932362
64 64 -0
64 64 -0
38.131229 46.097885 -0.87859434
34.832802 43.815258 0
34.879539 43.847603 0.9890331
64 64 -0
64 64 -0
38.144699 46.014648 -0.87961048
34.924385 43.774551 0
34.962456 43.801033 0.98787194
64 64 -0
64 64 -0
38.162193 45.980453 -0.87975544
34.965923 43.751343 0
35.020985 43.789742 0.98671085
64 64 -0
64 64 -0
38.179726 45.94627 -0.87990046
35.024536 43.740135 0
35.053936 43.760693 0.98642087
64 64 -0
64 64 -0
38.227085 45.932976 -0.87902993
35.061829 43.714104 0
35.112457 43.749596 0.98525971
64 64 -0
64 64 -0
38.265942 45.913803 -0.87844932
35.09914 43.688133 0
35.153954 43.726662 0.98467916
64 64 -0
64 64 -0
38.296318 45.88871 -0.87815881
35.153473 43.674206 0
35.191219 43.700802 0.98424363
64 64 -0
64 64 -0
38.318222 45.857666 -0.87815881
35.195061 43.651379 0
35.215767 43.666008 0.98424363
64 64 -0
64 64 -0
38.357124 45.838665 -0.87757826
