# .PCD v0.7 - Point Cloud Data file format
VERSION 0.7
FIELDS x y z
SIZE 4 4 4
TYPE F F F
COUNT 1 1 1
WIDTH 1897
HEIGHT 1
VIEWPOINT 0 0 0 1 0 0 0
POINTS 1897
DATA ascii
92.319153 75.610092 0.85478592
70.672401 66.744926 -0.99529272
64 64 -0
64 64 -0
64 64 -0
81.669983 71.269165 -0.53361583
64 64 0
95.688431 77.036148 0.95695907
70.682983 66.758728 -0.9973672
64 64 -0
64 64 -0
64 64 -0
81.689995 71.302406 -0.53448635
84.369713 72.408585 0
95.639023 77.060547 0.95594293
64 64 -0
64 64 -0
64 64 -0
81.67157 71.319801 -0.53419638
64 64 0
95.685631 77.124619 0.95782965
64 64 -0
64 64 -0
64 64 -0
81.657898 71.339149 -0.53405082
84.363731 72.463776 0
91.89801 75.595245 0.84375584
64 64 -0
64 64 -0
64 64 -0
81.639435 71.356483 -0.53376079
84.435158 72.52243 0
91.83123 75.606949 0.84215975
64 64 -0
64 64 -0
64 64 -0
81.692848 71.40387 -0.53564745
84.396042 72.535065 0
91.764442 75.6185 0.84056306
70.675453 66.80294 -0.99875289
64 64 -0
64 64 -0
64 64 -0
81.64077 71.407135 -0.53434134
84.376106 72.555672 0
91.779144 75.664116 0.84143418
69.578041 66.350082 -0.99791211
64 64 -0
64 64 -0
64 64 -0
81.612648 71.42038 -0.53376079
84.346565 72.572205 0
91.817696 75.719864 0.84303027
64 64 -0
64 64 -0
64 64 -0
81.608452 71.443672 -0.5339058
84.336197 72.596779 0
91.813095 75.757515 0.84332085
64 64 -0
64 64 -0
64 64 -0
81.599442 71.464943 -0.5339058
84.268311 72.596962 0
91.80365 75.793137 0.84346586
64 64 -0
64 64 -0
64 64 -0
81.585632 71.484169 -0.53376079
84.238754 72.613297 0
91.789383 75.826729 0.84346586
64 64 -0
64 64 -0
64 64 -0
81.614815 71.521744 -0.53492194
84.223526 72.635696 0
91.808533 75.874588 0.84448195
64 64 -0
64 64 -0
64 64 -0
81.653473 71.563484 -0.53637302
84.222656 72.66423 0
91.837151 75.926598 0.84578806
70.616348 66.839455 -0.99321556
64 64 -0
64 64 -0
64 64 -0
81.582047 71.545456 -0.53434134
84.193504 72.666183 0
91.844254 75.949554 0.84622312
64 64 -0
64 64 -0
64 64 -0
81.596779 71.576973 -0.5350669
84.173447 72.686455 0
91.820259 75.97908 0.84593308
64 64 -0
64 64 -0
64 64 -0
81.625778 71.614716 -0.53622806
84.334953 72.785141 0
116.37372 86.626572 1.5933626
64 64 -0
64 64 -0
64 64 -0
81.592728 71.625679 -0.53550249
64 64 0
116.28912 86.665039 1.5916209
64 64 -0
64 64 -0
64 64 -0
81.597801 71.653145 -0.53593802
64 64 0
116.20451 86.703331 1.5898793
64 64 -0
64 64 -0
64 64 -0
81.583763 71.672318 -0.53579247
64 64 0
92.571739 76.466698 0.87060541
64 64 -0
64 64 -0
64 64 -0
81.607811 71.708153 -0.53680861
64 64 0
92.556656 76.501213 0.87060541
64 64 -0
64 64 -0
64 64 -0
81.569946 71.716888 -0.53593802
64 64 0
92.555801 76.541985 0.87104094
64 64 -0
64 64 -0
64 64 -0
81.570114 71.742302 -0.53622806
64 64 0
92.450272 76.536659 0.86828315
64 64 -0
64 64 -0
64 64 -0
81.613029 71.786636 -0.53782469
64 64 0
92.302032 76.512199 0.86421984
64 64 -0
64 64 -0
64 64 -0
81.541855 71.780525 -0.53593802
64 64 0
92.20137 76.508453 0.86160702
64 64 -0
64 64 -0
64 64 -0
81.608391 71.83551 -0.53825969
64 64 0
92.100784 76.504494 0.85899478
64 64 -0
64 64 -0
64 64 -0
81.579933 71.848312 -0.53767914
64 64 0
92.000244 76.500305 0.85638255
64 64 -0
64 64 -0
64 64 -0
81.532494 71.852554 -0.53651804
81.779602 71.963226 0
91.970886 76.527756 0.85594702
64 64 -0
64 64 -0
64 64 -0
81.537216 71.880119 -0.53695357
81.656036 71.933517 0
91.908333 76.540253 0.85449588
64 64 -0
64 64 -0
64 64 -0
81.527679 71.901306 -0.53695357
81.912155 72.074623 0
91.91684 76.584641 0.85522145
64 64 -0
64 64 -0
64 64 -0
81.503914 71.916054 -0.53651804
64 64 0
91.835335 76.588387 0.85318977
64 64 -0
64 64 -0
64 64 -0
81.480148 71.930763 -0.53608304
64 64 0
114.93286 87.108292 1.5620142
64 64 -0
64 64 -0
64 64 -0
81.513123 71.971252 -0.53738916
64 64 0
114.85286 87.146133 1.5604175
64 64 -0
64 64 -0
64 64 -0
81.517746 71.986137 -0.53767914
64 64 0
114.7916 87.155296 1.5589664
64 64 -0
64 64 -0
64 64 -0
81.531731 72.018112 -0.53840524
64 64 0
114.73995 87.205849 1.5582408
64 64 -0
64 64 -0
64 64 -0
81.540924 72.047958 -0.53898585
64 64 0
114.68826 87.25631 1.5575153
64 64 -0
64 64 -0
64 64 -0
81.535904 72.07132 -0.53913081
64 64 0
92.119263 76.942566 0.86450982
64 64 -0
64 64 -0
64 64 -0
81.511978 72.085968 -0.53869528
64 64 0
92.051712 76.952576 0.86291373
64 64 -0
64 64 -0
64 64 -0
81.488045 72.100563 -0.53825969
64 64 0
92.488701 77.196129 0.87684596
64 64 -0
64 64 -0
64 64 -0
81.515945 72.139206 -0.53942084
64 64 0
92.590553 77.285294 0.88047433
64 64 -0
64 64 -0
64 64 -0
81.487259 72.151581 -0.53884029
64 64 0
92.466156 77.269333 0.87713653
64 64 -0
64 64 -0
64 64 -0
81.491524 72.179314 -0.53927583
64 64 0
92.360657 77.261894 0.87437874
64 64 -0
64 64 -0
64 64 -0
81.46701 72.219353 -0.53913081
64 64 0
92.243889 77.290565 0.87176651
64 64 -0
64 64 -0
64 64 -0
81.428856 72.227135 -0.53825969
81.810295 72.407188 0
92.3265 77.371269 0.87481433
64 64 -0
64 64 -0
64 64 -0
81.484665 72.279327 -0.54029197
64 64 0
92.329109 77.414383 0.87539488
64 64 -0
64 64 -0
64 64 -0
81.474655 72.300453 -0.54029197
64 64 0
97.133621 79.738449 1.0244454
64 64 -0
64 64 -0
81.478668 72.328262 -0.54072696
64 64 0
113.51069 87.590912 1.5316818
64 64 -0
64 64 -0
81.468597 72.349373 -0.54072696
64 64 0
113.51495 87.666397 1.5326974
64 64 -0
64 64 -0
81.477234 72.379463 -0.54130751
64 64 0
113.43478 87.701508 1.5311012
72.101387 67.896255 -0.99573398
64 64 -0
64 64 -0
81.462418 72.398323 -0.54116249
64 64 0
113.32181 87.720673 1.5284885
64 64 -0
64 64 -0
81.442909 72.414902 -0.54087251
64 64 0
113.25098 87.759933 1.5271823
64 64 -0
64 64 -0
81.451439 72.44503 -0.54145306
64 64 0
113.11465 87.767365 1.5238446
64 64 -0
81.469269 72.479721 -0.54232359
64 64 0
112.9737 87.772224 1.5203612
81.445442 72.481186 -0.54174304
64 64 0
112.93129 87.788177 1.5194907
81.453865 72.511368 -0.54232359
64 64 0
112.90718 87.849564 1.5196357
81.406219 72.514183 -0.54116249
64 64 0
112.83632 87.888092 1.5183295
81.465912 72.56955 -0.54333973
64 64 0
112.77942 87.933342 1.5174584
81.450867 72.588348 -0.54319417
64 64 0
112.68985 87.962433 1.5155717
81.445152 72.611732 -0.54333973
64 64 0
112.58165 87.982147 1.5131046
64 64 -0
64 64 0
112.51072 88.020081 1.5117984
64 64 -0
64 64 0
112.43977 88.057877 1.5104923
81.409157 72.672592 -0.54319417
64 64 0
112.3409 88.081619 1.5083151
81.421921 72.705238 -0.54392028
64 64 0
98.514664 81.246002 1.0775634
81.383507 72.712311 -0.54304916
64 64 0
98.60994 81.345901 1.0811918
81.386902 72.740311 -0.54348475
81.652412 72.873787 0
98.630745 81.408714 1.0824978
81.385597 72.765991 -0.54377472
81.655624 72.902138 0
98.516891 81.403763 1.0795957
81.393539 72.796371 -0.54435527
81.570541 72.88588 0
96.024139 80.19545 1.0022403
81.419983 72.836189 -0.54551643
64 64 0
96.07869 80.271736 1.004562
64 64 -0
81.479424 72.892914 0
96.313744 80.440094 1.0125443
81.36618 72.861732 -0.54450083
84.074112 74.243553 0
100.06633 82.404175 1.130827
81.364708 72.887444 -0.54479086
84.242424 74.360283 0
100.02094 82.435898 1.1301014
81.344719 72.903671 -0.54450083
84.128006 74.332436 0
111.56098 88.41478 1.4930767
81.352409 72.934128 -0.54508084
84.120148 74.359138 0
95.933601 80.44146 1.0031109
81.347015 72.944611 -0.54508084
84.04911 74.337891 0
95.909798 80.453606 1.0026753
81.350044 72.972733 -0.54551643
84.087471 74.388412 0
95.894524 80.494537 1.002821
81.339188 72.99369 -0.54551643
84.000977 74.374336 0
95.874573 80.533066 1.002821
81.342148 73.021835 -0.54595196
84.011505 74.410507 0
96.034363 80.6651 1.0084809
81.335831 73.045181 -0.54609698
83.943542 74.405785 0
96.078697 80.73745 1.0105126
81.329491 73.068527 -0.54624194
83.861786 74.393677 0
96.007812 80.749695 1.0089165
64 64 -0
64 64 0
91.00885 78.175339 0.85188365
81.29834 73.105545 -0.54595196
81.312714 73.113113 0
90.927307 78.174065 0.84985143
81.296509 73.131287 -0.54624194
64 64 0
96.06176 80.926254 1.0125443
81.294655 73.157051 -0.54653251
64 64 0
96.004562 80.945541 1.0113838
81.283577 73.17794 -0.54653251
64 64 0
95.924377 80.952507 1.0094965
81.28624 73.206146 -0.5469681
64 64 0
95.858009 80.966644 1.0080453
81.279678 73.229477 -0.54711306
64 64 0
95.787079 80.978203 1.0064492
81.277672 73.255249 -0.5474031
64 64 0
95.729889 80.996964 1.0052881
81.266479 73.276115 -0.5474031
83.188217 74.30854 0
95.700165 81.030365 1.0049976
81.259827 73.299438 -0.54754806
83.061195 74.270004 0
95.652122 81.053879 1.004127
81.257729 73.325233 -0.54783863
64 64 0
110.01003 88.861565 1.4605671
81.251015 73.348549 -0.54798365
64 64 0
109.96168 88.907242 1.4599866
81.239708 73.369385 -0.54798365
64 64 0
109.88132 88.935455 1.4583899
81.237503 73.395195 -0.54827422
64 64 0
109.80553 88.966011 1.4569387
81.239807 73.423485 -0.54870921
64 64 0
109.72517 88.993919 1.4553421
81.238686 73.436401 -0.54885477
64 64 0
109.66904 88.999084 1.454036
81.277367 73.484726 -0.55045086
64 64 0
109.6069 89.036736 1.4530199
81.484421 73.6259 -0.55741757
64 64 0
109.57207 89.089325 1.4528749
81.631996 73.734924 -0.56249702
81.414658 73.614929 0
109.46439 89.101669 1.4504076
81.702049 73.801537 -0.56510925
81.389359 73.628403 0
109.31582 89.091141 1.4466343
81.762886 73.863281 -0.56743151
81.436867 73.682251 0
109.20824 89.102989 1.444167
81.769119 73.894852 -0.56801206
81.343307 73.657738 0
109.20056 89.170235 1.4448926
81.734467 73.903648 -0.56728649
81.340721 73.683769 0
109.07484 89.171623 1.4418448
81.776878 73.955528 -0.5690276
81.347176 73.714882 0
109.04892 89.228607 1.4419898
81.742188 73.964279 -0.56830204
64 64 0
108.96857 89.255035 1.4403937
81.71656 73.978073 -0.56786704
64 64 0
108.85199 89.260895 1.4376359
81.647171 73.995239 -0.56641537
64 64 0
108.73655 89.338478 1.4358943
81.589897 73.990891 -0.56496423
64 64 0
108.66072 89.366852 1.4344431
81.505562 73.970985 -0.56264204
64 64 0
108.5894 89.397652 1.4331371
81.407776 73.943161 -0.55988479
64 64 0
108.50002 89.417999 1.4312503
81.310059 73.915108 -0.557127
81.302124 73.910561 0
108.41516 89.440758 1.4295087
81.316093 73.946373 -0.55770755
81.28112 73.926285 0
108.33031 89.463348 1.427767
81.259041 73.941353 -0.55625647
81.3097 73.970535 0
108.29051 89.511711 1.427477
81.28302 73.982994 -0.55741757
81.28862 73.986229 0
108.21014 89.536613 1.4258803
81.311409 74.027313 -0.55872369
81.290054 74.014946 0
108.1208 89.556152 1.4239936
81.336807 74.056015 -0.55973923
81.302017 74.035835 0
108.0559 89.554123 1.422397
81.378548 74.108307 -0.56148094
81.289871 74.056732 0
107.98457 89.583817 1.4210908
81.447113 74.17643 -0.56409311
81.304695 74.093353 0
107.9267 89.621246 1.4202203
81.533508 74.255226 -0.56728649
81.292488 74.114258 0
107.85533 89.650688 1.4189142
81.565918 74.302696 -0.56873763
81.284737 74.137779 0
107.77052 89.672112 1.4171726
81.643051 74.376602 -0.57164037
81.272476 74.158653 0
107.69019 89.695999 1.4155759
81.617065 74.389992 -0.57120484
81.26915 74.184799 0
107.63673 89.735573 1.4148502
81.644753 74.435074 -0.57251096
81.279221 74.218903 0
107.56981 89.76712 1.4136891
81.650009 74.466995 -0.57309151
81.275826 74.245087 0
107.45374 89.769386 1.4109319
81.641815 74.490967 -0.57323653
81.281326 74.276596 0
107.39129 89.803276 1.4099158
81.633598 74.514946 -0.57338208
81.277832 74.302795 0
107.31545 89.829071 1.4084647
81.603043 74.525574 -0.57280153
81.274315 74.329018 0
107.25298 89.862724 1.4074485
81.594765 74.549507 -0.57294649
81.261818 74.349884 0
107.19942 89.901604 1.406723
81.564186 74.560051 -0.57236594
81.280518 74.389496 0
107.10128 89.91362 1.4045458
81.560303 74.586624 -0.57265598
81.276871 74.415749 0
107.021 89.936172 1.4029497
81.547501 74.607834 -0.57265598
81.277641 74.444702 0
106.96293 89.972 1.4020785
81.503578 74.610184 -0.57164037
81.305069 74.489845 0
106.89597 90.002335 1.4009174
81.446327 74.604324 -0.5701887
81.287918 74.508041 0
106.82011 90.027161 1.3994663
81.380264 74.592949 -0.56844759
81.288544 74.537048 0
106.74426 90.051842 1.3980153
81.265457 74.551613 -0.56510925
81.315765 74.582359 0
106.65067 90.065521 1.395983
81.102051 74.480148 -0.56017482
90.830849 80.441963 0
106.60586 90.108902 1.395548
81.04953 74.476318 -0.55886871
90.802101 80.468925 0
106.53 90.133148 1.3940963
64 64 -0
90.805435 80.493294 0
106.45667 90.123444 1.3922096
64 64 -0
90.621605 80.424561 0
106.4118 90.166542 1.3917747
81.017799 74.527779 -0.55886871
90.663696 80.495049 0
95.256691 83.336426 1.0264771
81.013893 74.553802 -0.55915868
90.727776 80.579376 0
95.233299 83.374176 1.0264771
81.018784 74.585335 -0.55973923
90.663536 80.584175 0
95.209869 83.411903 1.0264771
81.014801 74.611397 -0.5600298
90.758293 80.687988 0
95.168747 83.438599 1.0258965
81.019592 74.642967 -0.56061035
90.777824 80.74514 0
105.99739 90.262489 1.3833568
81.028732 74.677322 -0.56133592
90.660568 80.71666 0
105.94362 90.299416 1.3826313
81.033417 74.708961 -0.56191647
90.653572 80.757172 0
105.903 90.344536 1.3823407
81.038055 74.740616 -0.56249702
90.677322 80.817123 0
105.83157 90.370209 1.3810346
81.042633 74.772308 -0.56307757
90.634995 80.835442 0
105.73819 90.381866 1.3790029
81.060318 74.812355 -0.56409311
90.693756 80.917763 0
105.69312 90.423935 1.3785673
81.082329 74.855255 -0.56525427
90.682091 80.955589 0
105.61729 90.446426 1.3771162
90.737236 81.036018 -0.88541549
90.648407 80.979424 0
105.55025 90.47435 1.3759551
90.738525 81.082306 -0.88614106
90.684891 81.048035 0
105.46568 90.490959 1.3742135
90.761635 81.142639 -0.88759273
90.637985 81.063431 0
105.403 90.521423 1.3731973
90.740898 81.174957 -0.88759273
90.612953 81.092781 0
105.32284 90.540543 1.3716012
90.755081 81.229767 -0.88875383
90.618546 81.141846 0
105.27763 90.582016 1.3711656
90.690575 81.233887 -0.88730216
90.64592 81.205048 0
105.20619 90.606499 1.3698596
90.695915 81.283073 -0.88817328
90.646957 81.251373 0
105.12602 90.625198 1.3682629
90.694183 81.304848 -0.88846326
90.671463 81.290123 0
105.04889 90.610474 1.3662312
90.62532 81.305939 -0.88686663
64 64 0
104.99492 90.645889 1.3655057
90.552155 81.304054 -0.88512546
64 64 0
104.94527 90.684059 1.364925
90.496429 81.313385 -0.88396436
64 64 0
104.87386 90.707932 1.363619
90.436371 81.319756 -0.88265824
90.430847 81.316147 0
104.80243 90.731674 1.3623128
90.367638 81.320297 -0.88106155
90.375107 81.325203 0
104.70494 90.738152 1.3601356
90.333664 81.343567 -0.88062602
90.319374 81.33416 0
104.64658 90.770172 1.3592651
90.321373 81.381111 -0.8809166
64 64 0
104.58817 90.802078 1.3583939
90.291672 81.407158 -0.88062602
90.234016 81.36898 0
104.52542 90.831017 1.3573778
90.279289 81.444664 -0.8809166
90.226028 81.409309 0
104.44968 90.851227 1.3559268
90.275497 81.487923 -0.88149714
90.222305 81.452522 0
104.38692 90.879921 1.3549106
90.275963 81.534081 -0.88222271
90.188202 81.475525 0
104.31119 90.899864 1.3534595
90.242134 81.603317 -0.88251269
90.154533 81.544548 0
104.18134 90.953781 1.3512828
90.22084 81.63501 -0.88251269
90.163551 81.596481 0
104.10561 90.973305 1.3498311
90.199516 81.666679 -0.88251269
90.142273 81.628082 0
104.02991 90.992699 1.34838
90.122185 81.660484 -0.88062602
90.120949 81.659653 0
103.98004 91.029404 1.3477994
90.036316 81.648308 -0.87844932
90.103897 81.694122 0
103.90003 91.045609 1.3462027
89.946198 81.633018 -0.87612712
90.095421 81.734428 0
103.85013 91.082115 1.3456222
89.869049 81.626312 -0.87424046
90.073975 81.765945 0
103.78732 91.109772 1.3446066
89.796234 81.622383 -0.87249875
90.099762 81.829735 0
103.72879 91.140236 1.3437356
89.732056 81.624176 -0.87104768
90.16407 81.920074 0
103.65738 91.161797 1.3424294
89.661392 81.598572 -0.8690154
90.127495 81.918221 0
103.61525 91.168121 1.3415589
89.588737 81.594238 -0.86727428
90.140137 81.973373 0
90.239418 82.041634 0.8893277
89.48616 81.569099 -0.8645165
90.139824 82.019714 0
90.20903 82.067421 0.88903713
89.422165 81.570343 -0.86306542
90.135162 82.063118 0
103.33269 91.184494 1.3353183
89.349655 81.565529 -0.86132371
90.16465 82.130257 0
103.30408 91.234955 1.3354633
89.243057 81.536842 -0.85842091
90.189735 82.194519 0
103.24553 91.264633 1.3345922
89.162155 81.525757 -0.85638928
90.167732 82.226151 0
103.1955 91.300156 1.3340117
89.081299 81.514481 -0.854357
90.18837 82.287567 0
103.16676 91.350479 1.3341572
89.034584 81.526901 -0.85348648
90.179031 82.32814 0
103.09535 91.370949 1.3328505
88.949593 81.51236 -0.85130978
90.148361 82.353783 0
93.453766 84.673882 1.0049976
88.877411 81.506607 -0.84956813
90.168716 82.415314 0
93.36927 84.667587 1.0029659
88.7798 81.482712 -0.84695536
90.137955 82.440926 0
93.280579 84.658119 1.0007887
88.707764 81.476646 -0.84521425
90.145386 82.49353 0
93.217415 84.666473 0.99948257
88.635757 81.470413 -0.84347254
90.127274 82.528122 0
93.052536 84.602562 0.9946931
88.589203 81.482094 -0.84260142
90.121841 82.571747 0
95.712807 86.54673 1.0867068
88.517281 81.475594 -0.84085977
90.107849 82.609329 0
95.694016 86.591072 1.0869974
88.432739 81.459892 -0.83868307
90.119225 82.66507 0
95.679367 86.638412 1.0874324
88.360924 81.453079 -0.83694142
90.096649 82.696617 0
95.626648 86.658516 1.0865618
88.27652 81.437035 -0.83476472
90.086731 82.737251 0
95.620346 86.711868 1.0872873
88.221695 81.442062 -0.83360362
90.080963 82.780922 0
92.885536 84.800499 0.99411255
88.177429 81.432373 -0.83244252
90.078049 82.802757 0
92.818169 84.778442 0.99222589
88.118446 81.434181 -0.83113641
90.06797 82.843407 0
92.645645 84.706696 0.98714638
88.038437 81.420609 -0.82910419
90.078896 82.899323 0
92.603767 84.729095 0.98656583
87.966919 81.412987 -0.82736248
90.072884 82.943062 0
92.624954 84.797249 0.98816252
87.908058 81.414398 -0.82605636
90.062592 82.983734 0
92.692207 84.899124 0.9913553
87.845039 81.412628 -0.82460523
90.04805 83.021362 0
92.763458 85.004265 0.9946931
87.790436 81.41687 -0.82344413
90.037643 83.062042 0
92.872238 85.137238 0.99933755
87.731674 81.417938 -0.82213801
90.039764 83.111969 0
92.934654 85.236679 1.0023854
87.681305 81.425034 -0.82112193
90.046005 83.165009 0
92.934082 85.2901 1.003256
87.651871 81.447472 -0.82083189
90.027008 83.199554 0
93.004532 85.396004 1.0065943
87.605698 81.457489 -0.81996077
90.020531 83.24337 0
101.61494 91.81797 1.3065821
87.517807 81.436493 -0.81763911
90.005615 83.280991 0
101.58548 91.866493 1.3067271
87.475853 81.449387 -0.81691301
89.999008 83.324821 0
101.51841 91.887085 1.305566
87.413086 81.446686 -0.81546187
89.975639 83.356216 0
101.46385 91.91687 1.3048404
87.354523 81.446976 -0.81415576
89.973076 83.403168 0
101.40929 91.946571 1.3041148
87.316788 81.462723 -0.81357521
89.970459 83.45015 0
101.33806 91.963722 1.3028088
87.328918 81.515846 -0.81473631
89.971901 83.500259 0
101.25852 91.974487 1.3012121
87.303589 81.540901 -0.81459135
89.952477 83.534752 0
101.22054 92.016365 1.3010671
87.307259 81.587822 -0.81546187
89.949623 83.581772 0
101.17007 92.048798 1.3004864
87.261131 81.597168 -0.81459135
89.925941 83.613113 0
101.09885 92.065475 1.2991804
87.293678 81.666077 -0.81647801
89.922974 83.660156 0
101.0442 92.094574 1.2984543
87.291267 81.686432 -0.81676799
89.919373 83.682106 0
100.98584 92.085526 1.2970031
87.224411 81.679947 -0.8151719
89.928703 83.738632 0
100.92293 92.108154 1.295987
87.248459 81.742661 -0.81676799
89.908966 83.773102 0
100.87656 92.143295 1.295552
79.55864 75.903755 -0.54711306
89.901596 83.817047 0
100.81775 92.168884 1.294681
79.428787 75.833984 -0.54304916
89.898277 83.864159 0
100.74658 92.184891 1.2933748
79.365036 75.814606 -0.54130751
89.882515 83.901794 0
100.65483 92.184921 1.2913431
79.313705 75.804611 -0.54000139
89.879059 83.948936 0
91.977676 85.566658 0.98656583
79.274765 75.804047 -0.53913081
89.875519 83.996101 0
91.963936 85.609985 0.98700142
79.256393 75.819313 -0.53898585
89.867798 84.0401 0
91.925476 85.634209 0.98656583
79.221565 75.821793 -0.53825969
89.855904 84.080925 0
91.845963 85.626495 0.98467916
79.194977 75.830605 -0.53782469
89.843948 84.12175 0
91.799309 85.644165 0.9839536
79.168381 75.839363 -0.53738916
89.848328 84.175369 0
91.650238 85.581818 0.97959971
64 64 -0
89.819832 84.203384 0
91.587311 85.586395 0.9782936
64 64 -0
89.807755 84.294678 0
91.486046 85.614449 0.97655195
79.082405 75.890015 -0.53637302
89.791397 84.332298 0
100.08307 92.445595 1.2832159
79.059883 75.901787 -0.53608304
89.799461 84.389252 0
100.00789 92.456947 1.2817641
79.037338 75.913513 -0.53579247
89.787048 84.430115 0
99.92868 92.464943 1.2801681
79.031075 75.938148 -0.53608304
89.774574 84.47097 0
99.877983 92.495407 1.2795875
79.00444 75.946587 -0.53564745
89.762039 84.511826 0
99.835388 92.532257 1.279297
78.994049 75.967949 -0.53579247
89.75351 84.555923 0
99.772461 92.552856 1.2782815
78.982765 75.973763 -0.53564745
89.765472 84.590973 0
92.151703 86.497971 1.0064492
78.964233 75.988609 -0.53550249
89.752769 84.631859 0
91.913605 86.363007 0.99890202
64 64 -0
89.748108 84.679253 0
91.525963 86.107109 0.98598528
64 64 -0
89.735268 84.720146 0
91.34137 86.01326 0.98032528
64 64 -0
89.722351 84.761024 0
91.157043 85.918991 0.97466522
64 64 -0
89.717476 84.808456 0
91.0457 85.883148 0.97161746
64 64 -0
89.71254 84.855919 0
90.910263 85.827415 0.96769857
64 64 -0
89.695389 84.893532 0
90.754852 85.755013 0.96305466
64 64 -0
89.662064 84.917999 0
90.257271 85.403168 0.94607401
78.847649 76.132698 -0.53550249
89.632721 84.945686 0
90.062378 85.296776 0.93997842
78.812881 76.134171 -0.53477693
89.627541 84.993141 0
89.916031 85.229462 0.93562454
78.822296 76.171837 -0.53564745
89.602158 85.024094 0
91.72168 86.76461 1.0018048
78.763443 76.153404 -0.53405082
79.169281 76.487495 0
91.605888 86.725433 0.99861199
87.14566 83.100693 -0.83810252
79.069878 76.436249 0
91.670593 86.834839 1.0019498
87.194633 83.188271 -0.84071475
89.622009 85.196373 0
92.067413 87.219376 1.0173337
87.20343 83.242821 -0.84187585
78.983696 76.426117 0
90.031311 85.588005 0.94447792
87.188171 83.277496 -0.84216642
78.944649 76.424248 0
92.48674 87.682472 1.0346043
87.176819 83.315475 -0.84260142
78.821678 76.352333 0
92.470085 87.72686 1.0350399
87.197342 83.380119 -0.84419811
89.611145 85.396721 0
92.425446 87.74791 1.0344594
87.134071 83.374771 -0.84274697
89.609207 85.447693 0
92.348923 87.742203 1.0327177
80.050201 77.475067 -0.58528268
64 64 0
92.264496 87.72966 1.030686
79.994324 77.444633 -0.58354098
64 64 0
92.222305 87.723328 1.0296699
79.934357 77.427124 -0.58194488
89.556244 85.535019 0
92.26516 87.817688 1.0322827
79.799019 77.345749 -0.57759041
89.526237 85.562531 0
92.49836 88.073143 1.0418611
79.600464 77.210365 -0.57091486
79.89991 77.463936 0
92.552536 88.178085 1.0449089
64 64 -0
64 64 0
92.551033 88.236115 1.045925
64 64 -0
64 64 0
92.553391 88.297539 1.0470861
64 64 -0
79.874756 77.54174 0
92.563545 88.365738 1.0485373
79.323158 77.103233 -0.56307757
79.866302 77.567688 0
92.530136 88.396866 1.0483922
79.295471 77.111588 -0.56264204
79.822227 77.563133 0
98.004501 93.149345 1.2508513
79.283554 77.133446 -0.562787
79.805832 77.582237 0
97.969254 93.190414 1.2508513
79.255875 77.141739 -0.562352
79.789406 77.601326 0
97.910332 93.211075 1.2499802
79.232109 77.153358 -0.56206149
79.772957 77.620399 0
97.843559 93.224869 1.2488196
79.172997 77.134354 -0.56046534
79.721077 77.608788 0
97.757126 93.221512 1.2469324
79.094315 77.098175 -0.55814314
79.567039 77.508385 0
90.853203 87.302017 0.99295199
78.796181 76.870842 -0.54769361
79.287598 77.298317 0
97.69426 93.309837 1.2472229
78.647446 76.772591 -0.54275918
79.185219 77.241531 0
97.619659 93.316376 1.2457719
78.596794 76.759499 -0.54145306
79.122185 77.218758 0
97.548988 93.326187 1.2444651
64 64 -0
78.581367 76.77713 -0.54145306
79.078796 77.213005 0
97.482277 93.339317 1.2433046
64 64 -0
78.558098 76.787872 -0.54116249
79.082367 77.24839 0
92.097931 88.681297 1.0444733
64 64 -0
78.542641 76.80545 -0.54116249
78.980415 77.190933 0
92.036903 88.687767 1.0433128
78.527153 76.823013 -0.54116249
78.929352 77.178032 0
91.960297 88.680359 1.041571
78.534981 76.845558 -0.54174304
78.901886 77.169815 0
91.925919 88.680038 1.0408455
78.527222 76.869995 -0.54203308
78.870377 77.174004 0
91.837723 88.662064 1.0386683
78.51944 76.894447 -0.54232359
78.834991 77.174683 0
91.737961 88.633575 1.036056
78.531021 76.936172 -0.54333973
78.803513 77.178757 0
91.669357 88.632515 1.0346043
78.538635 76.97448 -0.54421031
78.744858 77.158508 0
91.585297 88.617493 1.0325727
78.546181 77.012817 -0.54508084
78.597061 77.058334 0
91.39286 88.50528 1.0264771
78.600098 77.092842 -0.54769361
78.515396 77.016891 0
90.887367 88.111626 1.008626
78.661552 77.179947 -0.55059588
78.472557 77.010056 0
90.823433 88.112831 1.0073198
78.661057 77.211571 -0.55117643
78.445236 77.01709 0
91.342468 88.639214 1.0279288
78.648949 77.232773 -0.55132198
78.421768 77.02755 0
91.389786 88.741898 1.030831
78.586723 77.208603 -0.54958034
78.402161 77.041473 0
89.279785 86.891411 0.95246017
78.589989 77.243683 -0.55030584
78.397957 77.069366 0
89.163605 86.841599 0.94912183
78.566284 77.254295 -0.55001533
78.378311 77.083252 0
91.772682 89.271194 1.0486822
78.557945 77.2789 -0.55030584
78.377861 77.114639 0
91.884186 89.434311 1.0540522
78.487503 77.278931 -0.54885477
78.357635 77.159897 0
91.769012 89.452469 1.0520205
78.50589 77.328072 -0.55016088
78.341728 77.177238 0
91.742065 89.489517 1.0521655
64 64 -0
78.32962 77.198082 0
91.722717 89.533585 1.0526011
64 64 -0
78.332794 77.233047 0
91.703285 89.577629 1.0530361
64 64 -0
78.385544 77.313988 0
91.699059 89.635803 1.0540522
64 64 -0
78.487724 77.441093 0
95.755768 93.461655 1.2097789
64 64 -0
78.574387 77.554298 0
95.655457 93.439835 1.2073117
78.382767 77.392303 -0.54885477
78.627129 77.619843 0
95.546387 93.373962 1.2038283
78.488129 77.523132 -0.55349869
78.614479 77.641068 0
90.287376 88.536476 1.004272
78.369331 77.444778 -0.54958034
78.61319 77.672943 0
90.250122 88.561127 1.0039821
78.284851 77.39814 -0.5469681
78.596657 77.69059 0
90.167358 88.543045 1.0019498
78.3368 77.479462 -0.54958034
89.189919 87.683563 0
95.665291 93.771713 1.2138429
78.346962 77.521713 -0.55059588
89.149933 87.703285 0
95.636856 93.81707 1.2141328
78.300407 77.510498 -0.54943532
89.151535 87.762253 0
95.566803 93.823158 1.2128267
78.314247 77.556343 -0.55059588
89.130356 87.799774 0
89.829582 88.461975 0.993532
78.309166 77.584366 -0.55103141
89.116684 87.84446 0
90.007294 88.689949 1.0015142
78.330399 77.637482 -0.55248308
89.106705 87.892723 0
90.169434 88.904076 1.0089165
78.313904 77.654785 -0.55248308
89.130531 87.973335 0
90.270927 89.061218 1.013996
64 64 -0
89.094032 87.996498 0
90.372078 89.218643 1.0190754
64 64 -0
89.095078 88.055618 0
90.409103 89.315216 1.0216876
64 64 -0
89.077255 88.096741 0
90.299805 89.271492 1.0186398
64 64 -0
89.07061 88.148682 0
90.052185 89.09417 1.0102226
64 64 -0
89.067627 88.204269 0
89.924652 89.031784 1.0064492
78.236938 77.779877 -0.55335367
89.057053 88.25264 0
89.916779 89.084763 1.0073198
78.242645 77.818779 -0.55422419
89.027733 88.282898 0
89.94986 89.177582 1.0097871
78.199867 77.810623 -0.55320865
89.020752 88.334885 0
89.870987 89.161819 1.0079004
78.09758 77.744331 -0.54987031
89.017426 88.390541 0
89.72522 89.080605 1.0034015
78.207329 77.884842 -0.5548048
88.999107 88.431671 0
89.635437 89.053551 1.0010792
78.143227 77.838921 -0.5526281
89.014099 88.475891 0
89.57943 89.029053 0.99948257
78.293434 78.019737 -0.55915868
89.003082 88.524323 0
89.49353 89.005371 0.99730587
78.269081 78.029716 -0.55886871
88.995697 88.576401 0
89.400299 88.974213 0.99483865
78.170692 77.966698 -0.55567586
88.980812 88.621201 0
89.355301 88.990295 0.99425811
78.161194 77.991112 -0.5559659
88.951042 88.651367 0
89.350952 89.046471 0.99527365
78.203362 78.066727 -0.5582881
88.932335 88.69249 0
89.412979 89.168503 0.99890202
78.1716 78.069229 -0.55770755
88.872932 88.69326 0
89.578011 89.39325 1.0065943
78.202477 78.133995 -0.55959421
88.857834 88.737984 0
89.801468 89.677063 1.0166082
78.163315 78.129128 -0.55872369
88.827927 88.767998 0
89.855042 89.792641 1.0199466
78.304237 78.304237 -0.56496423
88.805336 88.805336 0
89.805481 89.805481 1.0192205
78.286942 78.32151 -0.56496423
88.790047 88.850029 0
89.565086 89.626938 1.0109482
78.240303 78.309296 -0.56380314
88.778358 88.898407 0
89.497437 89.620972 1.0094965
78.314529 78.418686 -0.56743151
88.792259 88.972656 0
89.52504 89.71077 1.0118188
86.528488 86.747314 -0.89412332
88.76207 89.002594 0
89.589035 89.837585 1.0155921
86.51194 86.785614 -0.89455885
88.761108 89.062119 0
89.532234 89.842621 1.0145766
86.495346 86.823906 -0.89499444
88.745422 89.106842 0
89.500992 89.873459 1.0145766
86.489601 86.873291 -0.89586496
88.744255 89.16642 0
89.509781 89.945 1.0161726
86.465584 86.90416 -0.89600998
88.732048 89.214874 0
89.496613 89.99437 1.0168988
86.463333 86.957291 -0.89702606
88.712494 89.255905 0
89.490616 90.051147 1.0179143
86.457352 87.006729 -0.89789665
88.714676 89.319267 0
89.437347 90.059624 1.0170437
86.440414 87.045013 -0.89833218
88.709488 89.375214 0
89.456596 90.142456 1.0190754
86.419807 87.079575 -0.89862275
88.740456 89.468521 0
89.417755 90.165749 1.0187855
86.420334 87.10804 -0.8992033
88.779419 89.53949 0
89.456207 90.237038 1.0209621
86.410461 87.153778 -0.89992887
88.777504 89.599327 0
89.410034 90.252838 1.0203816
86.400513 87.199532 -0.90065444
88.764626 89.647964 0
89.403564 90.3097 1.0213976
86.379669 87.234055 -0.90094441
88.762505 89.707863 0
89.36454 90.332878 1.0211071
86.376793 87.287315 -0.90196055
88.756676 89.764038 0
89.339912 90.37101 1.0213976
86.377403 87.344353 -0.90312165
88.75074 89.820236 0
89.3368 90.431625 1.0225588
86.367142 87.390152 -0.90384722
88.730309 89.861404 0
89.297653 90.454697 1.0222682
86.346039 87.424683 -0.90413779
88.716995 89.910095 0
89.287201 90.507812 1.0231394
86.317719 87.451675 -0.90413779
88.714378 89.970108 0
89.312469 90.598587 1.0254616
86.30368 87.493698 -0.90471834
88.704491 90.022606 0
89.258842 90.606529 1.0245905
86.289566 87.535721 -0.90529889
88.683754 90.063766 0
89.123047 90.527611 1.0203816
86.286087 87.589066 -0.90631443
88.68084 90.12384 0
89.101685 90.569283 1.020817
86.293221 87.653809 -0.9077661
88.649261 90.153641 0
89.126587 90.660103 1.0231394
86.253769 87.726562 -0.90849167
88.64296 90.273872 0
89.069199 90.728317 1.0234293
86.253487 87.783791 -0.90965283
88.628967 90.322632 0
88.930367 90.64476 1.0190754
86.231812 87.818253 -0.90994281
88.622009 90.379013 0
89.011627 90.796432 1.0237199
86.188858 87.829887 -0.90936226
88.62558 90.446823 0
89.018181 90.868462 1.025316
86.195404 87.894745 -0.91081333
88.611313 90.495628 0
88.911423 90.81871 1.0222682
86.166519 87.921555 -0.91081333
88.600517 90.548264 0
88.864868 90.833542 1.0216876
86.190514 88.005562 -0.91299057
88.58255 90.593254 0
88.800682 90.829231 1.0203816
86.168549 88.040009 -0.91328114
88.553925 90.626762 0
88.747116 90.836258 1.019511
86.185699 88.087799 -0.91458726
88.57309 90.679871 0
88.685135 90.801514 1.0176243
86.167114 88.126053 -0.91502225
88.576057 90.747879 0
88.663269 90.842796 1.0180593
86.159027 88.175812 -0.91589338
88.568329 90.804398 0
88.732651 90.983673 1.0222682
86.150833 88.225578 -0.91676396
88.542953 90.841759 0
88.808739 91.132439 1.0267676
86.128555 88.26001 -0.91705447
88.549088 90.913696 0
88.803955 91.193108 1.0279288
86.123695 88.313629 -0.91807008
88.537567 90.966431 0
88.774574 91.226898 1.0280738
86.118759 88.367279 -0.91908616
88.525948 91.01918 0
88.748634 91.264503 1.0283638
86.103249 88.409401 -0.91966671
88.507256 91.064224 0
88.611031 91.178833 1.0240098
86.101608 88.466942 -0.92082787
88.505936 91.128578 0
88.689651 91.331955 1.0286543
86.085953 88.509071 -0.92140841
88.494049 91.181374 0
88.705307 91.41581 1.030686
86.080627 88.562782 -0.92242396
88.489029 91.24192 0
88.658264 91.430176 1.0301055
86.082169 88.624275 -0.92373061
88.466507 91.283104 0
88.63205 91.467697 1.030396
86.062782 88.662552 -0.92416561
88.464767 91.347572 0
88.543404 91.435471 1.0280738
86.053734 88.712463 -0.92503673
88.459427 91.40818 0
88.472168 91.422455 1.0264771
86.04113 88.758499 -0.9257623
88.436668 91.449364 0
97.139702 101.22536 1.3919196
86.02845 88.804535 -0.92648786
88.424225 91.502228 0
91.91864 95.437019 1.1742215
86.001907 88.835022 -0.92663288
88.422043 91.56678 0
91.85997 95.447403 1.173351
86.002853 88.896629 -0.927939
88.39904 91.607964 0
91.801292 95.457672 1.1724799
85.996811 88.950493 -0.92895508
88.379433 91.653038 0
91.777008 95.506836 1.1730604
85.976952 88.988762 -0.92939067
88.38382 91.725471 0
96.955383 101.47173 1.3936613
85.99472 89.069977 -0.93142235
88.374329 91.78231 0
88.458687 91.878464 1.0357655
85.996689 89.102806 -0.93214786
88.381546 91.824417 0
88.417877 91.865883 1.0347499
85.997116 89.164574 -0.93345398
88.368469 91.87738 0
88.462845 91.985352 1.0380877
86.017929 89.249893 -0.93563122
88.341599 91.914642 0
88.401688 91.983551 1.0369266
86.065842 89.366653 -0.93896902
88.342018 91.983315 0
91.543137 95.663284 1.1720444
86.127144 89.499275 -0.9428879
88.3423 92.05201 0
99.140831 104.49622 1.4974306
86.16774 89.608505 -0.94593573
88.30838 92.081406 0
99.088463 104.53471 1.497285
86.177544 89.682472 -0.94767737
88.308449 92.150146 0
98.957954 104.4827 1.4938022
86.163452 89.728935 -0.94840294
88.298195 92.207108 0
98.959885 104.58395 1.495979
86.145889 89.771461 -0.94898349
88.277664 92.252235 0
96.407936 101.71353 1.3887268
86.12149 89.806084 -0.94927353
88.267227 92.309212 0
96.338661 101.72504 1.3877107
86.117317 89.864395 -0.95043463
88.263443 92.374115 0
96.22213 101.68115 1.384663
86.106277 89.91481 -0.95130521
88.249405 92.427162 0
96.163086 101.70424 1.3840823
86.085052 89.953384 -0.95174074
88.248764 92.496078 0
96.124237 101.75098 1.3843724
86.090683 90.023636 -0.95333743
88.231163 92.545212 0
96.048332 101.75412 1.3830663
86.089439 90.085999 -0.95464355
88.226929 92.610214 0
96.006058 101.79679 1.3832119
86.091431 90.152359 -0.95609462
88.202415 92.651398 0
95.983826 101.86322 1.3842274
86.083267 90.206863 -0.95711076
88.201317 92.720413 0
98.399284 104.82265 1.4908994
86.074989 90.261375 -0.9581269
88.173286 92.757599 0
95.982529 102.04781 1.3881463
86.063271 90.311913 -0.95899743
88.185349 92.842628 0
98.217056 104.80611 1.4872711
86.06147 90.374428 -0.96030354
88.167175 92.891792 0
95.787117 102.00141 1.3836468
86.066216 90.444962 -0.96190023
88.165588 92.96093 0
98.115021 104.88469 1.4871261
86.036926 90.442322 -0.96131968
88.168083 92.999519 0
98.11026 104.92924 1.4879967
86.01825 90.484909 -0.96190023
88.152985 93.052704 0
97.974411 104.86653 1.4842234
86.006126 90.535492 -0.96277076
88.147766 93.117928 0
97.951553 104.93955 1.4853845
85.987297 90.578079 -0.96335137
88.135788 93.175156 0
97.872246 104.94451 1.4840783
85.965096 90.616653 -0.9637869
88.11377 93.22036 0
95.375107 102.01944 1.3766807
85.926308 90.635147 -0.96349633
88.118141 93.297699 0
95.302727 102.02522 1.3755195
85.890808 90.657608 -0.96335137
88.102539 93.350945 0
95.236977 102.03893 1.374649
85.865173 90.692085 -0.96364188
88.080254 93.396156 0
95.184395 102.0686 1.3743584
85.839478 90.726524 -0.96393192
88.064468 93.449402 0
95.115356 102.07807 1.3733423
85.794037 90.736786 -0.96335137
88.058472 93.514786 0
95.020081 102.05524 1.3711656
85.76828 90.771172 -0.96364188
88.035919 93.559967 0
94.905228 102.00801 1.3681178
85.768646 90.837807 -0.96509302
88.036255 93.633461 0
94.829819 102.009 1.3668118
85.736198 90.86409 -0.96509302
88.026619 93.694855 0
94.826355 102.09875 1.3686985
85.703804 90.957008 -0.96654415
88.003754 93.813644 0
94.665764 102.08813 1.3656507
85.69725 91.015633 -0.96770525
87.990524 93.871025 0
94.652252 102.16566 1.3671018
85.677582 91.058052 -0.9682858
87.993462 93.948738 0
89.758377 96.151703 1.1505648
85.657852 91.100464 -0.96886635
87.95726 93.977707 0
89.700043 96.158455 1.1496942
85.654243 91.163177 -0.97017246
87.956711 94.051407 0
89.696808 96.234192 1.1512909
85.637573 91.209663 -0.97089803
87.933342 94.096626 0
89.657837 96.265213 1.1512909
85.630524 91.268356 -0.97205913
87.922821 94.158127 0
89.638206 96.320618 1.1521615
85.636635 91.309937 -0.97307527
87.907837 94.176666 0
94.26564 102.20154 1.3611517
85.603622 91.33606 -0.97307527
78.160851 81.918381 0
89.470032 96.228409 1.147227
85.58345 91.378471 -0.97365582
78.135971 81.931396 0
89.424637 96.250992 1.1469364
85.55677 91.412697 -0.9739458
78.117508 81.952545 0
89.38887 96.285782 1.147082
78.159599 82.050919 -0.64072287
78.108658 81.985977 0
89.353043 96.320526 1.147227
78.128181 82.055748 -0.64028788
78.090118 82.007103 0
89.297958 96.330673 1.1465014
64 64 -0
78.071548 82.028214 0
89.249283 96.348923 1.146066
64 64 -0
78.014587 82.000038 0
89.194214 96.358917 1.1453403
64 64 -0
77.951324 81.963524 0
89.142349 96.37291 1.1447598
77.907074 81.951279 -0.63419229
77.894547 81.935104 0
89.090485 96.386841 1.1441792
77.853592 81.926941 -0.63274062
77.847404 81.91893 0
89.041794 96.404785 1.1437436
77.812889 81.918976 -0.63187009
77.825737 81.935654 0
88.996277 96.426804 1.1434537
77.778557 81.919174 -0.63128948
77.81041 81.960602 0
88.934906 96.428131 1.1424376
77.769547 81.952309 -0.63187009
77.782356 81.969009 0
88.898865 96.462357 1.1425825
77.738373 81.956543 -0.6314345
77.779617 82.01046 0
88.840675 96.467667 1.141712
77.722977 81.9814 -0.63172507
77.751526 82.018814 0
88.807724 96.505913 1.142002
77.729568 82.035187 -0.63303119
77.732895 82.039551 0
88.755844 96.519325 1.1414214
77.710899 82.055893 -0.63317621
77.704796 82.047852 0
88.754242 96.598877 1.1431631
77.71418 82.105591 -0.63433731
77.67984 82.060257 0
88.802696 96.744759 1.147227
77.714226 82.151176 -0.63535345
77.651726 82.068451 0
88.822632 96.85347 1.1499842
77.751701 82.246574 -0.63811064
77.623619 82.07663 0
64 64 0
77.757751 82.30056 -0.63941675
77.611153 82.105568 0
64 64 0
77.76368 82.354584 -0.64072287
77.604881 82.142815 0
87.846024 95.799911 1.110073
77.758827 82.371231 -0.64101344
77.625107 82.192688 0
87.748924 95.710327 1.1064446
77.699295 82.337875 -0.63927174
77.643616 82.263336 0
87.794571 95.851418 1.1103636
77.661606 82.333588 -0.63854623
78.336823 83.239716 0
64 64 0
77.636345 82.345917 -0.63840121
78.412918 83.390686 0
64 64 0
77.657494 82.420815 -0.64043289
78.377075 83.391357 0
92.791901 102.83363 1.3501217
78.30574 83.343964 -0.67192632
78.369102 83.429642 0
92.72641 102.84332 1.3492506
78.344055 83.444878 -0.67482913
78.361076 83.467941 0
92.734978 102.95328 1.3518628
78.314384 83.453812 -0.67453855
78.346786 83.497849 0
92.795692 103.13448 1.3569428
78.306252 83.492058 -0.67526466
78.329384 83.523567 0
92.797585 103.23627 1.3592651
78.291893 83.521896 -0.67569965
78.302696 83.536652 0
92.817688 103.36328 1.3624579
78.28669 83.564339 -0.67657077
78.288292 83.566536 0
92.911079 103.59113 1.3691339
78.263039 83.581589 -0.67657077
78.273834 83.596413 0
92.964172 103.76463 1.3739229
78.279076 83.653458 -0.6784575
78.259331 83.626282 0
93.023026 103.94676 1.3790029
78.288857 83.71698 -0.68005359
64 64 0
93.118057 104.17957 1.3858241
78.261978 83.730019 -0.67990857
78.205757 83.652237 0
93.136459 104.30737 1.3890169
78.194176 83.686279 0
93.133324 104.40578 1.3911941
78.173416 83.707642 0
93.090546 104.44939 1.391484
78.152634 83.728989 0
93.044678 104.48872 1.3916291
78.143921 83.767235 0
92.995728 104.52379 1.3916291
78.09584 83.75042 0
92.916565 104.51651 1.390178
87.413971 96.890518 0
92.85553 104.53448 1.3895974
87.460442 96.997971 0
92.837051 104.56037 1.3898875
87.495819 97.132439 0
64 64 0
87.500847 97.224533 0
92.723946 104.60873 1.3891618
87.502701 97.312454 0
92.680855 104.65191 1.3894523
87.495377 97.387642 0
92.625725 104.67802 1.3891618
87.46698 97.433044 0
92.558647 104.68707 1.3882912
87.459404 97.508286 0
92.49456 104.70027 1.3875657
87.442734 97.570747 0
92.442375 104.73039 1.3874202
87.425957 97.633217 0
92.384239 104.75195 1.3869852
87.426865 97.721336 0
92.337944 104.79048 1.3871301
87.436501 97.822342 0
92.267914 104.79478 1.386114
87.48735 97.98336 0
92.218597 104.82892 1.386114
87.570297 98.280205 0
92.096298 104.86273 1.3849529
87.555351 98.34729 0
92.043961 104.89236 1.3848079
87.563789 98.448761 0
91.982796 104.90907 1.3842274
87.542671 98.507294 0
91.92749 104.93427 1.3839374
87.530243 98.578751 0
91.863396 104.9465 1.3832119
87.511833 98.641609 0
91.813896 104.98015 1.3832119
87.502045 98.717392 0
91.746872 104.98789 1.3823407
87.480469 98.77597 0
91.694427 105.01709 1.3821957
87.503105 98.854889 0
91.672546 105.03812 1.3823407
87.487114 98.922119 0
91.605537 105.04565 1.3814701
87.470993 98.98938 0
91.544342 105.06172 1.3808895
87.45475 99.056641 0
91.494705 105.09497 1.3808895
87.441254 99.128242 0
91.44503 105.12816 1.3808895
87.436279 99.212868 0
91.38092 105.13966 1.380164
87.431137 99.297531 0
91.322571 105.15973 1.3797284
87.420082 99.373566 0
91.246994 105.15372 1.3784224
87.391663 99.423546 0
91.19725 105.18661 1.3784224
87.386055 99.508293 0
91.133179 105.19775 1.3776968
87.368851 99.575668 0
91.077667 105.2218 1.3774062
87.354378 99.64743 0
91.019287 105.24145 1.3769706
87.336906 99.714828 0
90.966599 105.26971 1.3768257
87.322151 99.786606 0
90.902527 105.2805 1.3761001
82.37645 92.272324 -0.9417268
87.310097 99.86277 0
90.8498 105.30862 1.3759551
82.333794 92.281418 -0.94129127
87.30072 99.943314 0
90.785736 105.31924 1.3752296
82.279854 92.272995 -0.94027513
87.288353 100.01952 0
90.735786 105.35158 1.3752296
82.217522 92.251396 -0.938824
87.273026 100.09138 0
90.680161 105.37511 1.374939
82.183372 92.273392 -0.938824
87.271622 100.18513 0
90.616096 105.38547 1.3742135
82.109917 92.234108 -0.93679237
87.241928 100.23512 0
90.560455 105.40884 1.3739229
82.08165 92.227539 -0.93621176
87.253723 100.30176 0
90.535431 105.42488 1.3739229
82.041924 92.240601 -0.93592125
87.237869 100.3737 0
90.474167 105.43939 1.3733423
81.985458 92.227333 -0.93476069
87.219078 100.44125 0
90.418495 105.46259 1.3730524
81.97084 92.279732 -0.93577623
87.208527 100.522 0
90.365593 105.4901 1.3729073
81.931099 92.292656 -0.93548626
87.189453 100.58958 0
90.309875 105.51314 1.3726168
81.896896 92.314301 -0.93548626
87.167473 100.65277 0
90.248589 105.52733 1.3720362
81.854355 92.322708 -0.93505067
87.167572 100.75117 0
90.198387 105.55902 1.3720362
81.836716 92.370651 -0.93592125
87.123146 100.77913 0
90.139862 105.57745 1.3716012
81.810699 92.405396 -0.93635678
87.117401 100.86879 0
90.084084 105.6002 1.3713107
81.798409 92.462151 -0.93751788
87.097672 100.93642 0
90.031044 105.62728 1.3711656
81.766754 92.488037 -0.9376629
87.077812 101.00404 0
89.96698 105.63666 1.3704401
81.757019 92.549202 -0.93896902
87.071564 101.09377 0
89.911156 105.65917 1.3701495
81.725258 92.575066 -0.93911457
87.059654 101.1747 0
89.855324 105.68163 1.3698596
81.701653 92.614136 -0.93969512
87.053047 101.2645 0
89.791275 105.69074 1.3691339
81.69162 92.675308 -0.94100124
87.018936 101.31004 0
89.740875 105.72188 1.3691339
81.667854 92.714371 -0.94158179
87.006569 101.39102 0
89.684998 105.74409 1.3688434
81.66848 92.793274 -0.94346851
87.002213 101.48534 0
89.629105 105.76624 1.3685534
81.65538 92.850067 -0.94462961
86.978638 101.54863 0
89.575905 105.79274 1.3684078
81.636742 92.89798 -0.94550014
86.97934 101.65189 0
89.519974 105.81474 1.3681178
81.634232 92.972542 -0.94724184
86.958183 101.71964 0
89.461327 105.83223 1.3676823
81.607307 93.007164 -0.94767737
86.953094 101.81409 0
89.399971 105.84519 1.3671018
81.61132 93.053329 -0.94883794
86.954536 101.86801 0
89.377388 105.86499 1.3672473
81.58696 93.092377 -0.94941849
86.932999 101.93581 0
89.310646 105.86893 1.3663762
79.99295 90.527924 -0.86509705
86.916695 102.01251 0
89.254677 105.89059 1.3660862
79.966232 90.556122 -0.86538708
86.900253 102.08925 0
89.204041 105.92107 1.3660862
79.931465 90.570946 -0.86524206
86.875626 102.1526 0
89.148026 105.94257 1.3657956
79.886017 90.567879 -0.8645165
86.832176 102.18468 0
89.089325 105.95954 1.36536
79.85656 90.591507 -0.86466151
86.831337 102.28824 0
89.033279 105.98091 1.3650701
79.803169 90.574921 -0.86350042
86.830276 102.39185 0
88.974571 105.99773 1.3646345
79.771049 90.593994 -0.86350042
86.773254 102.40149 0
88.902596 105.99211 1.3634734
79.72039 90.581726 -0.86248487
86.697693 102.3797 0
88.791 105.9193 1.3601356
79.669777 90.569366 -0.86146873
86.74913 102.57297 0
88.629456 105.76122 1.35404
79.613953 90.547974 -0.86016262
86.720978 102.63184 0
88.492035 105.64313 1.3492506
79.492477 90.414413 -0.85522813
86.745377 102.78048 0
88.402275 105.60547 1.3470739
79.455292 90.424133 -0.85493761
86.714272 102.8349 0
88.317879 105.57661 1.3451872
79.341759 90.376068 -0.85218036
86.701477 103.02914 0
88.191193 105.59032 1.3437356
79.291618 90.363113 -0.85116422
86.690857 103.11957 0
88.127892 105.59705 1.3430099
79.246742 90.359077 -0.85043871
86.638367 103.13795 0
88.054199 105.58569 1.3417039
79.186317 90.327957 -0.84884202
86.671669 103.30504 0
87.975365 105.5652 1.3401072
79.216682 90.454407 -0.85232538
86.644928 103.3685 0
87.904388 105.55811 1.3389461
79.141174 90.359962 -0.84898758
86.670395 103.46793 0
87.874107 105.56353 1.3386561
79.119644 90.396271 -0.84956813
86.638206 103.52238 0
87.818695 105.58332 1.3383656
79.074844 90.391953 -0.84884202
86.590439 103.54971 0
87.789055 105.64817 1.3395267
79.050659 90.423691 -0.84927756
86.529755 103.55437 0
87.779869 105.74914 1.3418489
79.003326 90.414757 -0.84840703
86.453659 103.53177 0
87.737106 105.7914 1.3422844
78.948349 90.392174 -0.84710091
86.400757 103.54982 0
87.67379 105.79745 1.3415589
78.890884 90.36496 -0.84564924
86.342712 103.55873 0
87.615601 105.81244 1.3411233
78.856468 90.378403 -0.84550422
86.28978 103.57663 0
87.567612 105.84547 1.3412683
78.814407 90.378212 -0.84492368
86.300568 103.70792 0
87.547569 105.92829 1.3430099
78.779984 90.391563 -0.84477866
86.237305 103.70757 0
87.590843 106.12448 1.34838
78.74556 90.404869 -0.84463364
86.308578 103.94798 0
87.638733 106.3299 1.35404
78.70858 90.413582 -0.84434313
86.293228 104.03404 0
87.625504 106.42654 1.3562173
78.656471 90.394989 -0.84318197
86.252411 104.07458 0
87.60701 106.51411 1.358104
78.632118 90.426315 -0.84361756
86.249344 104.1834 0
87.590866 106.60625 1.3601356
78.595161 90.434891 -0.84332752
86.238518 104.27861 0
87.577042 106.70297 1.3623128
78.568214 90.461601 -0.84361756
86.212418 104.34648 0
87.558014 106.7906 1.3641995
78.548729 90.501961 -0.84434313
86.21125 104.45999 0
87.531296 106.86459 1.3656507
78.506714 90.501282 -0.84376258
86.16983 104.50049 0
87.519409 106.96593 1.3679729
78.489632 90.546173 -0.84463364
86.133354 104.55009 0
87.497353 107.04906 1.3697145
78.467484 90.581924 -0.84521425
86.121658 104.64538 0
87.485062 107.15043 1.3720362
78.440308 90.608505 -0.84550422
86.084946 104.69495 0
87.455215 107.21988 1.3733423
78.422974 90.653351 -0.84637475
86.122459 104.88183 0
87.449966 107.33504 1.3761001
78.395699 90.679916 -0.84666532
86.080452 104.92226 0
87.459282 107.47768 1.3797284
78.375763 90.720169 -0.84739089
86.07785 105.036 0
87.483047 107.64785 1.3842274
78.369453 90.747162 -0.84797144
86.077682 105.09518 0
87.535385 107.80853 1.3888718
78.349396 90.787407 -0.84869701
79.847015 93.58316 0
87.531509 107.92855 1.3917747
78.326813 90.823059 -0.84927756
79.872559 93.717056 0
87.505341 108.00737 1.3933707
78.311493 90.872467 -0.8502937
78.319778 90.888031 0
87.501007 108.12747 1.3962735
78.288757 90.908096 -0.85087425
78.299484 90.928299 0
87.481781 108.22009 1.3983052
78.275688 90.962082 -0.85203534
64 64 0
87.464813 108.31732 1.4004824
78.269783 91.029854 -0.8536315
64 64 0
87.437927 108.39619 1.4020785
78.496117 91.539124 -0.86916095
78.206619 90.989159 0
87.413315 108.47966 1.4038203
78.668106 91.947739 -0.88149714
78.1474 90.95562 0
87.390953 108.56773 1.4057069
78.634323 91.965439 -0.88149714
78.112396 90.968071 0
87.361183 108.64201 1.4071586
78.598114 91.978485 -0.88135159
78.043694 90.915894 0
87.33606 108.72548 1.4088997
78.537918 91.945404 -0.87975544
77.996742 90.905128 0
87.294006 108.77672 1.4096258
78.49218 91.93988 -0.87902993
77.964226 90.922028 0
87.261414 108.84634 1.4109319
78.472733 91.985062 -0.87990046
77.93647 90.948135 0
87.226311 108.91135 1.412093
78.441284 92.007141 -0.88004547
77.92775 91.011208 0
87.193459 108.98094 1.4133991
78.393181 91.996849 -0.87917489
79.72271 94.582977 0
87.158096 109.04591 1.4145603
78.354591 92.004967 -0.87888438
79.707108 94.643639 0
87.12735 109.1201 1.4160113
78.306564 91.99453 -0.87801379
79.667702 94.657967 0
87.096466 109.19427 1.4174625
78.27272 92.011795 -0.87801379
64 64 0
87.067795 109.27309 1.4190592
