# .PCD v0.7 - Point Cloud Data file format
VERSION 0.7
FIELDS x y z
SIZE 4 4 4
TYPE F F F
COUNT 1 1 1
WIDTH 1578
HEIGHT 1
VIEWPOINT 0 0 0 1 0 0 0
POINTS 1578
DATA ascii
70.74826 69.971161 -0.75111091
72.460365 71.486107 -0.62958187
76.483093 75.045601 -0.4655143
81.075821 79.109451 0
81.958694 79.890663 0.66970837
68.19455 67.720573 -0.92437893
68.766098 68.227539 -0.87884998
69.599075 68.966385 -0.82899684
70.767914 70.003151 -0.75410545
72.474525 71.516914 -0.63131112
76.4814 75.071022 -0.46594986
81.096481 79.164604 0
81.927834 79.902016 0.66927338
68.156799 67.696068 -0.9170419
68.760986 68.233292 -0.87884998
69.577881 68.959641 -0.82674527
70.726128 69.980621 -0.75025415
72.453835 71.51683 -0.63044596
76.464134 75.082649 -0.46580485
81.070374 79.178345 0
81.924141 79.937477 0.66985393
68.167091 67.714249 -0.92030174
68.778351 68.259079 -0.88300425
69.564301 68.959625 -0.82562059
70.764885 70.029739 -0.75538981
72.452477 71.533936 -0.63102305
76.450737 75.097702 -0.46580485
81.067566 79.212814 0
81.912621 79.966034 0.67014396
68.17366 67.729164 -0.92274743
68.758232 68.25148 -0.88023561
69.569664 68.976486 -0.82730764
70.753769 70.034492 -0.75496221
72.47036 71.56826 -0.63304031
76.456688 75.130043 -0.46653041
81.091858 79.271561 0
81.912689 80.004974 0.67086953
68.139694 67.707817 -0.9162277
68.745613 68.250526 -0.87884998
69.563644 68.983215 -0.82730764
70.715881 70.015244 -0.75153852
72.434242 71.554337 -0.63102305
76.439362 75.141624 -0.46638542
81.061768 79.281792 0
81.904953 80.037018 0.67130506
68.179344 67.752449 -0.92600727
68.73674 68.252907 -0.87815845
69.587868 69.017097 -0.83181071
70.723885 70.037071 -0.75325036
72.467438 71.602531 -0.63419348
76.449089 75.177475 -0.46725598
81.066521 79.323257 0
81.901031 80.072525 0.67188561
68.149086 67.734344 -0.92030174
68.776352 68.298904 -0.88646442
69.559151 69.003448 -0.82843447
70.686058 70.017715 -0.74982661
72.435181 71.591995 -0.63246429
76.45488 75.209885 -0.46798152
81.040268 79.336906 0
81.889313 80.101089 0.67217565
68.133575 67.729431 -0.9178592
68.752533 68.287872 -0.88300425
69.560638 69.016968 -0.82955915
70.709282 70.053307 -0.75325036
72.410645 71.588326 -0.63131112
76.437477 75.221451 -0.46783653
81.056496 79.388863 0
81.873718 80.126183 0.6723212
68.151054 67.754311 -0.92274743
68.747345 68.29361 -0.88300425
69.569649 69.037315 -0.83181071
70.713371 70.071732 -0.75453305
72.435989 71.629707 -0.63390547
76.435471 75.246933 -0.46827209
81.05719 79.426918 0
81.85807 80.151253 0.67246616
68.142853 67.756004 -0.92193323
68.771896 68.326309 -0.88854158
69.55603 69.037224 -0.83068603
70.702232 70.076393 -0.75410545
72.430595 71.643364 -0.63419348
76.433426 75.272423 -0.46870765
81.069382 79.475487 0
81.865494 80.197258 0.6734823
68.152946 67.774307 -0.92519313
68.740669 68.308441 -0.88369578
69.546173 69.040504 -0.83012152
70.71769 70.105209 -0.75667411
72.409882 71.64312 -0.63332939
76.439026 75.304909 -0.46943322
81.17778 79.611618 0
81.857437 80.229309 0.67391729
68.148384 67.77932 -0.92519313
68.742882 68.32093 -0.88508141
69.558868 69.064323 -0.83293754
70.698914 70.102951 -0.75538981
72.423576 71.674171 -0.63505864
76.433029 75.326927 -0.46972319
81.243546 79.709473 0
81.841652 80.254372 0.67406231
68.153824 67.802689 -0.92845297
68.70652 68.308662 -0.88023561
69.542854 69.074303 -0.83237302
70.687935 70.122581 -0.75581735
72.401192 71.691017 -0.63477063
76.386459 75.339401 -0.46899766
81.412842 79.94088 0
81.825325 80.318497 0.67493343
68.123726 67.784302 -0.92274743
68.716095 68.327919 -0.88300425
69.54422 69.087875 -0.83349991
70.707016 70.154961 -0.7588135
72.422386 71.729141 -0.63707691
76.391891 75.371918 -0.46972319
81.428078 79.993584 0
81.801773 80.336517 0.67478842
68.130066 67.799324 -0.92519313
68.721947 68.343803 -0.88508141
69.530579 69.087685 -0.83237302
70.684456 70.149155 -0.75710166
72.41304 71.739311 -0.63707691
76.404915 75.411514 -0.47073933
81.439384 80.042816 0
81.804962 80.37912 0.67565894
68.129105 67.807663 -0.92600727
68.749886 68.380119 -0.89131021
69.535637 69.104698 -0.83406222
70.692116 70.17115 -0.7588135
72.384659 71.731934 -0.63563466
76.387306 75.422981 -0.47059432
81.465889 80.106209 0
81.792801 80.407669 0.67594951
68.160797 67.846199 -0.9341554
68.729851 68.372231 -0.88854158
69.522011 69.104492 -0.83293754
70.695969 70.18969 -0.76009786
72.39431 71.759621 -0.63707691
76.384933 75.448509 -0.47102931
81.522858 80.197968 0
81.788231 80.443268 0.67653006
68.094505 67.794106 -0.92030174
68.720871 68.374519 -0.88784742
69.527008 69.121513 -0.83462459
70.684708 70.194275 -0.75966865
72.365944 71.752167 -0.63563466
76.374908 75.46701 -0.47117487
81.598717 80.307564 0
81.77977 80.475342 0.67696506
68.097168 67.805786 -0.92193323
68.711914 68.376808 -0.88715589
69.520813 69.128189 -0.83462459
70.658417 70.184883 -0.7575292
72.379318 71.783401 -0.63736498
76.376274 75.496101 -0.47175545
81.620956 80.36779 0
81.752243 80.489746 0.67667508
68.103424 67.820847 -0.92437893
68.717644 68.392761 -0.88923305
69.518349 69.138329 -0.8351891
70.681 70.220917 -0.76095295
72.369911 71.793518 -0.63736498
76.36618 75.514587 -0.47190043
81.593536 80.381966 0
81.762733 80.539513 0.67783618
68.119194 67.840172 -0.92845297
68.748016 68.426399 -0.89546186
69.492935 69.120865 -0.83181071
70.688507 70.235458 -0.76223725
72.36898 71.802101 -0.63765299
76.366814 75.529137 -0.47219044
81.583633 80.392593 0
81.756538 80.55378 0.6779812
68.121765 67.851891 -0.93008137
68.716995 68.40815 -0.89061606
69.505302 69.144844 -0.83462459
70.684715 70.247032 -0.76266479
72.386009 71.836937 -0.63967133
76.352875 75.544067 -0.47219044
81.605652 80.452927 0
81.74411 80.582314 0.67827117
68.124329 67.863632 -0.93171287
68.718994 68.420715 -0.89200169
69.528748 69.179283 -0.83912766
70.654686 70.234055 -0.76009786
72.372757 71.843529 -0.63938326
76.350296 75.569649 -0.472626
81.59716 80.484863 0
81.727859 80.607307 0.67841673
68.108841 67.858459 -0.92926717
68.709999 68.422981 -0.89131021
69.522491 69.185959 -0.83912766
70.669601 70.263168 -0.76266479
72.385895 71.874878 -0.64111251
76.328735 75.577454 -0.47233599
81.5886 80.516792 0
81.719139 80.639374 0.67885178
68.136566 67.893913 -0.93660104
68.715599 68.43898 -0.8933847
69.51252 69.189148 -0.83856529
70.658295 70.267708 -0.76223725
72.391441 71.899193 -0.64226568
76.329865 75.606583 -0.47291601
81.561058 80.530907 0
81.714157 80.675018 0.67943233
68.09951 67.868378 -0.92926717
68.702942 68.43779 -0.89200169
69.502556 69.192322 -0.83800298
70.639511 70.265175 -0.76095295
72.344276 71.873825 -0.63938326
76.342293 75.646439 -0.47393212
81.559998 80.569969 0
81.709114 80.710678 0.68001288
68.09124 67.869934 -0.92845297
68.701218 68.446915 -0.89269322
69.52581 69.226906 -0.84250605
70.654305 70.294357 -0.76351994
72.357292 71.905228 -0.64111251
76.331985 75.664909 -0.47407711
81.566437 80.616219 0
81.700241 80.742783 0.68044841
68.100914 67.888481 -0.93171287
68.695839 68.452591 -0.89269322
69.48629 69.202095 -0.83743846
70.654152 70.309464 -0.7643767
72.35524 71.922432 -0.64168853
76.31411 75.676231 -0.47393212
81.550117 80.641006 0
81.691315 80.774887 0.680884
68.081879 67.879814 -0.92845297
68.66864 68.437531 -0.88854158
69.509468 69.236732 -0.84194154
70.646523 70.317497 -0.7643767
72.349419 71.936096 -0.64197761
76.307533 75.698273 -0.47422266
81.548859 80.68013 0
81.686096 80.810577 0.68146455
68.073608 67.881332 -0.92763877
68.670532 68.450081 -0.88992459
69.488419 69.229362 -0.83968997
70.63517 70.321991 -0.76394916
72.347305 71.953308 -0.64255369
76.304665 75.723877 -0.47465765
81.558838 80.730042 0
81.677048 80.842682 0.68189955
68.065331 67.882828 -0.92682147
68.683296 68.473045 -0.8933847
69.478424 69.232483 -0.83912766
70.646088 70.347725 -0.76608855
72.345177 71.970543 -0.64313078
76.313049 75.760277 -0.47552878
81.553665 80.765625 0
81.682999 80.889153 0.68291569
68.103485 67.928764 -0.93660104
68.667023 68.4683 -0.89131021
69.479446 69.24614 -0.84025449
70.61245 70.330894 -0.7630924
72.320595 71.966309 -0.64197761
76.295074 75.771561 -0.47538379
81.552185 80.804825 0
81.666321 80.914101 0.68306065
68.127266 67.961098 -0.94312078
68.665237 68.477409 -0.89200169
69.465767 69.245712 -0.83912766
70.627029 70.360214 -0.765661
72.333351 71.997841 -0.64370686
76.29583 75.800789 -0.47596377
81.543137 80.836838 0
81.657127 80.946228 0.68349624
68.090424 67.935242 -0.9357869
68.670677 68.493484 -0.89407885
69.463081 69.255829 -0.83968997
70.63414 70.382462 -0.76737285
72.305046 71.989975 -0.64226568
76.274078 75.808434 -0.47567379
81.567795 80.901321 0
81.651619 80.981964 0.68407679
68.053642 67.909302 -0.92845297
68.661621 68.495628 -0.8933847
69.467705 69.27301 -0.84137917
70.611641 70.376213 -0.765661
72.325172 72.028732 -0.64457202
76.274765 75.837692 -0.47625434
81.577332 80.951447 0
81.619858 80.992455 0.6836412
68.063133 67.92794 -0.93171287
68.656181 68.501259 -0.8933847
69.468643 69.28669 -0.84250605
70.633446 70.412735 -0.76908308
72.311752 72.035194 -0.64428395
76.271667 75.86335 -0.4766899
81.609222 81.023308 0
81.629204 81.042633 0.68480235
68.086784 67.960365 -0.93823254
68.661552 68.517365 -0.89546186
69.487785 69.318039 -0.84644461
70.599892 70.395744 -0.76608855
72.313171 72.056023 -0.64514804
76.279709 75.899864 -0.47756046
81.633492 81.088043 0
81.619797 81.074776 0.68523788
68.057167 67.941193 -0.93252701
68.6381 68.505516 -0.89200169
69.470428 69.314049 -0.84475756
70.625305 70.435905 -0.76993984
72.303429 72.066063 -0.64514804
76.283951 75.932793 -0.47828603
81.646423 81.141975 0
81.606606 81.103287 0.68552792
68.070107 67.963326 -0.93660104
68.679382 68.556618 -0.90099913
69.464005 69.320656 -0.84475756
70.595459 70.422424 -0.76737285
72.323326 72.104958 -0.64745438
76.276978 75.954887 -0.47857657
81.640617 81.177811 0
81.600815 81.139053 0.68610847
68.047638 67.950981 -0.93252701
68.652336 68.541245 -0.89684749
69.450294 69.320145 -0.84363073
70.595032 70.437553 -0.76822799
72.283913 72.086105 -0.64514804
76.277397 75.98423 -0.47915712
81.668266 81.246368 0
81.58754 81.167572 0.68639898
68.00753 67.921303 -0.92437893
68.646851 68.546867 -0.89684749
69.443863 69.326729 -0.84363073
70.601929 70.459877 -0.76993984
72.307411 72.128662 -0.64774239
76.255478 75.991783 -0.47886658
81.729256 81.347786 0
81.570496 81.192444 0.686544
68.048668 67.971138 -0.9349727
68.648506 68.559494 -0.89823049
69.437424 69.333305 -0.84363073
70.583122 70.457062 -0.76865554
72.301285 72.142326 -0.64803147
76.259521 76.024773 -0.47959214
81.767731 81.427513 0
81.57196 81.235489 0.68741459
68.078003 68.004753 -0.94230658
68.631432 68.548241 -0.89546186
69.452324 69.354385 -0.84644461
70.579216 70.461037 -0.76865554
72.285286 72.136467 -0.64716637
76.255974 76.035828 -0.4797377
81.794334 81.474701 0
81.572678 81.257027 0.68785012
68.037926 67.974991 -0.9341554
68.604485 68.532722 -0.89131021
69.449486 69.364548 -0.84700912
70.567749 70.465385 -0.76822799
72.282814 72.153717 -0.64774239
76.267334 76.076141 -0.48075324
81.814011 81.536362 0
81.57032 81.296478 0.68857569
68.001457 67.948624 -0.92682147
68.616859 68.555901 -0.89477032
69.450226 69.378258 -0.8481338
70.592819 70.505768 -0.77207929
72.295059 72.185532 -0.64947271
76.249039 76.087311 -0.48060825
81.815033 81.579803 0
81.597496 81.365143 0.69046235
68.007233 67.96389 -0.92926717
68.632744 68.582642 -0.89892197
69.436501 69.377701 -0.84700912
70.581306 70.510124 -0.77165174
72.274124 72.184631 -0.64860755
76.252899 76.120369 -0.48133379
81.849289 81.656227 0
81.679947 81.488724 0.69452626
68.037537 68.003525 -0.93741524
68.630768 68.591766 -0.8996135
69.419174 69.373528 -0.84531993
70.580719 70.525291 -0.77250683
72.282593 72.21283 -0.65004873
76.249313 76.146149 -0.48176935
81.84272 81.692444 0
81.791641 81.641792 0.69975072
68.022186 67.997955 -0.9349727
68.618103 68.590286 -0.89823049
69.430695 69.39798 -0.8481338
70.540062 70.500671 -0.76865554
72.280006 72.230133 -0.65062582
76.227249 76.153603 -0.48147881
81.861931 81.754341 0
81.818222 81.710899 0.70163739
68.027847 68.013275 -0.93741524
68.630325 68.613571 -0.90169066
69.438568 69.418884 -0.85038537
70.557663 70.533936 -0.77165174
72.292038 72.262032 -0.65235507
76.245705 76.201393 -0.48278546
81.869965 81.805298 0
81.771057 81.706749 0.70062184
68.036987 68.032112 -0.94067508
68.631851 68.626259 -0.90307629
69.428421 69.421867 -0.849823
70.549767 70.541855 -0.77165174
72.267403 72.257423 -0.6512019
76.21624 76.201492 -0.48220491
81.892624 81.871017 0
81.760666 81.73922 0.70105684
68.067047 68.071968 -0.94882631
68.612076 68.617653 -0.90030766
69.429039 69.435608 -0.85094768
70.567261 70.575195 -0.77464789
72.250122 72.260094 -0.65062582
76.219849 76.234619 -0.48293048
81.907791 81.929443 0
81.676788 81.698158 0.69858962
67.974899 67.989334 -0.92845297
68.617104 68.633873 -0.90238214
69.411705 69.431358 -0.84925848
70.541176 70.564934 -0.77250683
72.251076 72.281036 -0.65148991
76.201393 76.245705 -0.48278546
81.919174 81.984253 0
81.69574 81.760002 0.70018631
67.997955 68.022186 -0.9349727
68.597351 68.625214 -0.8996135
69.419472 69.452309 -0.85151005
70.562195 70.601959 -0.77593058
72.248367 72.298347 -0.65206707
76.186584 76.260437 -0.48278546
81.937805 82.046501 0
81.681602 81.78875 0.70047683
68.020943 68.055092 -0.94149244
68.574104 68.612953 -0.89615333
69.41288 69.458855 -0.85151005
70.543381 70.598961 -0.77464789
72.231041 72.300957 -0.65148991
76.186401 76.289917 -0.48336604
81.937981 82.090347 0
81.693024 81.843315 0.70178294
67.977791 68.021286 -0.93252701
68.614395 68.664848 -0.90515077
69.384842 69.443718 -0.8481338
70.520958 70.592262 -0.77293605
72.217369 72.30722 -0.6512019
76.182495 76.315704 -0.48380104
81.934402 82.130508 0
81.686073 81.879456 0.70236349
68.011131 68.064796 -0.94149244
68.647522 68.709709 -0.9127652
69.410385 69.482773 -0.85319924
70.549042 70.636673 -0.77721488
72.240021 72.350281 -0.65379626
76.167603 76.330414 -0.48380104
81.934418 82.174385 0
81.744751 81.982185 0.70555633
67.974991 68.037926 -0.9341554
68.606636 68.679573 -0.90584493
69.407318 69.492928 -0.85376155
70.526611 70.629944 -0.77550304
72.233566 72.363922 -0.65408534
76.174576 76.367332 -0.48467216
81.930695 82.214584 0
81.733955 82.014732 0.70599186
68.032463 68.106216 -0.94882631
68.632614 68.717354 -0.91207373
69.382874 69.481331 -0.85094768
70.511406 70.630508 -0.77464789
72.22345 72.373871 -0.65408534
76.177826 76.400574 -0.4853977
81.912331 82.23996 0
81.748581 82.073219 0.707443
68.030952 68.114616 -0.94964051
68.588287 68.683517 -0.9044593
69.401146 69.513245 -0.85488844
70.535728 70.671371 -0.77849919
72.224182 72.394875 -0.65494943
76.166473 76.418983 -0.48554271
81.912125 82.28389 0
81.730362 82.098358 0.70758796
67.974152 68.066452 -0.93741524
68.582626 68.689056 -0.9044593
69.380272 69.505226 -0.85263687
70.513306 70.664581 -0.77678734
72.203194 72.393715 -0.65408534
76.144196 76.426254 -0.48525271
81.92276 82.33902 0
81.730286 82.142075 0.70845908
68.000298 68.103119 -0.94475228
68.615486 68.734116 -0.91207373
69.362968 69.500809 -0.85094768
70.53392 70.701851 -0.78021109
72.189423 72.39991 -0.65379626
76.15818 76.470673 -0.48641327
81.933289 82.394203 0
81.711975 82.167206 0.7086041
67.91951 68.029984 -0.92682147
68.613258 68.743279 -0.9127652
69.374031 69.525497 -0.85376155
70.522224 70.706055 -0.77978188
72.208122 72.439461 -0.6561026
76.135864 76.477905 -0.48612326
81.958221 82.464363 0
81.69725 82.196037 0.70889407
67.973152 68.095024 -0.94067508
68.583061 68.72364 -0.90791941
69.39212 69.557518 -0.85770231
70.528419 70.728668 -0.78149372
72.208725 72.460518 -0.65696776
76.131638 76.503754 -0.48655882
81.968513 82.519669 0
81.700584 82.243515 0.70991021
67.999138 68.131783 -0.94800901
68.580849 68.732788 -0.90861356
69.371269 69.549423 -0.85545075
70.516716 70.732864 -0.78106618
72.184105 72.455559 -0.65581459
76.13459 76.537071 -0.48728439
81.942505 82.537628 0
81.689377 82.2761 0.71034575
67.946083 68.086838 -0.93660104
68.585571 68.749138 -0.9106881
69.368088 69.559563 -0.85601312
70.505013 70.737045 -0.78063864
72.199043 72.491493 -0.65783286
76.119431 76.551727 -0.48728439
81.952629 82.592987 0
81.670883 82.301193 0.71049076
67.965149 68.116524 -0.94230658
68.590279 68.765518 -0.9127652
69.361366 69.56604 -0.85601312
70.507561 70.755997 -0.78192294
72.188774 72.501396 -0.65783286
76.100655 76.562622 -0.48713937
81.977089 82.663399 0
81.663177 82.337509 0.71107131
67.986641 68.143845 -0.94800901
68.587395 68.768295 -0.9127652
69.379143 69.591263 -0.85939151
70.517715 70.774727 -0.78363478
72.180038 72.502602 -0.65754378
76.121887 76.599892 -0.4883005
82.081284 82.794281 0
81.659294 82.355652 0.71136135
67.964516 68.130829 -0.94393498
68.557312 68.748489 -0.90791941
69.361824 69.586754 -0.85770231
70.502403 70.775185 -0.78277802
72.198418 72.542343 -0.65985012
76.092262 76.599533 -0.48771995
82.141449 82.902481 0
81.651497 82.391975 0.7119419
67.997131 68.174896 -0.95290035
68.551567 68.75399 -0.90791941
69.341011 69.578545 -0.85545075
70.504868 70.794167 -0.78406239
72.180939 72.544769 -0.6592741
76.087799 76.625381 -0.48815495
82.255371 83.067245 0
81.640045 82.424561 0.71237743
67.971596 68.158272 -0.94800901
68.542358 68.755859 -0.90722793
69.358841 69.610725 -0.85939151
70.503738 70.809433 -0.78491747
72.174179 72.558388 -0.65956211
76.10125 76.670044 -0.48931605
82.307816 83.168335 0
81.592644 82.419548 0.71136135
67.932472 68.127281 -0.93986094
68.550453 68.775879 -0.90999657
69.352058 69.617195 -0.85939151
70.481346 70.802422 -0.78320563
72.174538 72.579498 -0.66042727
76.085938 76.684662 -0.48931605
82.356445 83.265808 0
81.538116 82.406937 0.71005523
67.934303 68.139206 -0.94149244
68.565414 68.803185 -0.91414821
69.345268 69.623657 -0.85939151
70.483734 70.821419 -0.78448993
72.153473 72.578117 -0.65956211
76.070602 76.699249 -0.48931605
82.372604 83.329475 0
81.508705 82.420586 0.7097652
67.95649 68.172638 -0.94800901
68.531998 68.779587 -0.90861356
69.359444 69.652229 -0.86276776
70.482544 70.836685 -0.78534502
72.164467 72.610497 -0.66129237
76.080276 76.740234 -0.49033219
82.399368 83.404533 0
81.529343 82.486984 0.7115069
67.920883 68.145096 -0.94067508
68.526222 68.785057 -0.90861356
69.331665 69.636559 -0.85939151
70.463707 70.833336 -0.78406239
72.139832 72.605316 -0.6601392
76.082726 76.773689 -0.49105772
82.418823 83.472122 0
81.560555 82.564774 0.71368355
67.936234 68.17141 -0.94556648
68.534195 68.805107 -0.91137958
69.345764 69.665169 -0.86276776
70.466003 70.852333 -0.78534502
72.129433 72.61515 -0.6601392
76.05658 76.776939 -0.49062216
82.466728 83.570084 0
81.566643 82.616211 0.7148447
67.939674 68.195328 -0.94882631
68.532883 68.827026 -0.91345674
69.321625 69.666954 -0.86107856
70.463486 70.882912 -0.78705692
72.129829 72.657387 -0.66186845
76.054131 76.836342 -0.49178329
82.447876 83.644989 0
81.553619 82.692703 0.71615082
67.951492 68.218117 -0.95290035
68.503044 68.806877 -0.90861356
69.342567 69.703049 -0.86558163
70.458679 70.89447 -0.78748608
72.129974 72.678535 -0.66273355
76.049271 76.862282 -0.49221885
82.438354 83.682465 0
81.545227 82.729065 0.71673137
67.905891 68.17955 -0.94312078
68.534904 68.852631 -0.91622537
69.318321 69.690933 -0.86276776
70.429306 70.879761 -0.78491747
72.130066 72.699677 -0.66359764
76.044373 76.888229 -0.49265441
82.442993 83.735153 0
81.536774 82.765442 0.71731192
67.917694 68.202339 -0.94719481
68.549576 68.880135 -0.9203797
69.307983 69.693649 -0.86220539
70.438492 70.906296 -0.78705692
72.133659 72.724632 -0.66475081
76.042969 76.917976 -0.49323496
82.451073 83.791679 0
81.524727 82.798027 0.71774745
67.926079 68.22155 -0.95045471
68.519753 68.859909 -0.9155339
69.311485 69.71122 -0.86389458
70.423157 70.906555 -0.78620178
72.147774 72.760971 -0.66676915
76.030884 76.936317 -0.49337995
82.420059 83.806343 0
81.512604 82.830597 0.71818244
67.934418 68.240784 -0.95371455
68.500229 68.850647 -0.9127652
69.287285 69.698997 -0.86107856
70.421783 70.921837 -0.78705692
72.15477 72.789772 -0.66821033
76.029381 76.966087 -0.49396053
82.413818 83.847664 0
81.489838 82.851738 0.71818244
67.925941 68.241913 -0.95290035
68.494362 68.856087 -0.9127652
69.294205 69.720299 -0.86333007
70.427361 70.944664 -0.78876877
72.105507 72.757866 -0.6650399
76.031349 76.99968 -0.49468607
82.446388 83.931015 0
81.445877 82.849983 0.71731192
67.924164 68.250282 -0.95371455
68.488487 68.861511 -0.9127652
69.287292 69.726692 -0.86333007
70.415489 70.948654 -0.78834122
72.108955 72.782852 -0.66619307
76.029739 77.02948 -0.49526665
82.478783 84.014481 0
81.405464 82.851959 0.71658635
67.892235 68.225937 -0.94719481
68.509804 68.896454 -0.91830254
69.294136 69.748032 -0.86558163
70.431442 70.982841 -0.79133737
72.108841 72.804054 -0.66705716
76.021019 77.051643 -0.49555662
82.496902 84.082733 0
81.386185 82.876801 0.71673137
67.940636 68.288872 -0.96023428
68.500496 68.898209 -0.917611
69.30439 69.773148 -0.86839765
70.419525 70.986832 -0.79090983
72.101692 72.81765 -0.66734517
76.015793 77.077644 -0.49599218
82.476135 84.108902 0
81.409073 82.94754 0.71861804
67.885345 68.238968 -0.94800901
68.497963 68.907341 -0.91830254
69.273369 69.753319 -0.86445695
70.404137 70.987 -0.79005307
72.091034 72.827431 -0.66734517
76.010521 77.103653 -0.49642774
82.455338 84.13504 0
81.431808 83.018356 0.7205047
67.890228 68.254608 -0.95045471
68.478485 68.897957 -0.9155339
69.283554 69.778435 -0.86727083
70.423401 71.025047 -0.79347682
72.08036 72.837204 -0.66734517
75.991173 77.114319 -0.49628276
82.448555 84.176529 0
81.429871 83.062424 0.72137582
67.897659 68.267914 -0.95290035
68.505974 68.934006 -0.92176265
69.266357 69.766617 -0.86501926
70.405312 71.013763 -0.79176497
72.102928 72.872643 -0.66965151
76.02179 77.163765 -0.49787888
82.446899 84.199203 0
81.432365 83.088303 0.72195637
67.912468 68.294533 -0.95778859
68.493256 68.932037 -0.9203797
69.269653 69.784248 -0.86670846
70.396828 71.0215 -0.79176497
72.092201 72.882423 -0.66965151
76.00238 77.174438 -0.49773386
82.415459 84.213776 0
81.426788 83.128555 0.72268194
67.854095 68.240746 -0.94475228
68.48391 68.933739 -0.91968554
69.255821 69.783089 -0.86558163
70.391792 71.03302 -0.79219252
72.064072 72.873062 -0.66821033
76.003922 77.20816 -0.49845943
82.366531 84.209061 0
81.417641 83.164986 0.72326249
67.882164 68.282013 -0.95290035
68.450981 68.909416 -0.91414821
69.265907 69.808266 -0.86839765
70.376396 71.033134 -0.79133737
72.077667 72.909622 -0.67022866
75.998428 77.234207 -0.49889499
82.331604 84.219666 0
81.390968 83.182159 0.72311693
67.943306 68.360023 -0.96919966
68.519096 68.996666 -0.92937714
69.248657 69.803314 -0.86670846
70.37822 71.052246 -0.79262006
72.07383 72.927048 -0.67080468
76.020767 77.291084 -0.50049108
82.303673 84.237946 0
81.385223 83.222435 0.72384304
67.901604 68.324409 -0.96023428
68.452553 68.935059 -0.91691685
69.285889 69.858704 -0.8740254
70.380013 71.071388 -0.79390436
72.05957 72.932961 -0.67051667
76.001221 77.301743 -0.50034612
82.328011 84.314148 0
81.35849 83.239563 0.72369748
67.893074 68.325447 -0.95942008
68.523788 69.026215 -0.93283725
69.2584 69.842415 -0.87064701
70.378342 71.086731 -0.79476112
72.055702 72.950386 -0.67109376
76.012955 77.347137 -0.50150722
82.387024 84.429131 0
81.338715 83.264397 0.72384304
67.891144 68.333824 -0.96023428
68.487549 68.998077 -0.92660844
69.241165 69.837425 -0.86896002
70.386917 71.113533 -0.79690057
72.058701 72.97551 -0.67224693
75.982925 77.346176 -0.50092667
82.365799 84.4552 0
81.280701 83.246658 0.72239137
67.85952 68.309067 -0.95371455
68.474808 68.996017 -0.92522281
69.24427 69.855103 -0.87064701
70.37146 71.113586 -0.79604381
72.058197 72.996788 -0.67311102
75.977196 77.372261 -0.5013622
82.382736 84.523903 0
81.257431 83.267517 0.72239137
67.880661 68.343216 -0.96023428
68.445374 68.975235 -0.9203797
69.233803 69.857651 -0.8700847
70.362862 71.121284 -0.79604381
72.050766 73.010376 -0.67339903
75.967949 77.39447 -0.50165224
82.364853 84.553856 0
81.282623 83.342621 0.72442359
67.862251 68.333138 -0.95697439
68.419319 68.958122 -0.91622537
69.247017 69.886734 -0.87346309
70.344009 71.117477 -0.79476112
72.050201 73.031685 -0.67426419
75.965584 77.424438 -0.50223279
82.336548 84.572144 0
81.314545 83.425545 0.72674525
67.889854 68.374741 -0.96512252
68.463341 69.019707 -0.92660844
69.243279 69.896866 -0.8740254
70.359276 71.151985 -0.79775566
72.042717 73.045265 -0.6745522
75.970085 77.462196 -0.50310391
82.2771 84.555397 0
81.329056 83.489182 0.72834194
67.874733 68.368347 -0.96267998
68.457268 69.025101 -0.92660844
69.21254 69.876579 -0.8700847
70.357452 71.167351 -0.79861242
72.028351 73.051109 -0.67426419
75.957253 77.48053 -0.50324887
82.252243 84.577469 0
81.312378 83.517868 0.72863197
67.853081 68.354523 -0.95860589
68.454521 69.034233 -0.92729998
69.229012 69.909523 -0.8740254
70.34539 71.171188 -0.79818487
72.027695 73.072433 -0.67512935
75.965065 77.522217 -0.50426501
82.227371 84.59951 0
81.292236 83.542679 0.72877753
67.854347 68.366577 -0.96023428
68.465027 69.058418 -0.93076009
69.211777 69.904404 -0.87233621
70.343506 71.186539 -0.79903996
72.040695 73.109276 -0.67714763
75.955589 77.544449 -0.50455499
82.192131 84.609802 0
81.299561 83.598618 0.73008364
67.849068 68.371231 -0.96023428
68.452293 69.05629 -0.92937714
69.22142 69.929764 -0.87515014
70.355171 71.217308 -0.80160695
72.002335 73.087929 -0.67484128
75.939217 77.558884 -0.50455499
82.215363 84.686455 0
81.289604 83.635109 0.73066419
67.843788 68.375885 -0.96023428
68.413055 69.023956 -0.92245418
69.210907 69.932251 -0.87458777
70.329506 71.205704 -0.79946756
72.005005 73.113136 -0.67599446
75.957115 77.612343 -0.50600612
82.214401 84.735825 0
81.269295 83.659889 0.73080915
67.877586 68.42514 -0.97001386
68.456589 69.085899 -0.93283725
69.19368 69.927071 -0.87289858
70.310654 71.201775 -0.79818487
72.028069 73.161697 -0.67887688
75.947517 77.634605 -0.50629669
82.151596 84.714752 0
81.266068 83.704185 0.73167974
67.823441 68.373993 -0.95778859
68.443832 69.083717 -0.93145162
69.196556 69.944824 -0.87458777
70.305321 71.213257 -0.79861242
71.982956 73.132454 -0.67599446
75.941292 77.660774 -0.50673223
82.126556 84.736671 0
81.252518 83.736771 0.73211527
67.840897 68.404694 -0.96349412
68.404716 69.05127 -0.92453134
69.199387 69.962593 -0.87627697
70.303345 71.2286 -0.79946756
71.978706 73.149879 -0.67657053
75.928192 77.6791 -0.50687724
82.080963 84.735031 0
81.235489 83.76545 0.73240584
67.835571 68.409325 -0.96349412
68.401894 69.060371 -0.92522281
69.18885 69.965042 -0.8757146
70.314835 71.25946 -0.80203617
71.974442 73.167328 -0.67714763
75.942352 77.72879 -0.50818336
82.031982 84.72937 0
81.232056 83.809776 0.73327643
67.84967 68.436356 -0.96838236
68.405647 69.077057 -0.92729998
69.168312 69.955956 -0.87346309
70.316139 71.278709 -0.80331886
71.980309 73.196487 -0.67858881
75.9496 77.770691 -0.50919944
81.918236 84.648941 0
81.218323 83.842361 0.73371196
67.841072 68.437263 -0.96756816
68.452049 69.143074 -0.93837458
69.191048 69.996773 -0.87852854
70.32415 71.305756 -0.80545992
71.969193 73.206123 -0.67858881
75.922745 77.773331 -0.50876391
81.767227 84.524963 0
81.22155 83.894592 0.73487312
67.826019 68.430679 -0.96512252
68.406479 69.102882 -0.93006861
69.177147 69.995338 -0.87740165
70.288475 71.282303 -0.80203617
71.954666 73.211823 -0.67829973
75.916283 77.79953 -0.50919944
81.500908 84.266747 0
81.207672 83.92717 0.73530811
67.858856 68.474167 -0.97408789
68.423058 69.128334 -0.93422025
69.186798 70.013863 -0.87965322
70.300835 71.305534 -0.80417562
71.966003 73.236221 -0.67974198
75.928299 77.83033 -0.51007003
81.407074 84.182716 0
81.205818 83.949371 0.73574364
67.830872 68.452591 -0.96838236
68.443031 69.164101 -0.93975753
69.189476 70.031685 -0.88134241
70.275269 71.293686 -0.80203617
71.958206 73.249763 -0.68003005
75.901413 77.832909 -0.50963449
81.348732 84.164291 0
81.202034 83.993774 0.73661423
67.825493 68.457222 -0.96838236
68.387787 69.112366 -0.92937714
69.192116 70.049522 -0.88303161
70.299881 71.340218 -0.806315
71.957138 73.271149 -0.68089515
75.911766 77.87883 -0.51079559
81.307396 84.165474 0
81.184639 84.022446 0.73690474
67.82975 68.473106 -0.97082806
68.41423 69.155769 -0.93629742
69.164963 70.032623 -0.87965322
70.291008 71.347824 -0.806315
71.959389 73.296478 -0.68204832
75.922028 77.924797 -0.51195669
81.279633 84.182419 0
81.187469 84.074776 0.7380659
67.747292 68.38752 -0.95126885
68.391708 69.142029 -0.93283725
69.160973 70.042717 -0.88021553
70.268784 71.339806 -0.80460316
71.944778 73.302139 -0.68175924
75.908562 77.943138 -0.51210171
79.007408 81.571411 0
81.180077 84.11528 0.73879141
67.854195 68.523743 -0.97979343
68.414772 69.181702 -0.93906605
69.150375 70.04509 -0.87965322
70.259911 71.347374 -0.80460316
71.950317 73.331436 -0.68320149
75.90519 77.973343 -0.51268226
78.976036 81.577644 0
81.169235 84.151848 0.73937201
67.803902 68.475655 -0.96838236
68.379265 69.152626 -0.93283725
69.13649 70.043571 -0.87852854
70.25103 71.354935 -0.80460316
71.935677 73.337082 -0.68291241
75.911858 78.015434 -0.5136984
78.944672 81.583832 0
81.148239 84.176537 0.73951697
67.801697 68.484032 -0.96919966
68.379524 69.165558 -0.93422025
69.158752 70.084656 -0.88359392
70.272018 71.39772 -0.80845445
71.931084 73.354561 -0.6834895
75.888184 78.021881 -0.51340783
78.93351 81.613785 0
81.140648 84.217056 0.74024254
67.79628 68.488617 -0.96919966
68.370041 69.167023 -0.93352878
69.148125 70.087006 -0.88303161
70.269707 71.413139 -0.80931121
71.919777 73.364136 -0.6834895
75.888023 78.056091 -0.51413393
78.912216 81.631821 0
81.119568 84.24173 0.7403881
67.771721 68.470528 -0.96430832
68.367027 69.176125 -0.93422025
69.137474 70.089325 -0.88246709
70.237572 71.393242 -0.806315
71.921799 73.389511 -0.68464267
75.887787 78.090302 -0.5148595
78.900978 81.661758 0
81.105148 84.274307 0.74082309
67.77269 68.482651 -0.96593982
68.415688 69.246658 -0.94598633
69.126846 70.091644 -0.88190472
70.258385 71.436119 -0.8101663
71.893799 73.379295 -0.68320149
75.874092 78.108627 -0.51500452
78.866219 81.663826 0
81.080635 84.294968 0.74082309
67.783157 68.506134 -0.97001386
68.37709 69.21357 -0.93906605
69.116219 70.093948 -0.88134241
70.236191 71.427948 -0.80845445
71.909058 73.420502 -0.68550676
75.897141 78.170731 -0.51674616
78.874985 81.717651 0
81.052765 84.311615 0.74067813
67.768188 68.499329 -0.96756816
68.364342 69.211151 -0.93768042
69.134956 70.131294 -0.88584548
70.227211 71.435478 -0.80845445
71.91095 73.445923 -0.68665993
75.876671 78.181114 -0.51660115
78.836853 81.71566 0
81.044884 84.352119 0.74140364
67.81662 68.568367 -0.98142183
68.341957 69.197174 -0.93422025
69.107986 70.114082 -0.88246709
70.247841 71.478455 -0.81230575
71.896217 73.451508 -0.68637192
75.876183 78.215385 -0.51732671
78.815437 81.733574 0
81.040283 84.396637 0.74227476
67.842751 68.610954 -0.989573
68.390282 69.267937 -0.94598633
69.146149 70.174911 -0.89034855
70.228951 71.474174 -0.81102306
71.901352 73.480904 -0.6878131
75.868988 78.241707 -0.5177623
78.813988 81.775444 0
81.025597 84.429176 0.74270976
67.751854 68.512962 -0.96756816
68.371078 69.257805 -0.94321769
69.125687 70.165497 -0.88809699
70.24617 71.513283 -0.81444681
71.896507 73.498405 -0.6883902
75.848434 78.252029 -0.51761675
78.785851 81.785339 0
81.044083 84.501678 0.74459648
67.790565 68.570755 -0.97897613
68.367935 69.26696 -0.94391185
69.08255 70.128654 -0.88190472
70.217415 71.497101 -0.8118782
71.888321 73.511917 -0.68867826
75.861061 78.302338 -0.51892287
78.764351 81.803192 0
81.055794 84.566269 0.74619311
67.737785 68.518211 -0.96675402
68.348778 69.256767 -0.94114321
69.097816 70.162201 -0.88584548
70.221443 71.520432 -0.81359005
71.880119 73.525429 -0.68896627
75.833839 78.304657 -0.51848781
78.73951 81.817009 0
81.050804 84.610878 0.7470637
67.710297 68.496033 -0.96104848
68.329643 69.246536 -0.93837458
69.116241 70.199715 -0.89034855
70.22216 71.539833 -0.81487435
71.875198 73.542931 -0.68954337
75.829781 78.334976 -0.51906842
78.724594 81.842827 0
81.022583 84.627457 0.74691868
67.780266 68.592102 -0.98060763
68.37751 69.317619 -0.95014066
69.092606 70.186279 -0.88753468
70.213043 71.54734 -0.81487435
71.860359 73.548431 -0.68925428
75.845474 78.389374 -0.5205195
78.683182 81.836502 0
81.004257 84.656052 0.74720925
67.765297 68.585205 -0.97816193
68.34243 69.28801 -0.94391185
69.085121 70.192429 -0.88753468
70.200668 71.55088 -0.81444681
71.881653 73.597908 -0.69213772
75.837975 78.415733 -0.52095509
78.661621 81.854233 0
80.999069 84.700668 0.74807978
67.712776 68.532402 -0.96593982
68.35511 69.316528 -0.94806349
69.080856 70.202492 -0.88809699
70.194786 71.562332 -0.81487435
71.870049 73.607422 -0.69213772
75.810669 78.417961 -0.5205195
78.54438 81.755173 0
80.980637 84.72924 0.74837035
67.751083 68.590462 -0.97734779
68.342339 69.314026 -0.94668049
69.070145 70.204697 -0.88753468
70.195381 71.581734 -0.81615704
71.874802 73.636948 -0.69357896
75.832695 78.480515 -0.5222612
77.798386 80.88607 0
80.968727 84.765839 0.7489509
67.75769 68.604225 -0.97979343
68.316917 69.289436 -0.94183469
69.072815 70.215622 -0.88865936
70.190804 71.585472 -0.81615704
71.868973 73.641708 -0.69357896
75.814087 78.475578 -0.52182561
77.745399 80.84198 0
80.966026 84.788155 0.74938589
67.755241 68.612587 -0.98060763
68.30101 69.282974 -0.93975753
69.074928 70.233574 -0.89034855
70.184883 71.596939 -0.81658626
71.827927 73.615105 -0.69098461
75.812988 78.509987 -0.52255118
77.675743 80.798027 0
80.950745 84.820732 0.74982148
67.783943 68.65934 -0.989573
68.345238 69.350479 -0.95083213
69.048164 70.216026 -0.88697016
70.16922 71.596428 -0.8157295
71.848907 73.664703 -0.69386697
75.808548 78.54039 -0.52313173
77.639038 80.794342 0
80.93541 84.85331 0.75025702
67.722298 68.594757 -0.97490209
68.322983 69.336235 -0.94737196
69.063049 70.249771 -0.89091086
70.189117 71.639778 -0.81958079
71.843742 73.682228 -0.69444406
75.797523 78.562729 -0.5234223
77.625275 80.818893 0
80.926544 84.893944 0.75098258
67.751511 68.65377 -0.98549587
68.294327 69.327141 -0.94391185
69.041542 70.254066 -0.88978404
70.148094 71.626747 -0.81658626
71.826813 73.709206 -0.69502014
75.794907 78.631645 -0.52487344
77.607468 80.880142 0
80.915146 84.983337 0.75272429
67.764473 68.681419 -0.9903872
68.294174 69.340141 -0.94529486
69.037178 70.264122 -0.89034855
70.164612 71.666176 -0.82000995
71.821564 73.726723 -0.69559723
75.803268 78.678291 -0.52603453
77.603363 80.916847 0
80.889778 85.003761 0.75272429
67.700043 68.612701 -0.97490209
68.262604 69.314011 -0.93975753
69.051849 70.297943 -0.89428711
70.142494 71.6576 -0.8182981
71.819504 73.74826 -0.69646132
75.788773 78.696587 -0.52617955
77.59594 80.949509 0
80.85463 85.011986 0.7522887
67.756233 68.694359 -0.9912014
68.315742 69.3936 -0.95290929
69.028366 70.28421 -0.89147323
70.13002 71.660995 -0.81786889
71.823891 73.777908 -0.69790357
75.780746 78.723 -0.52661508
77.624229 81.026894 0
80.822739 85.024231 0.75199872
67.679642 68.610046 -0.97245955
68.306084 69.394882 -0.95221514
69.055649 70.333969 -0.8976655
70.13678 71.688469 -0.82000995
71.795921 73.767128 -0.69646132
75.775917 78.753471 -0.52719563
77.623123 81.067741 0
80.784355 85.028297 0.75141817
67.695618 68.641548 -0.97816193
68.271439 69.364754 -0.94598633
69.028992 70.316216 -0.89428711
70.140274 71.711945 -0.82172185
71.809891 73.808922 -0.69876766
75.771034 78.783951 -0.52777618
77.599251 81.080124 0
80.765404 85.056686 0.75170815
67.693077 68.649879 -0.97897613
68.261833 69.365982 -0.94529486
69.008713 70.306366 -0.8920356
70.137337 71.727394 -0.82257694
71.804474 73.826462 -0.69934475
75.779015 78.830719 -0.52893734
77.598022 81.120987 0
80.769035 85.113548 0.75301427
67.690536 68.658218 -0.97979343
68.267807 69.386864 -0.94806349
69.020027 70.336319 -0.89541399
70.159866 71.77504 -0.82685578
71.792595 73.835876 -0.69934475
75.77076 78.857147 -0.52937233
77.577324 81.137405 0
80.788689 85.190811 0.75504595
67.666504 68.639404 -0.97490209
68.279953 69.415627 -0.95221514
69.024971 70.35833 -0.8976655
70.115463 71.738174 -0.8221494
71.793541 73.861526 -0.70049793
75.743141 78.859146 -0.52893734
77.566292 81.166054 0
80.817841 85.280396 0.75751317
67.70681 68.702065 -0.98712736
68.285835 69.436554 -0.95498377
69.020432 70.368385 -0.89822787
70.10611 71.74556 -0.8221494
71.788017 73.879051 -0.701074
75.725182 78.873322 -0.52893734
77.548759 81.186523 0
80.811432 85.325195 0.75838429
67.670563 68.667671 -0.97897613
68.294777 69.461464 -0.95844656
68.984467 70.338501 -0.89316243
70.090393 71.744858 -0.82129264
71.769684 73.880325 -0.70049793
75.726471 78.91198 -0.52980787
77.527985 81.202881 0
80.78244 85.341415 0.75823927
67.680183 68.691559 -0.98305333
68.278885 69.454803 -0.9563694
68.992477 70.364502 -0.89597631
70.090538 71.764328 -0.82257694
71.773697 73.910057 -0.70193911
75.721268 78.942497 -0.53038841
77.51683 81.231499 0
80.785507 85.398476 0.75954539
67.689735 68.715469 -0.98712736
68.247551 69.428352 -0.95083213
68.991058 70.378548 -0.89710319
70.090645 71.783821 -0.82386124
71.774475 73.935738 -0.70309228
75.722427 78.981209 -0.53125954
77.512032 81.268311 0
80.769249 85.431023 0.75998098
67.677948 68.71212 -0.98549587
68.247162 69.441383 -0.95221514
68.998978 70.404594 -0.89991707
70.100182 71.815445 -0.82642823
71.768822 73.95327 -0.70366836
75.720306 79.015846 -0.5319851
77.497566 81.292839 0
80.749733 85.459457 0.76027095
67.672249 68.71656 -0.98549587
68.249832 69.458397 -0.9542923
68.981865 70.398598 -0.89822787
70.112816 71.851173 -0.82942444
71.769501 73.978981 -0.70482153
75.708534 79.038185 -0.53227514
77.50544 81.3461 0
80.749329 85.512482 0.76143205
67.624107 68.666344 -0.97408789
68.234001 69.45163 -0.95221514
68.983482 70.416656 -0.89991707
70.065536 71.809898 -0.82428885
71.754265 73.984276 -0.70453352
75.709488 79.076958 -0.5331462
77.503616 81.387062 0
80.729691 85.540901 0.76172209
67.703232 68.780136 -0.99690694
68.258141 69.496414 -0.9591381
68.96328 70.406609 -0.8976655
70.052956 71.813164 -0.82386124
71.739029 73.989555 -0.70424545
75.694435 79.0952 -0.53329122
77.485786 81.407471 0
80.725937 85.589867 0.76273817
67.667221 68.745491 -0.9887557
68.233086 69.47773 -0.95498377
68.946205 70.400536 -0.89597631
70.056068 71.836723 -0.82557315
71.758583 74.039825 -0.70712787
75.679367 79.113426 -0.53343624
77.496574 81.464951 0
80.706184 85.618279 0.7630282
67.63131 68.71077 -0.98060763
68.241791 69.502724 -0.95844656
68.966393 70.442726 -0.90104175
70.049728 71.848099 -0.82600069
71.724335 74.020508 -0.70510954
75.689644 79.164566 -0.53474236
77.485001 81.493614 0
80.689575 85.650803 0.76346374
67.622429 68.705124 -0.97897613
68.238464 69.505287 -0.95844656
68.974899 70.46183 -0.90329325
70.063766 71.876152 -0.82856768
71.74984 74.06617 -0.70799297
75.670982 79.159286 -0.53430736
77.509346 81.547119 0
80.711365 85.706177 0.76506042
67.634811 68.733032 -0.98386747
68.265411 69.554161 -0.96605837
68.954704 70.451714 -0.90104175
70.051125 71.879402 -0.82814014
71.718765 74.050903 -0.70626271
75.687462 79.218704 -0.53590345
77.491302 81.567551 0
80.685127 85.726357 0.76506042
67.638107 68.749191 -0.98631316
68.225143 69.515511 -0.95844656
68.949989 70.461731 -0.90160406
70.035362 71.878571 -0.82728499
71.722351 74.080765 -0.70770496
75.669067 79.232819 -0.53590345
77.508049 81.633423 0
80.671501 85.763 0.76564097
67.650368 68.777145 -0.9912014
68.227608 69.532562 -0.96052104
68.942184 70.467705 -0.90160406
70.04142 71.90625 -0.82942444
71.710167 74.090088 -0.70770496
75.685364 79.292328 -0.53750014
77.512016 81.682816 0
80.664124 85.807899 0.76651156
67.623619 68.754028 -0.98549587
68.19355 69.501755 -0.9542923
68.943604 70.485802 -0.90329325
70.038078 71.9217 -0.83027953
71.716774 74.124077 -0.70943421
75.647972 79.281631 -0.53662902
77.525345 81.744675 0
80.640907 85.832146 0.76665652
67.65377 68.805626 -0.99527544
68.199043 69.522797 -0.95706093
68.938843 70.495811 -0.90385562
70.031624 71.93309 -0.83070874
71.710793 74.141617 -0.71001023
75.645218 79.316376 -0.53735459
77.50074 81.756844 0
80.62709 85.86879 0.76723713
67.662895 68.829727 -0.99934947
68.174179 69.503883 -0.95290929
68.937134 70.50988 -0.90498245
70.012718 71.928093 -0.82942444
71.701668 74.15506 -0.71029931
75.654976 79.367714 -0.53866124
77.510727 81.814621 0
80.635208 85.934418 0.76883376
67.621277 68.786858 -0.989573
68.179642 69.524933 -0.95567793
68.920067 70.503677 -0.90329325
70.018623 71.955826 -0.83156383
71.680023 74.151978 -0.70943421
75.636398 79.38179 -0.53866124
77.508034 81.855835 0
80.60556 85.950356 0.7686888
67.597626 68.767548 -0.98468167
68.188065 69.549995 -0.9591381
68.945877 70.554245 -0.90948558
70.009003 71.963089 -0.83156383
71.683327 74.181892 -0.71087539
75.633453 79.416573 -0.53938681
77.483315 81.867996 0
80.607193 86.007736 0.76999491
67.621582 68.811378 -0.99282974
68.172302 69.543022 -0.95706093
68.919609 70.535843 -0.90610719
70.020996 71.999062 -0.83456004
71.671021 74.19117 -0.71087539
75.627319 79.447227 -0.53996736
77.474236 81.900909 0
80.593094 86.044395 0.77057546
67.597961 68.792038 -0.9879415
68.156563 69.536018 -0.95498377
68.917816 70.549919 -0.90723401
70.014404 72.010437 -0.83498758
71.683548 74.233528 -0.71318173
75.602402 79.452942 -0.53967679
77.474472 81.94632 0
80.572678 86.072731 0.77086544
67.58625 68.788475 -0.98631316
68.170929 69.569153 -0.95982957
68.912941 70.559921 -0.90779638
69.973946 71.976608 -0.83070874
71.658775 74.226242 -0.71202856
75.602417 79.49192 -0.54054791
77.468376 81.983414 0
80.549103 86.096893 0.77101046
67.592293 68.808647 -0.989573
68.164192 69.574188 -0.95982957
68.901978 70.561783 -0.90723401
69.96431 71.983818 -0.83070874
71.658798 74.252068 -0.71318173
75.59613 79.522583 -0.54112846
77.44664 81.999672 0
77.838371 82.524048 0.64576161
67.562851 68.781273 -0.98305333
68.157455 69.579216 -0.95982957
68.897079 70.571777 -0.90779638
69.97612 72.019829 -0.83370328
71.643318 74.257172 -0.71289366
75.580467 79.540741 -0.54127347
77.434212 82.028427 0
77.803558 82.524078 0.64518106
68.180641 69.624496 -0.96674985
68.88913 70.577682 -0.90779638
69.981735 72.047638 -0.83584273
71.646339 74.287148 -0.71433491
75.580276 79.579742 -0.54214406
77.431046 82.069702 0
77.740868 82.486526 0.64329439
67.574837 68.821632 -0.989573
68.155914 69.60537 -0.9625982
68.902374 70.612167 -0.91173708
69.959778 72.038368 -0.83413082
71.618507 74.275612 -0.71289366
75.583115 79.622955 -0.54316014
77.41539 82.094276 0
77.678284 82.448853 0.64140773
67.580757 68.841835 -0.99282974
68.16703 69.634583 -0.96674985
68.870201 70.585403 -0.90723401
69.968384 72.070335 -0.83669949
71.633766 74.322235 -0.71548808
75.561142 79.632759 -0.54301518
77.412094 82.13559 0
77.631256 82.431938 0.64024663
67.566109 68.834236 -0.9903872
68.187042 69.675972 -0.97298133
68.862244 70.591278 -0.90723401
69.96167 72.081673 -0.83712703
71.633568 74.348106 -0.71664119
75.542244 79.646721 -0.54301518
77.377815 82.135025 0
77.57505 82.402405 0.63865048
67.580765 68.866402 -0.99608964
68.129623 69.612328 -0.9612152
68.860291 70.605331 -0.90835869
69.961037 72.10128 -0.83841133
71.617996 74.353157 -0.71635318
75.560287 79.710884 -0.54475683
77.368233 82.167953 0
77.528168 82.385307 0.63748938
68.13768 69.637527 -0.96467537
68.861328 70.623489 -0.91004789
69.954277 72.11261 -0.83883888
71.608543 74.366516 -0.71664119
75.532066 79.712265 -0.5443213
77.352425 82.192474 0
77.487488 82.376495 0.63661826
67.545647 68.843147 -0.989573
68.130867 69.642525 -0.96467537
68.862335 70.641663 -0.91173708
69.932335 72.103226 -0.83712703
71.602112 74.384048 -0.71721727
75.531487 79.751343 -0.54519182
77.311989 82.183403 0
77.434578 82.350853 0.63516712
68.127007 69.651566 -0.96536684
68.863289 70.659836 -0.91342413
69.931625 72.122833 -0.83841133
71.617027 74.430832 -0.71981269
75.524704 79.782051 -0.54577237
77.305351 82.22049 0
77.409332 82.362885 0.63502216
67.557205 68.883652 -0.99608964
68.105408 69.636269 -0.96190673
68.834305 70.636963 -0.90948558
69.945992 72.163193 -0.84183508
71.622688 74.465111 -0.72154194
75.527054 79.825378 -0.54678851
77.274132 82.223923 0
77.365715 82.349663 0.63400602
68.128075 69.681808 -0.96882701
68.868088 70.700348 -0.91736484
69.936127 72.170372 -0.84183508
71.59787 74.457573 -0.72038877
75.514023 79.847694 -0.54707849
77.270462 82.265228 0
77.312988 82.323761 0.63255489
68.112854 69.66806 -0.96605837
68.849121 70.682732 -0.91455096
69.913086 72.149017 -0.83926642
71.612823 74.49147 -0.72240704
75.513603 79.867271 -0.54751408
77.2472 82.256386 0
77.289711 82.31498 0.63197434
67.539536 68.890373 -0.99527544
68.100128 69.664902 -0.96467537
68.838066 70.684471 -0.91398865
69.91227 72.16864 -0.84055078
71.597099 74.49646 -0.72211796
75.494423 79.881172 -0.54751408
77.22818 82.276596 0
77.26757 82.331024 0.63197434
67.542313 68.90667 -0.99772114
68.113831 69.698318 -0.96951848
68.829987 70.690315 -0.91398865
69.920425 72.200745 -0.84311771
71.596519 74.522415 -0.72327113
75.490433 79.916107 -0.54823959
77.212181 82.30101 0
77.227158 82.321747 0.63110322
68.077629 69.662575 -0.9625982
68.827835 70.704384 -0.91511333
69.90152 72.195404 -0.84183508
71.604965 74.560974 -0.72528946
75.504601 79.976379 -0.54983628
77.202217 82.333847 0
77.208054 82.341949 0.63124877
67.524666 68.907181 -0.99608964
68.0942 69.700104 -0.96813554
68.807869 70.693703 -0.91286176
69.891609 72.20253 -0.84183508
71.586166 74.56176 -0.72471339
75.476189 79.9776 -0.54940075
77.180054 82.349777 0
77.17981 82.349442 0.63095826
67.527374 68.923492 -0.99853528
68.087311 69.705048 -0.96813554
68.814575 70.720161 -0.91567564
69.890656 72.222153 -0.84311771
71.588463 74.591934 -0.72615457
75.484116 80.029472 -0.55070686
77.154846 82.361465 0
77.151581 82.356918 0.63066822
68.132919 69.783455 -0.98059309
68.827133 70.754913 -0.9196164
69.895653 72.25016 -0.84525883
71.563629 74.584267 -0.72500139
75.449631 80.022202 -0.5499813
77.15686 82.411224 0
77.120323 82.360107 0.63023269
68.082245 69.727165 -0.97021264
68.807175 70.744194 -0.91736484
69.888657 72.261452 -0.84568638
71.565842 74.614456 -0.72644264
75.463448 80.082581 -0.55157799
77.122513 82.410156 0
77.095116 82.371719 0.63008767
67.512367 68.940277 -0.99934947
68.104393 69.77298 -0.97713298
68.784302 70.729294 -0.91455096
69.87867 72.268562 -0.84568638
71.553009 74.623589 -0.72644264
75.468094 80.130302 -0.55273908
77.1063 82.434494 0
77.078926 82.395988 0.63037771
68.088707 69.765656 -0.97505581
68.814377 70.788956 -0.92186791
69.871643 72.279846 -0.84611392
71.531189 74.620041 -0.72557747
75.448601 80.14415 -0.55273908
77.102074 82.475784 0
77.044662 82.394821 0.6297971
68.081734 69.770592 -0.97505581
68.800308 70.786476 -0.92074323
69.861633 72.286934 -0.84611392
71.554199 74.679817 -0.72903699
75.444084 80.179176 -0.55346465
77.091766 82.508598 0
77.025436 82.414825 0.62994266
67.491592 68.948936 -0.99853528
68.063187 69.759117 -0.97228718
68.806747 70.813026 -0.9235571
69.836815 72.273041 -0.84397447
71.517433 74.655121 -0.72673064
75.430511 80.201477 -0.55375463
77.09639 82.562675 0
77.006172 82.434792 0.63008767
68.064896 69.776337 -0.97436428
68.78096 70.793884 -0.92017871
69.856361 72.322067 -0.84825337
71.528366 74.698036 -0.72903699
75.410927 80.215279 -0.55375463
77.12188 82.646591 0
76.99585 82.467499 0.63066822
68.098259 69.83873 -0.98405325
68.769829 70.795502 -0.9196164
69.834503 72.312325 -0.84654146
71.533272 74.732544 -0.73076725
75.415215 80.263084 -0.55491573
77.218941 82.832825 0
76.964561 82.470421 0.63023269
68.04805 69.782036 -0.97367281
68.764526 70.80542 -0.92017871
69.836227 72.336189 -0.84825337
71.505455 74.720436 -0.729325
75.407478 80.293892 -0.55549634
77.246925 82.921272 0
76.95118 82.498848 0.63066822
68.04393 69.791031 -0.97436428
68.762123 70.819511 -0.9213056
69.820282 72.334824 -0.84739822
71.513229 74.759186 -0.73134333
75.405624 80.333221 -0.55636686
77.29557 83.03968 0
76.92585 82.510223 0.63052326
68.048401 69.812386 -0.97713298
68.74807 70.816917 -0.92017871
69.819 72.354477 -0.84868091
71.500229 74.768257 -0.73134333
75.388863 80.351273 -0.55651242
77.335022 83.145424 0
76.909409 82.534348 0.63081324
68.049965 69.829636 -0.97921008
68.742737 70.826836 -0.92074323
69.826485 72.38681 -0.85124952
71.499016 74.794312 -0.73249644
