# .PCD v0.7 - Point Cloud Data file format
VERSION 0.7
FIELDS x y z
SIZE 4 4 4
TYPE F F F
COUNT 1 1 1
WIDTH 1897
HEIGHT 1
VIEWPOINT 0 0 0 1 0 0 0
POINTS 1897
DATA ascii
82.053345 54.760109 0
91.409836 49.971355 0.85994118
79.926697 55.872822 -0.99648815
80.091019 55.788963 -0.50451928
80.432617 55.614655 0
91.440659 49.997398 0.86037678
79.959549 55.880344 -0.99792933
80.128731 55.79427 -0.50539041
80.577248 55.566082 0
91.513123 50.002296 0.86211789
79.987801 55.890274 -0.99908251
80.194252 55.785553 -0.50713211
80.601357 55.579052 0
91.59491 50.002632 0.86415011
80.366829 55.735275 -0.51206654
80.690933 55.571617 0
91.610947 50.057358 0.86385953
80.427856 55.729359 -0.5136627
80.761536 55.561363 0
91.627777 50.090733 0.86385953
80.465714 55.735222 -0.51453382
80.808937 55.562943 0
91.621346 50.13578 0.86313403
80.498917 55.7435 -0.51525933
80.800499 55.592575 0
91.628792 50.173813 0.86284399
80.550728 55.742561 -0.51656544
80.819954 55.608238 0
91.603607 50.228092 0.86153734
80.597916 55.744049 -0.5177266
80.923286 55.582207 0
91.615585 50.263767 0.86139232
80.635811 55.750263 -0.51859713
81.026711 55.556416 0
91.613533 50.306381 0.86081177
80.664398 55.761154 -0.51917768
81.232857 55.48011 0
91.639389 50.335144 0.86110234
80.720963 55.758316 -0.52062935
81.462555 55.392792 0
64 64 0
80.76355 55.762489 -0.52164495
81.645782 55.328964 0
91.649017 50.413437 0.86037678
80.820168 55.759884 -0.52309662
81.600159 55.377773 0
91.646744 50.456001 0.85979623
80.848793 55.771091 -0.52367717
81.554436 55.426456 0
91.65374 50.49398 0.85950565
80.905441 55.768711 -0.5251283
81.59285 55.434006 0
91.637344 50.543324 0.85849011
80.966805 55.764175 -0.52672493
81.668755 55.423447 0
91.65358 50.576729 0.85849011
81.014168 55.766575 -0.52788609
81.688461 55.440269 0
91.65107 50.619209 0.85790956
81.0709 55.764565 -0.52933717
81.68943 55.466167 0
91.629776 50.670692 0.8567484
81.094894 55.778435 -0.52977276
81.666885 55.503342 0
91.631805 50.710846 0.85631287
81.165436 55.757275 -0.53180444
81.761169 55.471207 0
91.607033 50.743294 0.85529673
81.212883 55.760071 -0.53296554
81.813713 55.47245 0
91.59491 50.790119 0.85442621
81.283798 55.751781 -0.53485221
81.875664 55.469326 0
91.601463 50.827953 0.85413563
81.317207 55.761509 -0.53557777
64 64 0
91.598587 50.870243 0.85355508
81.392883 55.751266 -0.53760946
89.7826 51.772362 0
91.605057 50.908051 0.85326505
81.43103 55.758957 -0.53848058
64 64 0
91.60675 50.948082 0.85282952
81.464478 55.768951 -0.53920609
64 64 0
91.594307 50.994736 0.85195893
81.493225 55.781219 -0.5397867
64 64 0
91.605301 51.030296 0.85181397
81.517265 55.795746 -0.54022223
64 64 0
91.611526 51.068077 0.8515234
81.546005 55.808125 -0.54080278
89.780548 51.963585 0
91.622429 51.103645 0.85137838
81.574738 55.82056 -0.54138333
89.790352 51.996937 0
91.609734 51.150185 0.85050786
81.603439 55.833061 -0.54196334
89.790665 52.034683 0
91.611092 51.190117 0.85007226
81.693497 55.817245 -0.54443115
89.800385 52.068039 0
91.612396 51.230034 0.84963673
81.75528 55.814705 -0.54602724
89.795883 52.107937 0
91.599495 51.276459 0.84876615
81.812363 55.814468 -0.54747838
89.772392 52.156502 0
91.610115 51.311993 0.84862059
81.850601 55.823009 -0.5483495
89.796158 52.183311 0
91.615982 51.349686 0.84833062
89.768982 52.233414 -0.7911554
89.781998 52.227467 0
91.59343 51.400333 0.84716952
89.773705 52.268867 -0.79086488
89.77726 52.26725 0
91.627556 51.425072 0.84775007
89.776062 52.286591 -0.79071987
89.765388 52.291443 0
91.597298 51.458969 0.84658891
89.775993 52.324181 -0.79028428
89.765305 52.329018 0
91.579285 51.507336 0.84557283
89.785347 52.357468 -0.79013932
89.76989 52.364449 0
91.5849 51.544941 0.84528279
89.780441 52.397163 -0.78955877
89.755463 52.408409 0
91.595192 51.580414 0.84513783
89.780212 52.434708 -0.78912318
89.755196 52.44593 0
91.595947 51.620148 0.84470224
89.789429 52.467987 -0.78897816
89.759644 52.481304 0
91.610886 51.6535 0.84470224
89.789101 52.505505 -0.78854263
89.76403 52.516678 0
91.59256 51.701683 0.84368616
89.783974 52.545113 -0.78796208
89.758858 52.556271 0
91.583649 51.745583 0.8429606
89.77404 52.586796 -0.78723651
89.753632 52.595833 0
91.593689 51.781021 0.84281558
89.77356 52.624237 -0.78680152
89.767387 52.626961 0
91.589417 51.822765 0.84223503
89.792038 52.653297 -0.78694654
89.766815 52.664394 0
91.589836 51.862392 0.8417995
89.781937 52.694901 -0.78622097
89.756668 52.705986 0
91.594971 51.899906 0.84150946
89.781288 52.732307 -0.78578538
89.760765 52.74128 0
91.595284 51.939507 0.84107393
89.785347 52.767624 -0.78549486
89.750488 52.782806 0
91.595535 51.979084 0.84063834
89.784615 52.804993 -0.78505981
89.749702 52.820152 0
91.595757 52.018642 0.84020334
89.779045 52.84441 -0.78447926
89.758415 52.853336 0
91.600662 52.056126 0.83991277
89.759094 52.889977 -0.78346318
89.752747 52.892715 0
91.586456 52.10183 0.83904225
89.758179 52.927269 -0.78302759
89.751801 52.930008 0
91.576942 52.145432 0.83831668
89.764862 52.942833 -0.78302759
89.734573 52.95583 0
91.564995 52.170292 0.83773613
89.754318 52.984192 -0.78230202
89.747902 52.986935 0
91.560158 52.211784 0.83715558
89.762833 53.017353 -0.78215706
89.746819 53.024178 0
91.579155 52.243057 0.83730054
89.75695 53.056618 -0.78157651
89.745682 53.061405 0
91.55986 52.290615 0.83628446
89.755791 53.09383 -0.78114092
89.739731 53.100632 0
91.564423 52.327972 0.83599442
89.749802 53.133041 -0.78056037
89.728889 53.141869 0
91.58329 52.359268 0.83613944
89.74855 53.170204 -0.78012538
89.741989 53.172962 0
91.568604 52.404694 0.83526891
89.756813 53.203339 -0.77997983
89.731056 53.214134 0
91.558617 52.448063 0.83454275
89.741081 53.246483 -0.77910924
89.734474 53.249241 0
91.567764 52.483372 0.83439779
89.754051 53.277596 -0.77910924
89.733025 53.286346 0
91.562469 52.524681 0.83381724
89.755882 53.349789 -0.77838367
89.729996 53.360497 0
91.56131 52.603233 0.83294666
89.754311 53.38686 -0.77794814
89.733192 53.395561 0
91.570267 52.638523 0.83280164
89.738281 53.429829 -0.77707756
89.736374 53.430614 0
91.564743 52.679741 0.83222109
89.751038 53.460938 -0.77707756
89.729851 53.469604 0
91.563965 52.718964 0.83178556
89.749313 53.497948 -0.77664202
89.728096 53.506603 0
91.558327 52.760128 0.83120501
89.747536 53.534943 -0.77620649
89.731102 53.541622 0
91.567078 52.795391 0.83105999
89.750534 53.569958 -0.77591646
89.729263 53.578575 0
91.566147 52.834564 0.8306244
89.737564 53.593311 -0.77533591
89.721069 53.599976 0
91.548798 52.860958 0.82989889
84.125107 55.890923 -0.60596693
89.728798 53.633007 0
91.542953 52.902023 0.82931828
84.086655 55.934612 -0.60451525
89.717155 53.673798 0
91.546707 52.939178 0.82902831
84.038506 55.982048 -0.60277414
89.710281 53.712616 0
91.545578 52.978264 0.82859278
83.980591 56.033218 -0.60074192
89.722702 53.74369 0
91.544388 53.017334 0.82815719
83.956406 56.070793 -0.59972632
89.701202 53.788231 0
91.552811 53.05254 0.82801217
83.90316 56.119781 -0.59783965
89.708694 53.821209 0
91.551521 53.091583 0.82757664
83.888481 56.153378 -0.59711355
89.706444 53.858013 0
91.535683 53.136322 0.82670605
83.902802 56.175507 -0.5972591
89.713837 53.890984 0
91.563286 53.163902 0.82714111
83.878365 56.212833 -0.59624302
89.70665 53.929657 0
91.55217 53.206688 0.82641554
83.87323 56.242531 -0.59580743
89.699402 53.968296 0
91.540985 53.249435 0.82568997
83.87291 56.270313 -0.59551746
89.701797 54.003132 0
91.544281 53.286484 0.82539994
83.838631 56.31123 -0.59421134
89.69931 54.039833 0
91.547508 53.323536 0.82510942
83.833359 56.340824 -0.59377575
89.706474 54.072765 0
91.540993 53.364319 0.82452887
83.842598 56.364796 -0.59377575
89.708725 54.107574 0
91.539268 53.403206 0.82409328
83.808144 56.405518 -0.59246963
89.701218 54.146103 0
91.537506 53.442062 0.82365829
83.807587 56.43317 -0.59217912
89.698517 54.182739 0
91.545395 53.477196 0.82351327
83.78788 56.454395 -0.59145355
89.67041 54.211243 0
91.532326 53.501247 0.82293272
83.77755 56.485695 -0.590873
83.984848 56.406933 0
91.544991 53.534523 0.82293272
83.762314 56.518795 -0.59014744
83.94532 56.449516 0
91.538177 53.575172 0.82235217
83.751892 56.550014 -0.58956689
83.881393 56.501171 0
91.531303 53.615791 0.82177162
83.726822 56.586685 -0.58855075
83.856323 56.538017 0
91.480591 53.672829 0.81988496
83.721176 56.61599 -0.58811575
83.826332 56.576618 0
83.686882 56.62883 0.58709294
83.705742 56.648903 -0.58739018
83.781662 56.620586 0
83.627609 56.678051 0.58506125
83.695129 56.679962 -0.58680964
83.727142 56.668064 0
83.607208 56.712639 0.58419013
83.66497 56.718201 -0.58564854
83.731087 56.693718 0
83.542908 56.763401 0.58201349
83.649361 56.750969 -0.58492237
83.652008 56.749989 0
83.473633 56.8158 0.57969123
83.619102 56.789051 -0.58376181
83.626556 56.786312 0
83.42865 56.859051 0.57809514
83.6278 56.812763 -0.58376181
83.596176 56.824345 0
83.398224 56.896828 0.57693404
83.612045 56.845394 -0.58303571
83.560806 56.864086 0
83.357964 56.938084 0.57548231
83.610916 56.872643 -0.58274573
83.525391 56.903725 0
83.327408 56.975681 0.57432121
83.590202 56.906956 -0.58187515
83.519287 56.932636 0
83.321236 57.004341 0.57388622
83.56942 56.941216 -0.58100402
83.464165 56.979183 0
83.271011 57.048855 0.57214457
83.577934 56.964867 -0.58100402
83.428535 57.018555 0
83.259834 57.079174 0.57156402
83.55217 57.000793 -0.57998794
83.43206 57.043785 0
83.229042 57.116463 0.57040286
83.52636 57.036636 -0.5789724
83.420837 57.074265 0
83.203079 57.151924 0.56938678
83.529869 57.061974 -0.57882738
83.39978 57.108189 0
83.172157 57.189049 0.56822562
83.499763 57.08593 -0.57781124
83.364693 57.133823 0
83.171379 57.20237 0.56808066
83.488503 57.116421 -0.57723069
83.35334 57.164162 0
83.194283 57.220345 0.56851619
83.491905 57.141697 -0.57708573
83.341949 57.194462 0
83.163239 57.257339 0.5673551
83.470749 57.175571 -0.57621461
83.330505 57.224724 0
83.151756 57.287376 0.56677455
83.474075 57.200813 -0.57606959
83.333771 57.249802 0
83.120605 57.324226 0.56561339
83.472473 57.22776 -0.57577962
83.312408 57.283428 0
83.138481 57.343918 0.56590396
83.47081 57.2547 -0.57548904
83.295921 57.315285 0
83.136681 57.370453 0.56561339
83.474037 57.279926 -0.57534403
83.289238 57.343697 0
83.115211 57.403748 0.56474286
83.447731 57.315289 -0.57432789
83.282501 57.372086 0
83.118256 57.428539 0.56459785
83.460709 57.337112 -0.5744729
83.265877 57.403816 0
83.121254 57.453331 0.56445229
83.468742 57.36063 -0.5744729
83.25412 57.433823 0
83.099648 57.486504 0.56358176
83.457092 57.390839 -0.57389289
83.242332 57.463787 0
83.097649 57.512932 0.56329119
83.445374 57.421017 -0.57331234
83.264992 57.482044 0
83.095642 57.539341 0.56300116
83.438522 57.449497 -0.57287681
83.253143 57.511967 0
83.083733 57.569057 0.56242061
83.42672 57.479603 -0.57229626
83.251091 57.538551 0
83.076706 57.597084 0.56198508
83.419792 57.508026 -0.57186067
83.244064 57.566769 0
83.084427 57.620136 0.56198508
83.398048 57.541344 -0.57099015
83.23703 57.594955 0
83.037895 57.661255 0.56038892
83.395966 57.568062 -0.57069957
83.249687 57.61657 0
83.060326 57.679363 0.56082398
83.394913 57.581413 -0.57055455
83.223885 57.638016 0
83.07402 57.687611 0.56111449
83.370865 57.641266 -0.56939346
83.22438 57.689354 0
83.054649 57.745071 0.56009841
83.393364 57.659832 -0.56982899
83.227028 57.714211 0
83.052322 57.771324 0.55980837
83.391113 57.686489 -0.56953847
83.229668 57.739056 0
83.06971 57.791138 0.56009841
83.378952 57.716335 -0.56895787
83.217407 57.768719 0
83.077194 57.814182 0.56009841
83.376656 57.742947 -0.56866789
83.229897 57.79034 0
80.612068 58.635681 0.48753256
83.379257 57.767956 -0.56852287
83.21756 57.819954 0
80.56411 58.67326 0.4859359
83.381828 57.792957 -0.56837791
83.234924 57.840008 0
80.56559 58.694862 0.48579088
83.384346 57.817966 -0.56823236
83.237396 57.864834 0
80.537323 58.725937 0.48477477
83.386856 57.842964 -0.56808734
83.234863 57.891235 0
80.553604 58.742771 0.48506531
83.37941 57.871098 -0.56765175
83.232315 57.917618 0
83.101723 57.95892 0.55951786
83.391777 57.892952 -0.56779736
80.558884 58.78511 0
83.158585 57.966389 0.56096953
83.384262 57.921055 -0.56736177
80.535385 58.814468 0
83.155937 57.992657 0.56067896
83.386635 57.94603 -0.56721675
80.58139 58.822037 0
64 64 0
83.413788 57.963287 -0.56779736
80.542908 58.855984 0
83.135674 58.049763 0.55966341
83.455803 57.97599 -0.56881291
80.539154 58.879059 0
83.147812 58.071354 0.55980837
80.513283 58.908928 -0.48260477
83.275909 58.057205 0
83.140053 58.099091 0.55937284
80.536224 58.912792 -0.48318535
83.274521 58.070381 0
83.158524 58.106068 0.55980837
80.53241 58.935825 -0.48289478
83.286644 58.092155 0
83.17556 58.126183 0.56009841
80.538521 58.955803 -0.48289478
83.29377 58.115463 0
83.207489 58.141777 0.56082398
80.524712 58.981831 -0.48231423
64 64 0
83.209587 58.166496 0.56067896
80.501266 59.010719 -0.96074212
83.490433 58.106926 -0.56866789
83.357742 58.147041 0
83.20668 58.192719 0.56038892
80.487473 59.036629 -0.95958894
83.4627 58.140968 -0.56765175
83.364807 58.170437 0
83.233589 58.209938 0.56096953
80.503357 59.053585 -0.96016496
83.479736 58.161499 -0.56794232
83.36187 58.196827 0
83.230606 58.236168 0.56067896
80.504364 59.075008 -0.95987695
83.486771 58.185043 -0.56794232
83.373856 58.218739 0
83.252502 58.254951 0.56111449
80.475586 59.105267 -0.95785862
83.498764 58.207115 -0.56808734
83.395798 58.237705 0
83.25943 58.278217 0.56111449
80.555908 59.103168 -0.9621833
83.495789 58.233624 -0.56779736
83.397736 58.262627 0
83.266327 58.301491 0.56111449
83.527664 58.249847 -0.56852287
83.399673 58.287537 0
83.278183 58.323311 0.56125951
83.51963 58.277832 -0.56808734
83.421547 58.306587 0
83.290009 58.345146 0.56140453
83.541504 58.297054 -0.56852287
83.423416 58.331516 0
83.29184 58.369915 0.56125951
83.538391 58.323574 -0.56823236
83.435249 58.353539 0
83.328583 58.384525 0.56213063
83.555229 58.344296 -0.56852287
83.452049 58.374138 0
83.350319 58.403557 0.56256562
83.572029 58.365055 -0.56881291
83.44384 58.401962 0
83.347092 58.429817 0.56227565
83.583817 58.387276 -0.56895787
83.475601 58.418289 0
83.348816 58.454628 0.56213063
83.5756 58.415218 -0.56852287
83.472313 58.444687 0
83.360489 58.476585 0.56227565
83.583969 58.425625 -0.56866789
83.505714 58.447899 0
83.358833 58.489708 0.56213063
83.590683 58.449291 -0.56866789
83.50238 58.474312 0
83.380463 58.508854 0.56256562
83.612389 58.468735 -0.56910348
83.514069 58.496464 0
83.397095 58.529453 0.5628562
83.629059 58.489628 -0.56939346
83.550766 58.511608 0
83.428703 58.545872 0.56358176
83.645721 58.510551 -0.56968403
83.552368 58.536636 0
83.43528 58.569351 0.56358176
83.662346 58.531509 -0.56997401
83.55896 58.560265 0
83.416801 58.5998 0.5628562
83.648903 58.560818 -0.56939346
83.570526 58.582516 0
83.433319 58.620499 0.56314617
83.680504 58.577663 -0.57011902
83.582077 58.604782 0
83.449837 58.64122 0.56343675
83.687042 58.601448 -0.57011902
83.618706 58.620186 0
83.461304 58.663349 0.56358176
83.683533 58.627975 -0.56982899
83.640244 58.63979 0
83.48278 58.682762 0.5640173
64 64 -0
83.700035 58.64904 -0.57011902
83.646706 58.663525 0
83.499214 58.703587 0.56430727
83.701469 58.674202 -0.56997401
83.653137 58.687267 0
83.5056 58.72715 0.56430727
83.717941 58.695309 -0.57026458
83.669601 58.708313 0
83.537041 58.743973 0.56503284
83.724335 58.719139 -0.57026458
83.706146 58.724007 0
83.558441 58.76355 0.56546843
83.71563 58.74699 -0.56982899
83.7276 58.743801 0
83.584846 58.781837 0.56604898
83.696854 58.777473 -0.56910348
83.754059 58.762306 0
83.616249 58.798847 0.56677455
83.733292 58.793327 -0.56997401
83.750298 58.788837 0
83.642616 58.817249 0.5673551
83.729523 58.819809 -0.56968403
83.796852 58.802132 0
83.673996 58.834389 0.56808066
83.742691 58.829102 -0.56997401
83.805038 58.812771 0
83.677109 58.846275 0.56808066
83.748924 58.852959 -0.56997401
83.841507 58.828831 0
83.703438 58.864815 0.56866121
83.770226 58.87291 -0.5704096
83.872925 58.846275 0
83.729752 58.883408 0.56924176
83.786461 58.894207 -0.57069957
83.914421 58.861187 0
83.766121 58.899456 0.57011288
83.797668 58.916824 -0.57084513
83.940781 58.880077 0
83.80246 58.915592 0.57098341
83.818886 58.936893 -0.57128012
83.987297 58.893867 0
83.838791 58.931808 0.571854
64 64 -0
83.845139 58.955723 -0.57186067
84.003532 58.915462 0
83.844902 58.955784 0.571854
83.856247 58.978432 -0.57200569
84.075256 58.923046 0
83.881226 58.972118 0.57272512
83.882462 58.997356 -0.57258624
84.106613 58.940956 0
83.912476 58.989803 0.57345068
83.893547 59.020119 -0.57273179
84.127861 58.961464 0
83.958847 59.003773 0.57461178
83.919724 59.039139 -0.57331234
84.169296 58.976982 0
83.990082 59.021614 0.57533735
83.951836 59.082314 -0.57389289
84.216736 59.017021 0
84.047455 59.058746 0.57664347
83.962807 59.10519 -0.57403791
84.253082 59.034012 0
84.088753 59.074306 0.57765955
83.983841 59.125622 -0.5744729
84.274246 59.054787 0
84.13002 59.089966 0.57867515
84.02507 59.141193 -0.57548904
84.315598 59.070702 0
84.216736 59.094688 0.58099735
84.066292 59.156857 -0.57650512
84.331665 59.092808 0
84.323685 59.094734 0.58390015
84.097389 59.175041 -0.57723069
84.403374 59.101585 0
84.430664 59.095032 0.58680296
84.153748 59.187263 -0.57868183
84.500397 59.104481 0
84.537659 59.095585 0.58970517
84.176872 59.194622 -0.57926238
84.579308 59.098778 0
84.576004 59.099564 0.59072131
84.218063 59.210621 -0.58027852
84.645973 59.109253 0
91.368004 57.516899 0.78548872
84.269363 59.224327 -0.58158463
84.682274 59.127041 0
91.380867 57.548782 0.78563368
84.310539 59.24052 -0.58260071
84.743874 59.138973 0
91.388641 57.581871 0.78563368
84.351685 59.256813 -0.58361626
84.810562 59.149864 0
91.396378 57.614967 0.78563368
84.408043 59.269669 -0.58506793
89.59771 58.066769 0
91.393936 57.650425 0.78534317
84.469437 59.281494 -0.58666408
89.589661 58.101208 0
64 64 0
84.606834 59.276039 -0.59043795
64 64 0
91.399078 57.718964 0.78505313
78.503029 60.693729 -0.8289994
84.759445 59.267448 -0.59464633
89.52771 58.18042 0
91.401588 57.753231 0.78490812
78.461594 60.72155 -0.82640392
84.896927 59.262657 -0.5984202
89.534729 58.211269 0
91.38884 57.790939 0.78432757
78.43528 60.74585 -0.82467473
84.998947 59.266201 -0.60117745
89.526466 58.245564 0
91.396324 57.824039 0.78432757
78.403862 60.771217 -0.82265639
85.045219 59.282486 -0.60233855
89.523254 58.278687 0
91.40377 57.857147 0.78432757
78.407753 60.788624 -0.82265639
85.091484 59.298874 -0.60349971
89.535217 58.308399 0
91.401016 57.892525 0.78403705
78.416687 60.804913 -0.82294554
85.117447 59.319862 -0.60408026
89.526833 58.342636 0
91.398239 57.927887 0.78374702
78.410423 60.824562 -0.82236838
89.548378 58.370239 -0.73063517
89.513313 58.377964 0
91.390327 57.964352 0.78331149
78.373825 60.850834 -0.82006204
89.545013 58.403336 -0.73034519
89.504852 58.412136 0
91.392525 57.998566 0.78316647
78.407959 60.861595 -0.82179236
89.541595 58.43642 -0.73005462
89.511581 58.442955 0
91.399757 58.031666 0.78316647
78.386459 60.884483 -0.82035118
89.533058 58.470589 -0.72961909
89.508095 58.47599 0
91.381561 58.070278 0.7824409
78.380096 60.904045 -0.81977403
89.529572 58.503628 -0.72932905
89.52494 58.504623 0
91.393784 58.102272 0.78258592
78.381958 60.912735 -0.81977403
89.512558 58.523415 -0.7287485
89.507896 58.524414 0
91.392258 58.119915 0.7824409
78.355339 60.936592 -0.81804484
89.514084 58.555328 -0.72860348
89.514496 58.555241 0
91.389175 58.15519 0.78215033
78.3489 60.956089 -0.81746769
89.505386 58.589401 -0.72816795
89.505775 58.589317 0
91.380959 58.191525 0.7817148
78.347504 60.974495 -0.81717968
89.506821 58.621292 -0.72802293
89.51738 58.619064 0
91.403214 58.221394 0.78215033
78.351151 60.991833 -0.81717968
89.508202 58.653187 -0.72787738
89.513687 58.652035 0
91.389832 58.258774 0.78156978
78.324379 61.015507 -0.81544936
89.514648 58.684013 -0.72787738
89.504837 58.686054 0
91.391663 58.292934 0.78142482
78.322914 61.033867 -0.81516135
89.515961 58.715897 -0.72773242
89.501053 58.718987 0
91.38327 58.329197 0.78098923
78.346756 61.047005 -0.81631452
89.491798 58.753017 -0.72686183
89.517609 58.747704 0
91.379929 58.36438 0.78069925
78.294586 61.075741 -0.81314415
89.498123 58.783821 -0.72686183
89.508629 58.781673 0
91.391808 58.396427 0.78084421
78.323448 61.087864 -0.81458533
89.499313 58.81567 -0.72671682
89.499634 58.815605 0
91.393471 58.430565 0.78069925
78.316803 61.107224 -0.81400818
89.495361 58.848545 -0.7264263
89.495667 58.848484 0
91.379807 58.467785 0.7801187
78.340576 61.120453 -0.81516135
89.501572 58.879356 -0.7264263
89.496773 58.880318 0
91.366089 58.504967 0.77953809
78.303459 61.145882 -0.81285501
89.507736 58.910172 -0.7264263
89.492737 58.913166 0
91.357414 58.541088 0.77910256
78.3069 61.163166 -0.81285501
89.488388 58.946053 -0.72570074
89.498871 58.943974 0
91.374199 58.572124 0.77939314
78.325546 61.177452 -0.81372017
89.48938 58.977856 -0.72555572
89.479408 58.97982 0
91.370529 58.607216 0.77910256
64 64 -0
89.505615 59.006664 -0.72584569
89.495682 59.00861 0
91.371933 58.641289 0.77895755
64 64 -0
89.501442 59.039467 -0.72555572
89.501694 59.039421 0
91.357979 58.678337 0.778377
64 64 -0
89.502304 59.071274 -0.72541016
89.476997 59.076164 0
91.364388 58.711395 0.778377
78.34919 61.244774 -0.81429732
89.492943 59.10503 -0.72497517
89.472717 59.108913 0
91.355438 58.747406 0.77794147
78.266136 61.278591 -0.80939662
89.509041 59.133892 -0.72526515
89.478607 59.139694 0
91.366867 58.779491 0.77808642
78.267776 61.287209 -0.80939662
89.506874 59.150272 -0.72512019
89.466194 59.158009 0
91.370018 58.796024 0.77808642
78.271042 61.304451 -0.80939662
89.507614 59.18206 -0.72497517
89.466919 59.189747 0
91.360977 58.831993 0.77765143
64 64 -0
78.274292 61.321697 -0.80939662
89.487885 59.217674 -0.7242496
89.477821 59.219563 0
91.346771 58.868889 0.77707088
78.262253 61.341789 -0.80853146
89.483414 59.250381 -0.72395903
89.458 59.255119 0
91.358063 58.900986 0.7772159
78.250191 61.361851 -0.8076663
89.489136 59.281178 -0.72395903
89.468826 59.284939 0
91.359093 58.93499 0.77707088
78.253365 61.37907 -0.8076663
89.505051 59.310097 -0.7242496
89.45916 59.318535 0
91.365196 58.968052 0.77707088
78.251442 61.397224 -0.80737829
89.500465 59.342789 -0.72395903
89.469917 59.348366 0
91.345695 59.005791 0.77634531
78.269852 61.411674 -0.80824345
89.500961 59.374531 -0.72381407
89.465263 59.381004 0
91.341476 59.040691 0.7760548
78.328949 61.418835 -0.81141382
89.496292 59.407192 -0.7235235
89.470825 59.411781 0
91.352554 59.072811 0.77619976
64 64 -0
78.464447 61.412468 -0.81890887
89.496719 59.438915 -0.72337848
89.460999 59.445305 0
91.363625 59.104946 0.77634531
78.671295 61.393757 -0.83044058
79.05426 61.325726 -0.42701903
89.461342 59.476986 0
91.369514 59.138016 0.77634531
64 64 -0
78.781403 61.392616 -0.83649445
78.990952 61.355652 -0.42513233
89.471924 59.506847 0
91.360016 59.173798 0.77590978
78.789635 61.409588 -0.83678246
78.922478 61.386318 -0.42310068
89.467072 59.539429 0
91.36071 59.207756 0.77576476
78.818237 61.423027 -0.83822364
78.879555 61.412365 -0.42179456
89.462204 59.571983 0
91.35112 59.243492 0.77532923
78.780556 61.447975 -0.83591729
78.831451 61.43919 -0.42034289
89.45726 59.604527 0
91.346611 59.278313 0.7750392
64 64 -0
64 64 -0
78.798927 61.463215 -0.83678246
78.783318 61.465889 -0.41889176
89.457428 59.636169 0
91.34716 59.312237 0.77489364
64 64 -0
78.801987 61.481098 -0.83678246
78.719772 61.495087 -0.41700509
89.467812 59.666061 0
91.347687 59.346157 0.77474868
64 64 -0
78.781021 61.512222 -0.83534127
78.673027 61.530399 -0.41555342
89.455093 59.715683 0
91.361191 59.394867 0.77489364
64 64 -0
78.778923 61.530937 -0.83505327
78.655518 61.551552 -0.41497341
89.460251 59.746445 0
91.335999 59.433067 0.77402312
64 64 -0
78.807404 61.544563 -0.83649445
78.643082 61.571815 -0.41453785
89.455109 59.778912 0
91.341492 59.466103 0.77402312
64 64 -0
78.789948 61.565819 -0.83534127
78.574226 61.601322 -0.41250619
89.449913 59.811363 0
91.352074 59.498299 0.77416807
64 64 -0
78.787773 61.584526 -0.83505327
78.561722 61.621449 -0.41207063
89.449821 59.842957 0
91.347244 59.533028 0.7738781
78.821312 61.597431 -0.83678246
78.528671 61.644867 -0.41105452
89.444565 59.875374 0
91.35775 59.565243 0.77402312
64 64 -0
78.803772 61.618626 -0.83562928
78.510979 61.665726 -0.41047394
89.449524 59.90612 0
91.332291 59.603256 0.77315199
64 64 -0
78.801537 61.637329 -0.83534127
78.483009 61.688175 -0.40960339
89.449303 59.937698 0
91.332458 59.637104 0.77300698
64 64 -0
78.768608 61.660881 -0.83332294
78.460129 61.70974 -0.40887785
89.449051 59.969265 0
91.332581 59.670944 0.77286196
64 64 -0
78.776535 61.677925 -0.83361095
78.457741 61.728024 -0.40873227
89.438477 60.002445 0
91.353195 59.701553 0.77329755
64 64 -0
78.769112 61.697376 -0.83303493
78.450218 61.747093 -0.40844229
89.443283 60.033184 0
91.332703 59.738609 0.77257198
78.730988 61.721546 -0.83072859
78.458054 61.763763 -0.40858728
89.437782 60.065521 0
91.322418 59.774021 0.77213645
64 64 -0
78.672371 61.748764 -0.82726908
78.440201 61.784386 -0.40800673
89.447662 60.09547 0
91.327507 59.807037 0.77213645
64 64 -0
78.731339 61.757931 -0.83044058
78.432602 61.803398 -0.40771672
89.457497 60.125439 0
91.327423 59.840843 0.77199143
64 64 -0
78.641983 61.789631 -0.82525188
78.430092 61.821617 -0.40757117
89.441597 60.159309 0
91.327271 59.874645 0.77184588
64 64 -0
78.619049 61.811157 -0.82380956
78.437866 61.838284 -0.40771672
89.435913 60.191593 0
91.327103 59.908436 0.77170086
78.637039 61.826542 -0.82467473
78.435318 61.856495 -0.40757117
89.445641 60.221569 0
91.321754 59.942982 0.77141088
64 64 -0
78.619179 61.847244 -0.82352155
78.443054 61.87318 -0.40771672
89.434753 60.254589 0
91.311203 59.978271 0.77097529
64 64 -0
78.632019 61.863415 -0.82409871
78.425041 61.893635 -0.40713617
89.444405 60.284573 0
91.316048 60.011276 0.77097529
64 64 -0
78.643532 61.870766 -0.82467473
78.43145 61.901604 -0.40728116
89.446648 60.299946 0
91.308151 60.029274 0.77068478
64 64 -0
78.615387 61.892891 -0.82294554
78.449409 61.916817 -0.40771672
89.430489 60.333668 0
91.287216 60.065983 0.76995921
78.648636 61.906158 -0.82467473
78.426201 61.937954 -0.40699115
89.419441 60.366608 0
91.291954 60.098957 0.76995921
64 64 -0
78.722855 61.913704 -0.82871026
78.433823 61.954659 -0.40713617
89.428955 60.396595 0
91.095985 60.16037 0.76429915
78.725365 61.931492 -0.82871026
78.451706 61.969936 -0.40757117
89.422997 60.428772 0
90.035362 60.342751 0.73425686
78.773956 61.942867 -0.83130461
78.438721 61.989548 -0.40713617
89.427292 60.459492 0
89.988297 60.381378 0.73280573
78.832809 61.952942 -0.83447611
78.441139 62.006992 -0.40713617
89.416077 60.492355 0
90.05957 60.403545 0.73469239
78.855766 61.96806 -0.83562928
78.443535 62.024445 -0.40713617
89.425446 60.522362 0
90.089638 60.431515 0.73541796
78.878716 61.983234 -0.83678246
78.440765 62.042595 -0.40699115
89.424484 60.553787 0
90.093933 60.463043 0.73541796
64 64 -0
78.876022 62.0019 -0.83649445
78.437958 62.060741 -0.4068456
89.41832 60.585892 0
90.087875 60.49596 0.73512739
78.780991 62.032845 -0.8310166
78.435143 62.078873 -0.40670061
89.412094 60.617985 0
90.112701 60.524742 0.73570794
78.552597 62.081131 -0.81804484
78.432304 62.096992 -0.40655559
89.411011 60.649372 0
90.12719 60.554935 0.73599851
64 64 -0
78.439743 62.113762 -0.40670061
89.415039 60.680077 0
90.213783 60.575737 0.73832077
64 64 -0
78.436867 62.131878 -0.40655559
89.408722 60.712124 0
90.243668 60.60408 0.73904628
78.246475 62.174011 -0.80045927
78.418488 62.151966 -0.40597504
89.412674 60.742828 0
90.268372 60.633152 0.73962688
64 64 -0
78.425865 62.168736 -0.40612006
89.40625 60.774849 0
90.267273 60.665546 0.73948187
64 64 -0
78.417763 62.187462 -0.40583006
89.399811 60.806847 0
90.271278 60.697289 0.73948187
64 64 -0
78.430252 62.203602 -0.40612006
89.388153 60.83947 0
90.29071 60.727112 0.73991686
64 64 -0
64 64 -0
78.427254 62.221672 -0.40597504
89.39711 60.869511 0
90.23275 60.76651 0.73817521
64 64 -0
64 64 -0
78.433479 62.229759 -0.40612006
89.38868 60.886124 0
90.116074 60.796909 0.73483741
64 64 -0
64 64 -0
78.43045 62.247826 -0.40597504
89.397583 60.916176 0
89.836197 60.862919 0.72685516
64 64 -0
64 64 -0
78.411926 62.267742 -0.40539449
89.406456 60.946243 0
89.602631 60.922665 0.72017902
64 64 -0
78.231628 62.306858 -0.79873008
78.393364 62.287617 -0.40481395
89.399796 60.978176 0
89.585686 60.956059 0.71959847
64 64 -0
64 64 -0
78.390266 62.305614 -0.40466893
89.382751 61.011303 0
89.568695 60.989407 0.71901786
64 64 -0
78.392303 62.323006 -0.40466893
89.396675 61.040771 0
89.567162 61.020905 0.7188729
64 64 -0
78.41497 62.338013 -0.40524948
89.395065 61.072056 0
89.550095 61.05418 0.71829236
64 64 -0
64 64 -0
78.401474 62.357201 -0.40481395
89.393417 61.103333 0
89.579437 61.082111 0.71901786
64 64 -0
64 64 -0
78.393127 62.375767 -0.40452394
89.396904 61.134018 0
89.588112 61.112438 0.71916288
64 64 -0
78.405396 62.39201 -0.40481395
89.384827 61.166439 0
89.586418 61.143936 0.71901786
64 64 -0
64 64 -0
78.402168 62.409985 -0.40466893
89.398567 61.195972 0
89.65184 61.168011 0.72075957
64 64 -0
64 64 -0
78.393738 62.428516 -0.40437838
89.391594 61.227791 0
89.681068 61.19619 0.72148514
64 64 -0
64 64 -0
78.390465 62.446468 -0.40423337
89.374229 61.260712 0
89.668953 61.228893 0.72105014
64 64 -0
64 64 -0
78.402679 62.462753 -0.40452394
89.372345 61.291924 0
89.672279 61.259911 0.72105014
64 64 -0
64 64 -0
64 64 -0
78.404526 62.480156 -0.40452394
89.385941 61.321491 0
89.649719 61.293659 0.72032398
64 64 -0
64 64 -0
64 64 -0
78.396004 62.498642 -0.40423337
89.383987 61.352707 0
89.652969 61.324654 0.72032398
64 64 -0
69.936806 63.388103 -0.8233121
64 64 -0
78.387474 62.517105 -0.40394336
89.397537 61.382313 0
89.682045 61.352989 0.72105014
64 64 -0
69.892624 63.399849 -0.81708336
64 64 -0
78.384071 62.535015 -0.40379781
89.379967 61.415112 0
89.664543 61.386127 0.72046953
64 64 -0
69.86338 63.409988 -0.81292903
78.22908 62.568172 -0.79699975
78.385834 62.552399 -0.40379781
89.383072 61.445782 0
89.672852 61.416622 0.72061455
64 64 -0
69.978928 63.405655 -0.82884943
78.230804 62.585365 -0.79699975
78.382401 62.570297 -0.40365282
89.386139 61.476452 0
89.634583 61.451756 0.71945345
64 64 -0
69.919365 63.415188 -0.82054347
78.221367 62.594978 -0.79642373
78.398788 62.57745 -0.40408838
89.372116 61.493324 0
89.589577 61.47184 0.71814734
64 64 -0
69.830193 63.43111 -0.80808592
78.228195 62.611664 -0.79671174
78.400497 62.594852 -0.40408838
89.380302 61.523479 0
89.540878 61.507812 0.71669567
64 64 -0
69.865822 63.434788 -0.81292903
78.224724 62.629353 -0.79642373
78.391823 62.613251 -0.40379781
89.378098 61.554649 0
89.523201 61.540665 0.71611565
64 64 -0
69.846519 63.443779 -0.8101604
78.221222 62.64703 -0.79613572
78.388321 62.631134 -0.40365282
89.381035 61.585312 0
89.531319 61.571014 0.71626067
64 64 -0
69.882156 63.447556 -0.8150062
78.222847 62.664215 -0.79613572
78.379623 62.64949 -0.40336281
89.383934 61.615982 0
89.554932 61.599922 0.71684122
64 64 -0
69.868484 63.463146 -0.81292903
78.220863 62.699062 -0.79584658
78.382851 62.684242 -0.40336281
89.374069 61.678757 0
89.555466 61.662163 0.71669567
64 64 -0
69.859146 63.471138 -0.81154603
78.222427 62.716248 -0.79584658
78.368896 62.703026 -0.40292725
89.376854 61.709419 0
89.610046 61.68837 0.71814734
64 64 -0
69.809792 63.48267 -0.80462313
78.213676 62.734348 -0.79527056
78.396332 62.718082 -0.40365282
89.379601 61.740082 0
89.607651 61.719776 0.71800232
64 64 -0
69.81041 63.489689 -0.80462313
78.220337 62.751072 -0.79555857
78.387527 62.736389 -0.40336281
89.377136 61.771206 0
89.620728 61.749813 0.71829236
64 64 -0
69.786034 63.498875 -0.80116296
78.22184 62.768257 -0.79555857
78.363136 62.756016 -0.40263671
89.369431 61.802769 0
89.597542 61.783012 0.71756679
64 64 -0
69.961617 63.490925 -0.82538927
78.21302 62.78632 -0.79498255
78.359459 62.773815 -0.40249169
89.377266 61.832981 0
89.646797 61.809963 0.7188729
64 64 -0
64 64 -0
78.224777 62.802628 -0.79555857
78.360931 62.791168 -0.40249169
89.364304 61.864956 0
89.628716 61.842697 0.71829236
64 64 -0
69.907822 63.509895 -0.81777483
78.215912 62.820671 -0.79498255
78.357208 62.808949 -0.4023467
89.37204 61.895176 0
89.620956 61.874527 0.71800232
64 64 -0
69.963425 63.512539 -0.82538927
78.227623 62.837006 -0.79555857
78.36898 62.825451 -0.40263671
89.369385 61.926258 0
89.607956 61.906757 0.71756679
64 64 -0
69.833961 63.530216 -0.80739176
78.213547 62.855446 -0.79469341
78.34967 62.844482 -0.40205613
89.366692 61.957329 0
89.605293 61.938118 0.71742177
64 64 -0
69.919556 63.530521 -0.81915784
78.21492 62.87262 -0.79469341
78.361427 62.861 -0.4023467
89.358749 61.988808 0
89.633667 61.967003 0.71814734
64 64 -0
70.000153 63.531425 -0.83023244
78.211121 62.890198 -0.7944054
78.35762 62.878757 -0.40220171
89.36116 62.019451 0
89.625732 61.998787 0.71785676
64 64 -0
70.045738 63.535213 -0.83646119
78.217606 62.906975 -0.79469341
78.348587 62.896904 -0.40191114
89.363541 62.050095 0
89.669586 62.026566 0.71901786
64 64 -0
70.000992 63.542301 -0.83023244
78.213104 62.915958 -0.7944054
78.349251 62.905575 -0.40191114
89.369919 62.065022 0
89.655243 62.043259 0.71858287
64 64 -0
69.941498 63.554058 -0.82192647
78.209251 62.933517 -0.79411739
78.34539 62.923302 -0.40176615
89.356659 62.096848 0
89.610931 62.077763 0.71727622
64 64 -0
64 64 -0
78.215683 62.95031 -0.7944054
78.357033 62.939873 -0.40205613
89.364128 62.127102 0
89.63916 62.106796 0.71800232
64 64 -0
64 64 -0
78.216942 62.967487 -0.7944054
78.347946 62.957973 -0.40176615
89.366371 62.157753 0
89.594772 62.141167 0.71669567
64 64 -0
78.223335 62.984299 -0.79469341
78.338837 62.976048 -0.40147614
89.347809 62.189888 0
89.565903 62.174313 0.71582508
64 64 -0
69.862862 63.588448 -0.65099764
78.209084 63.002571 -0.79382938
78.355606 62.992287 -0.40191114
89.355164 62.220154 0
89.573273 62.204842 0.7159701
64 64 -0
64 64 -0
69.92926 63.590984 -0.65831459
78.210281 63.019741 -0.79382938
78.34127 63.010704 -0.40147614
89.341736 62.251865 0
89.570244 62.236103 0.71582508
64 64 -0
69.87397 63.601929 -0.65212232
78.211456 63.036911 -0.79382938
78.352814 63.027332 -0.40176615
89.343826 62.282486 0
89.556793 62.268055 0.71538955
64 64 -0
69.874451 63.609028 -0.65212232
78.202278 63.054771 -0.79325223
78.359161 63.044331 -0.40191114
89.340683 62.313457 0
89.600349 62.296173 0.71655065
64 64 -0
69.874916 63.616127 -0.65212232
78.208588 63.071594 -0.79354137
78.329201 63.063713 -0.40104058
89.358284 62.34306 0
89.623138 62.325752 0.7171312
64 64 -0
69.890594 63.62225 -0.65381151
78.209694 63.088764 -0.79354137
78.330322 63.081028 -0.40104058
89.344681 62.374699 0
89.635521 62.356049 0.71742177
64 64 -0
64 64 -0
69.880898 63.630005 -0.65268463
78.210785 63.105934 -0.79354137
78.341782 63.097691 -0.40133059
89.351837 62.404999 0
89.595993 62.389637 0.71626067
64 64 -0
69.906715 63.635548 -0.65550071
78.20668 63.123425 -0.79325223
78.348068 63.1147 -0.40147614
89.353745 62.435631 0
89.58754 62.421207 0.7159701
64 64 -0
64 64 -0
69.836121 63.64698 -0.64761925
78.207726 63.140591 -0.79325223
78.328377 63.133293 -0.4008956
89.340027 62.467213 0
89.594635 62.451809 0.71611565
64 64 -0
69.897423 63.650425 -0.65437382
78.203598 63.158066 -0.79296422
78.324211 63.150913 -0.40075001
89.33667 62.498138 0
89.575729 62.483967 0.7155351
64 64 -0
69.791306 63.663734 -0.64255381
78.204605 63.175228 -0.79296422
78.340797 63.16732 -0.40118557
89.343658 62.528454 0
89.608665 62.513065 0.71640563
64 64 -0
69.867813 63.666405 -0.65099764
78.210747 63.192097 -0.79325223
78.331421 63.185238 -0.4008956
89.366196 62.557896 0
89.584503 62.545483 0.71568012
64 64 -0
64 64 -0
69.766739 63.679142 -0.63973993
78.206558 63.209557 -0.79296422
78.332397 63.202557 -0.4008956
89.357521 62.589123 0
89.627754 62.574089 0.71684122
64 64 -0
64 64 -0
69.817856 63.68335 -0.64536768
78.202339 63.227005 -0.79267621
78.32296 63.22044 -0.40060502
78.694893 63.200195 0
89.572372 62.608162 0.71524453
64 64 -0
69.833275 63.686047 -0.64705688
78.207962 63.235306 -0.79296422
78.323433 63.229092 -0.40060502
78.648598 63.21159 0
89.53688 62.625568 0.71422845
64 64 -0
64 64 -0
69.808281 63.694427 -0.644243
78.20372 63.252747 -0.79267621
78.324348 63.246399 -0.40060502
78.607956 63.23148 0
89.538521 62.656425 0.71422845
64 64 -0
69.823875 63.700665 -0.6459322
78.204613 63.269909 -0.79267621
78.325249 63.26371 -0.40060502
78.582893 63.250465 0
89.540123 62.687286 0.71422845
64 64 -0
64 64 -0
69.798836 63.708977 -0.64311612
78.205482 63.287075 -0.79267621
78.326134 63.281017 -0.40060502
78.5578 63.26939 0
89.536507 62.718407 0.71408343
64 64 -0
64 64 -0
69.819489 63.714989 -0.64536768
78.195992 63.304745 -0.79209906
78.326988 63.298328 -0.40060502
78.610649 63.284435 0
89.553612 62.748501 0.71451896
64 64 -0
64 64 -0
69.824921 63.721775 -0.6459322
78.186493 63.322392 -0.79152304
78.317451 63.316135 -0.40031502
78.564713 63.304325 0
89.565475 62.778881 0.714809
64 64 -0
64 64 -0
69.82016 63.729053 -0.64536768
78.197632 63.339054 -0.79209906
78.318268 63.333435 -0.40031502
78.560349 63.322166 0
89.540985 62.810982 0.71408343
64 64 -0
64 64 -0
69.82048 63.736084 -0.64536768
78.198418 63.356209 -0.79209906
78.334625 63.350033 -0.40075001
78.587151 63.338581 0
89.542404 62.841843 0.71408343
64 64 -0
64 64 -0
69.810654 63.743565 -0.644243
78.188858 63.373821 -0.79152304
78.30426 63.368729 -0.39987946
78.567139 63.357128 0
89.528198 62.873398 0.71364784
64 64 -0
64 64 -0
69.805885 63.750805 -0.64368063
78.189606 63.390965 -0.79152304
78.29982 63.386234 -0.39973447
78.557495 63.375175 0
89.53994 62.903797 0.71393842
64 64 -0
64 64 -0
69.81633 63.757397 -0.64480531
78.195496 63.407898 -0.79181105
78.316116 63.402866 -0.40016946
78.553047 63.392982 0
89.525665 62.935307 0.71350288
64 64 -0
64 64 -0
69.75061 63.767097 -0.63748837
78.206543 63.424629 -0.7923882
78.316826 63.420162 -0.40016946
78.610985 63.408249 0
89.53212 62.965942 0.71364784
64 64 -0
64 64 -0
69.816902 63.771454 -0.64480531
78.186554 63.442608 -0.79123503
78.307144 63.43787 -0.39987946
78.601273 63.426315 0
89.522972 62.9972 0.71335787
64 64 -0
64 64 -0
69.801933 63.779064 -0.64311612
78.197548 63.459358 -0.79181105
78.313004 63.45496 -0.40002447
78.601959 63.443958 0
89.529358 63.027843 0.71350288
64 64 -0
64 64 -0
69.802193 63.786072 -0.64311612
78.198189 63.476513 -0.79181105
78.318832 63.472065 -0.40016946
78.58181 63.462368 0
89.546097 63.058117 0.71393842
64 64 -0
64 64 -0
69.822762 63.792358 -0.64536768
78.198814 63.493668 -0.79181105
78.298691 63.490108 -0.39958891
78.57206 63.480358 0
89.547211 63.088985 0.71393842
64 64 -0
64 64 -0
69.807785 63.799919 -0.64368063
78.194244 63.511005 -0.79152304
78.31488 63.506847 -0.40002447
78.541451 63.499043 0
89.527519 63.120567 0.71335787
64 64 -0
64 64 -0
69.802933 63.807106 -0.64311612
78.184479 63.5285 -0.79094589
78.31028 63.524319 -0.39987946
78.573273 63.515575 0
89.544151 63.150898 0.7137934
64 64 -0
64 64 -0
69.818405 63.813629 -0.64480531
78.185036 63.545639 -0.79094589
78.305649 63.541775 -0.39973447
78.55304 63.533852 0
89.539948 63.181931 0.71364784
64 64 -0
64 64 -0
69.752594 63.822697 -0.63748837
78.180412 63.562939 -0.79065788
78.295799 63.559383 -0.39944392
78.569199 63.550957 0
89.540924 63.212791 0.71364784
64 64 -0
64 64 -0
69.879684 63.822334 -0.65155995
78.191025 63.571194 -0.79123503
78.301254 63.567863 -0.39958891
78.600677 63.558815 0
89.562172 63.227592 0.71422845
64 64 -0
64 64 -0
69.722443 63.834007 -0.63411212
78.181183 63.588638 -0.79065788
78.312164 63.584839 -0.39987946
78.52317 63.57872 0
89.56308 63.25848 0.71422845
64 64 -0
64 64 -0
69.778503 63.839367 -0.64030224
78.186829 63.605633 -0.79094589
78.317841 63.60199 -0.40002447
78.471634 63.597713 0
89.647079 63.28706 0.71655065
64 64 -0
64 64 -0
69.717728 63.847973 -0.63354766
78.182129 63.622913 -0.79065788
78.318314 63.619289 -0.40002447
78.503334 63.614372 0
89.731041 63.315838 0.7188729
64 64 -0
64 64 -0
69.824585 63.852173 -0.64536768
78.187744 63.639915 -0.79094589
78.297981 63.637119 -0.39944392
80.767105 63.574455 0
89.799385 63.345215 0.72075957
64 64 -0
64 64 -0
69.829857 63.859089 -0.6459322
78.188171 63.657059 -0.79094589
78.293221 63.654522 -0.39929891
80.752007 63.595089 0
89.826126 63.375763 0.72148514
64 64 -0
64 64 -0
69.840172 63.865898 -0.64705688
78.173073 63.674561 -0.79008186
78.288437 63.671913 -0.39915392
80.783691 63.614616 0
89.852837 63.406372 0.72221071
64 64 -0
64 64 -0
69.784439 63.874172 -0.64086461
78.168266 63.691799 -0.78979272
78.309601 63.688725 -0.39973447
80.732124 63.636028 0
89.889908 63.436817 0.72322679
64 64 -0
64 64 -0
69.749039 63.881893 -0.63692605
78.178986 63.708706 -0.79036987
78.289185 63.706444 -0.39915392
80.711731 63.656673 0
89.984085 63.466183 0.72583902
64 64 -0
64 64 -0
69.749176 63.88884 -0.63692605
78.184494 63.725739 -0.79065788
78.299911 63.723507 -0.39944392
80.800598 63.675156 0
90.156174 63.494263 0.73062849
64 64 -0
64 64 -0
69.749306 63.895786 -0.63692605
78.174477 63.743065 -0.79008186
78.295044 63.740879 -0.39929891
80.748947 63.6964 0
90.276276 63.523701 0.73396683
64 64 -0
64 64 -0
69.734291 63.90992 -0.63523686
78.180229 63.777241 -0.79036987
78.285248 63.775589 -0.3990089
80.786049 63.736305 0
90.272141 63.587284 0.73382127
64 64 -0
64 64 -0
69.739471 63.916775 -0.63579917
78.185654 63.7943 -0.79065788
78.290703 63.792774 -0.39915392
80.765533 63.756889 0
90.199883 63.620083 0.73178959
64 64 -0
64 64 -0
69.724342 63.923912 -0.63411212
78.165199 63.811714 -0.78950471
78.264961 63.810387 -0.39842835
80.750221 63.777355 0
90.143158 63.6525 0.73019296
64 64 -0
64 64 -0
69.734581 63.930706 -0.63523686
78.165421 63.828831 -0.78950471
78.280754 63.827438 -0.39886335
80.823334 63.796715 0
90.065628 63.685032 0.72801626
64 64 -0
64 64 -0
69.744812 63.937523 -0.63636154
78.165619 63.845947 -0.78950471
78.265381 63.84486 -0.39842835
80.771507 63.817608 0
89.946457 63.717827 0.72467792
64 64 -0
64 64 -0
69.749985 63.944416 -0.63692605
78.150269 63.863213 -0.78863955
78.296722 63.861797 -0.39929891
80.740494 63.838173 0
89.848061 63.750134 0.72192067
64 64 -0
64 64 -0
69.755119 63.951321 -0.63748837
78.150421 63.88031 -0.78863955
78.276093 63.87925 -0.39871836
80.792717 63.85796 0
89.71843 63.782463 0.71829236
64 64 -0
64 64 -0
69.750099 63.958313 -0.63692605
78.135056 63.897522 -0.78777552
78.291824 63.896385 -0.39915392
80.740845 63.878628 0
89.578377 63.814556 0.71437401
64 64 -0
64 64 -0
69.750122 63.961784 -0.63692605
78.176498 63.905785 -0.79008186
78.286697 63.905052 -0.3990089
80.730515 63.888813 0
64 64 0
64 64 -0
64 64 -0
69.750168 63.968735 -0.63692605
78.176598 63.922916 -0.79008186
78.291992 63.922287 -0.39915392
80.67337 63.90934 0
64 64 0
64 64 -0
64 64 -0
69.760353 63.975639 -0.63805073
78.181847 63.940025 -0.79036987
78.26088 63.93969 -0.3982828
80.652649 63.929573 0
64 64 0
64 64 -0
64 64 -0
69.745132 63.982647 -0.63636154
69.8162 63.98243 -0.48482403
78.176743 63.957176 -0.79008186
78.292137 63.956825 -0.39915392
80.694366 63.94957 0
89.319099 63.923515 0.70711726
64 64 -0
64 64 -0
69.77565 63.989532 -0.63973993
69.862419 63.989376 -0.48867533
78.176788 63.974304 -0.79008186
78.245415 63.974182 -0.3978478
80.647575 63.969826 0
89.324364 63.954102 0.70726228
64 64 -0
64 64 -0
69.740074 63.996532 -0.63579917
69.836761 63.996475 -0.48653591
78.161285 63.991444 -0.7892167
78.26622 63.991383 -0.39842835
80.663193 63.989933 0
89.319214 63.984703 0.70711726
64 64 -0
64 64 -0
69.760406 64.003479 -0.63805073
69.759743 64.003479 -0.48011598
78.176804 64.008568 -0.79008186
78.307777 64.008644 -0.39958891
80.647598 64.010056 0
89.303612 64.015289 0.70668173
64 64 -0
64 64 -0
69.724838 64.010376 -0.63411212
69.698128 64.01033 -0.47498035
78.135399 64.02562 -0.78777552
78.250603 64.025826 -0.39799279
80.673592 64.03022 0
89.319168 64.045891 0.70711726
64 64 -0
64 64 -0
69.734978 64.017326 -0.63523686
69.63652 64.017029 -0.4698464
78.259491 64.043076 -0.79469341
78.276543 64.043129 -0.39871836
80.694366 64.05043 0
89.313904 64.076469 0.7069723
64 64 -0
64 64 -0
69.740028 64.024277 -0.63579917
69.636497 64.023834 -0.4698464
78.187019 64.059998 -0.79065788
78.266098 64.060333 -0.39842835
80.699493 64.070625 0
89.308586 64.107033 0.70682675
64 64 -0
64 64 -0
69.734917 64.031181 -0.63523686
69.59539 64.030426 -0.46642268
69.65728 64.030762 -0.31528834
78.234818 64.0774 -0.39755723
80.67337 64.09066 0
89.303246 64.137581 0.70668173
64 64 -0
64 64 -0
69.729797 64.038078 -0.63467449
69.585075 64.037117 -0.46556592
69.760696 64.038284 -0.32105416
78.20874 64.094429 -0.39683169
80.709686 64.111046 0
89.303055 64.168159 0.70668173
64 64 -0
64 64 -0
69.7145 64.044884 -0.63298529
69.662041 64.044472 -0.47198582
69.812363 64.045654 -0.32393655
78.208611 64.111595 -0.39683169
80.615845 64.130501 0
89.297646 64.198692 0.70653671
64 64 -0
64 64 -0
69.699188 64.051651 -0.6312961
69.687645 64.051544 -0.47412527
69.755424 64.052162 -0.32076615
78.229256 64.128952 -0.39741224
80.719772 64.15152 0
89.318176 64.229446 0.70711726
64 64 -0
64 64 -0
69.688972 64.058434 -0.63017142
69.651634 64.058044 -0.47112906
78.098465 64.144806 -0.78575718
78.229088 64.146149 -0.39741224
80.797653 64.172531 0
89.323074 64.260094 0.70726228
64 64 -0
64 64 -0
69.78035 64.066353 -0.64030224
69.764496 64.06617 -0.48054352
78.093109 64.161781 -0.78546917
78.228905 64.163338 -0.39741224
80.781815 64.192642 0
89.317543 64.290627 0.70711726
64 64 -0
64 64 -0
69.775192 64.073273 -0.63973993
69.713081 64.072487 -0.47626469
78.211861 64.180321 -0.79209906
78.197502 64.180138 -0.39654112
80.78157 64.212921 0
89.311989 64.321152 0.7069723
64 64 -0
64 64 -0
69.739525 64.079758 -0.63579917
69.682198 64.078964 -0.47369769
78.123703 64.196266 -0.78719836
78.192085 64.19722 -0.39639613
80.765686 64.232979 0
89.295982 64.351524 0.70653671
64 64 -0
64 64 -0
69.724197 64.086464 -0.63411212
69.728302 64.086525 -0.47754899
64 64 -0
78.259384 64.215385 -0.3982828
80.833038 64.254265 0
89.305923 64.382248 0.70682675
64 64 -0
64 64 -0
69.754616 64.090401 -0.63748837
69.538307 64.087006 -0.46171463
64 64 -0
78.233276 64.223595 -0.39755723
80.832886 64.264435 0
89.305687 64.397537 0.70682675
64 64 -0
64 64 -0
69.698608 64.096405 -0.6312961
64 64 -0
64 64 -0
78.352509 64.242813 -0.4008956
80.749306 64.283363 0
89.305191 64.428108 0.70682675
64 64 -0
64 64 -0
69.754387 64.104309 -0.63748837
64 64 -0
69.811592 64.105347 -0.32393655
78.43013 64.261566 -0.40307227
80.759346 64.303787 0
89.299461 64.458595 0.70668173
64 64 -0
64 64 -0
64 64 -0
64 64 -0
64 64 -0
78.170021 64.273979 -0.39581555
80.852631 64.325851 0
89.298889 64.489159 0.70668173
64 64 -0
64 64 -0
64 64 -0
64 64 -0
64 64 -0
78.138512 64.290466 -0.394945
80.873039 64.346642 0
89.298279 64.51973 0.70668173
64 64 -0
64 64 -0
64 64 -0
64 64 -0
64 64 -0
64 64 -0
80.836197 64.366234 0
89.297638 64.550301 0.70668173
64 64 -0
64 64 -0
64 64 -0
64 64 -0
64 64 -0
78.423508 64.331192 -0.40292725
80.835739 64.386581 0
89.30735 64.5811 0.7069723
64 64 -0
64 64 -0
64 64 -0
64 64 -0
64 64 -0
78.334785 64.346481 -0.40046003
80.757202 64.405037 0
89.296234 64.611427 0.70668173
64 64 -0
64 64 -0
64 64 -0
64 64 -0
64 64 -0
78.261627 64.361961 -0.39842835
80.725494 64.424492 0
89.311066 64.642387 0.70711726
64 64 -0
64 64 -0
64 64 -0
64 64 -0
64 64 -0
78.120911 64.375458 -0.39450943
80.834229 64.447601 0
89.28949 64.672424 0.70653671
64 64 -0
64 64 -0
64 64 -0
64 64 -0
64 64 -0
78.213943 64.395119 -0.39712167
78.497643 64.403008 0
89.293846 64.703125 0.70668173
64 64 -0
64 64 -0
64 64 -0
64 64 -0
64 64 -0
78.19268 64.41169 -0.39654112
78.439926 64.418869 0
89.292984 64.733688 0.70668173
64 64 -0
64 64 -0
64 64 -0
64 64 -0
64 64 -0
78.129852 64.426956 -0.39480001
78.553856 64.439774 0
89.292076 64.764244 0.70668173
64 64 -0
64 64 -0
64 64 -0
64 64 -0
64 64 -0
64 64 -0
78.548119 64.457191 0
89.296326 64.794968 0.70682675
64 64 -0
64 64 -0
64 64 -0
64 64 -0
64 64 -0
64 64 -0
64 64 0
89.279778 64.825027 0.70639175
64 64 -0
64 64 -0
64 64 -0
64 64 -0
64 64 -0
64 64 -0
64 64 0
89.283951 64.855743 0.70653671
64 64 -0
64 64 -0
64 64 -0
64 64 -0
64 64 -0
64 64 -0
64 64 0
89.272499 64.885933 0.7062462
64 64 -0
64 64 -0
64 64 -0
64 64 -0
64 64 -0
64 64 -0
78.535324 64.527122 0
