# .PCD v0.7 - Point Cloud Data file format
VERSION 0.7
FIELDS x y z
SIZE 4 4 4
TYPE F F F
COUNT 1 1 1
WIDTH 1678
HEIGHT 1
VIEWPOINT 0 0 0 1 0 0 0
POINTS 1678
DATA ascii
80.355843 56.591248 0.50146538
69.518974 61.508087 -0.99833804
70.57811 61.029869 -0.99565178
74.555466 59.234024 -0.9654054
79.084694 57.188999 -0.92240059
79.379852 57.055729 -0.47128418
79.367149 57.061466 0
80.369514 56.608879 0.5016104
69.530991 61.510704 -0.99996638
72.21859 60.301113 -0.99827969
74.556541 59.248886 -0.9649778
79.078773 57.213593 -0.92153656
79.374031 57.080711 -0.47084919
79.460968 57.04158 0
80.397392 56.620132 0.50219095
69.524979 61.521431 -0.99833804
70.580696 61.047829 -0.99496025
72.204506 60.319366 -0.99602813
74.552917 59.265842 -0.96412271
79.096397 57.227589 -0.92211258
79.401344 57.090782 -0.47142974
79.455116 57.066662 0
80.439491 56.625061 0.50320709
69.527969 61.528111 -0.99833804
72.218216 60.325138 -0.99715281
74.572678 59.272316 -0.9654054
79.109283 57.243725 -0.92240059
79.423904 57.103039 -0.47186473
79.5205 57.059845 0
80.48159 56.630085 0.50422263
69.488823 61.549591 -0.99100095
70.581436 61.06181 -0.99426609
72.201874 60.33839 -0.9949013
74.575531 59.278706 -0.9654054
79.118088 57.250748 -0.9226886
79.432808 57.110245 -0.47200975
79.538956 57.062855 0
80.519257 56.625214 0.50523871
69.478249 61.562248 -0.98855841
70.607903 61.059566 -0.99772626
72.224861 60.340038 -0.99715281
74.567169 59.297745 -0.96412271
79.140411 57.262707 -0.92355376
79.464874 57.118324 -0.47273585
79.590118 57.062592 0
80.684837 56.575455 0.51002818
69.521851 61.550835 -0.99589235
72.252502 60.33968 -0.99996668
74.582222 59.306355 -0.9649778
79.143814 57.283104 -0.92326576
79.558678 57.099094 -0.47534809
79.669846 57.049786 0
80.741295 56.574554 0.51147932
69.542892 61.549515 -0.99915218
72.247635 60.35376 -0.998842
74.606667 59.310841 -0.96668971
79.161377 57.297226 -0.92384177
79.662071 57.075871 -0.47825089
79.730606 57.045574 0
80.740761 56.598988 0.51118934
69.477989 61.586113 -0.98692691
70.627708 61.079491 -0.99911189
72.261322 60.359634 -0.99996668
74.607628 59.325729 -0.96626216
79.155273 57.321804 -0.92297775
79.79406 57.040321 -0.48202422
79.715179 57.075077 0
80.759193 56.615036 0.51147932
69.521637 61.574844 -0.99426085
70.635818 61.085484 -0.99980342
72.242455 60.379833 -0.99715281
74.589767 59.348873 -0.96412271
79.16333 57.340118 -0.92297775
79.964233 56.988358 -0.48695868
79.742599 57.085701 0
80.753822 56.641563 0.51104379
72.256142 60.385715 -0.99827969
74.618896 59.351379 -0.96626216
79.176102 57.356373 -0.92326576
79.958405 57.013908 -0.48652312
79.784309 57.090122 0
80.943604 56.582619 0.51655877
69.432335 61.629711 -0.97714734
72.251183 60.399765 -0.99715281
74.619804 59.366264 -0.96583456
79.193596 57.370583 -0.92384177
79.957314 57.037346 -0.48623314
79.873741 57.073814 0
80.852524 56.64674 0.513511
69.512253 61.602764 -0.99100095
70.641747 61.111557 -0.99911189
72.255524 60.409737 -0.99715281
74.639503 59.372963 -0.96711725
79.21109 57.384815 -0.92441893
80.022888 57.031773 -0.48797426
79.925056 57.074318 0
80.947189 56.629799 0.51612377
69.555984 61.591728 -0.99833804
70.645233 61.119583 -0.99911189
72.269196 60.415668 -0.99827969
74.649811 59.383774 -0.96754646
79.214333 57.405254 -0.92413092
80.064682 57.036667 -0.48899037
79.985947 57.070793 0
81.089577 56.592419 0.52018714
70.648705 61.127617 -0.99911189
72.259514 60.431709 -0.9965905
74.650658 59.398685 -0.96711725
79.22229 57.423645 -0.92413092
80.092163 57.04784 -0.48957092
79.984764 57.094238 0
81.232094 56.555363 0.52425104
69.552696 61.609074 -0.99670655
72.282494 60.433655 -0.998842
74.660934 59.409523 -0.96754646
79.23497 57.439999 -0.92441893
80.114876 57.061119 -0.49000648
80.036118 57.095036 0
81.24585 56.574139 0.524396
70.651024 61.145668 -0.99842042
72.286797 60.443665 -0.998842
74.661743 59.424438 -0.96711725
79.247635 57.456375 -0.92470694
80.151894 57.068306 -0.49087703
80.111404 57.085682 0
81.259583 56.592934 0.52454102
69.531197 61.634159 -0.99181831
70.617561 61.169495 -0.99288315
72.258377 60.46767 -0.9949013
74.615356 59.45953 -0.96241087
79.255531 57.4748 -0.92470694
80.160255 57.087826 -0.49087703
80.124527 57.103107 0
81.235085 56.628094 0.52352548
69.474937 61.666042 -0.98122454
70.630196 61.173561 -0.99426609
72.276665 60.471672 -0.9965905
74.611374 59.476391 -0.96155411
79.253891 57.497292 -0.92413092
80.182945 57.101242 -0.49131259
80.152 57.114433 0
81.315674 56.618362 0.52570212
69.577835 61.630138 -0.99915218
72.285599 60.479691 -0.99715281
74.640472 59.479172 -0.96369517
79.266495 57.51371 -0.92441893
80.22953 57.104542 -0.49247372
80.217796 57.109531 0
81.362846 56.623032 0.52686328
69.585243 61.634953 -0.99996638
70.673973 61.173939 -0.99980342
72.294518 60.487724 -0.99771518
74.645935 59.492031 -0.96369517
79.293381 57.52409 -0.9255721
80.300064 57.097816 -0.49436039
80.269241 57.110867 0
81.371742 56.644016 0.52686328
70.645035 61.195656 -0.99496025
72.270676 60.509602 -0.99433893
74.651367 59.504898 -0.96369517
79.296432 57.544586 -0.92528409
80.375412 57.089233 -0.49639207
80.373459 57.090054 0
81.366249 56.671074 0.52642769
69.575851 61.650841 -0.99752069
70.660583 61.193832 -0.99703479
72.282135 60.510658 -0.99546361
74.658813 59.509342 -0.96412271
79.309853 57.549812 -0.92586011
80.489738 57.052715 -0.49973041
80.416008 57.083782 0
81.452087 56.64727 0.52889496
69.555901 61.667145 -0.99344665
72.314468 60.508858 -0.998842
74.6595 59.524208 -0.96369517
79.317635 57.568317 -0.92586011
80.56041 57.046494 -0.50161707
80.424347 57.103622 0
81.49929 56.652267 0.53005606
69.581512 61.664322 -0.99752069
72.328049 60.514988 -0.99996668
74.679092 59.531155 -0.9649778
79.320625 57.588825 -0.9255721
80.573586 57.064503 -0.50176209
80.514297 57.089317 0
81.57048 56.647339 0.53194273
69.575218 61.67487 -0.99589235
72.308807 60.534832 -0.99715281
74.689224 59.542084 -0.9654054
79.318802 57.611328 -0.92499495
80.572357 57.088539 -0.50147152
80.599495 57.077221 0
81.603348 56.658566 0.53266883
69.596283 61.674019 -0.99915218
74.680389 59.560909 -0.96412271
79.336075 57.62587 -0.9255721
80.580688 57.10857 -0.50147152
80.6511 57.079304 0
81.616997 56.677849 0.53281385
70.686699 61.230278 -0.99842042
72.34063 60.5452 -0.99996668
74.681007 59.575783 -0.96369517
79.353317 57.64045 -0.92614812
80.560211 57.140537 -0.50060099
80.649826 57.103416 0
64 64 0
69.54705 61.710182 -0.98937261
74.700569 59.582821 -0.9649778
79.341866 57.666901 -0.92499495
80.592499 57.150639 -0.5013265
80.706268 57.103676 0
64 64 0
69.590958 61.699963 -0.99670655
70.688721 61.24836 -0.99772626
72.325455 60.575031 -0.99715281
74.701157 59.597702 -0.96455026
79.373436 57.675598 -0.92643726
80.913155 57.042179 -0.51076043
80.743462 57.111988 0
82.085564 56.559868 0.54616612
72.32959 60.585091 -0.99715281
74.706467 59.610638 -0.96455026
79.371483 57.698105 -0.92586011
80.902313 57.070507 -0.51017988
80.814377 57.10656 0
82.238785 56.522587 0.55052
72.319595 60.600925 -0.99546361
74.730774 59.61581 -0.96626216
79.379089 57.716682 -0.92586011
80.920288 57.087006 -0.51046991
80.817879 57.128849 0
82.257423 56.540703 0.55081004
72.337822 60.605232 -0.99715281
74.717041 59.636524 -0.96455026
79.396263 57.731365 -0.92643726
81.053764 57.056507 -0.51424325
80.888832 57.123661 0
82.35305 56.5275 0.55342227
72.332504 60.619125 -0.99602813
74.727058 59.647549 -0.9649778
79.389442 57.75581 -0.9255721
81.091042 57.065392 -0.51511437
81.003227 57.101025 0
82.405403 56.532097 0.55472839
69.568085 61.748608 -0.99018681
70.695923 61.29258 -0.99634326
72.369553 60.615868 -0.99996668
74.727554 59.662434 -0.96455026
79.406555 57.770535 -0.92614812
81.128311 57.074364 -0.51598489
81.030853 57.11377 0
82.448143 56.540703 0.55574447
69.616661 61.736858 -0.99833804
72.373634 60.625984 -0.99996668
74.761353 59.663891 -0.96711725
79.41407 57.789154 -0.92614812
81.175232 57.079525 -0.51714605
81.05365 57.128513 0
82.375198 56.596016 0.55327725
69.578094 61.760231 -0.99100095
72.372993 60.637997 -0.99940437
74.733246 59.690285 -0.96412271
79.402359 57.815495 -0.92499495
81.246269 57.075111 -0.51903272
81.100578 57.13361 0
82.388954 56.616291 0.55342227
69.548683 61.779819 -0.98529857
70.696388 61.320595 -0.99496025
72.367622 60.651886 -0.99827969
74.738449 59.703255 -0.96412271
79.395432 57.83987 -0.92413092
81.283585 57.08437 -0.51990384
81.210342 57.113674 0
82.54744 56.578663 0.55792171
69.546776 61.788357 -0.98448437
70.713593 61.323116 -0.99703479
72.385811 60.656361 -0.99996668
74.757927 59.710533 -0.9654054
79.393242 57.862312 -0.92355376
81.282257 57.109112 -0.51961327
81.208969 57.138332 0
82.56604 56.597237 0.55821174
69.621574 61.762466 -0.99752069
72.359505 60.672699 -0.9965905
74.770065 59.713234 -0.96626216
79.372925 57.881176 -0.92211258
81.411949 57.069588 -0.5233866
81.275978 57.123711 0
82.681564 56.564247 0.56155008
69.610504 61.774723 -0.99507815
72.391853 60.671562 -0.99996668
74.756149 59.733822 -0.96455026
79.370697 57.903564 -0.92153656
81.444458 57.081055 -0.52411216
81.284271 57.144588 0
82.758163 56.560005 0.56358176
72.372246 60.691044 -0.99715281
74.761292 59.746822 -0.96455026
79.4021 57.91264 -0.92297775
81.49147 57.086857 -0.52527326
81.466812 57.096603 0
82.742973 56.592228 0.5628562
69.579071 61.802776 -0.98855841
72.371513 60.703022 -0.9965905
74.747314 59.767353 -0.96283841
79.409447 57.931252 -0.92297775
81.59169 57.071812 -0.52803105
81.484818 57.113903 0
82.790596 56.599644 0.5640173
69.613922 61.796886 -0.99426085
70.732712 61.35783 -0.99772626
72.380219 60.711285 -0.99715281
74.771538 59.772839 -0.96455026
79.411934 57.951771 -0.9226886
81.662933 57.068394 -0.52991772
81.536728 57.117924 0
82.755974 56.639446 0.56271064
69.630394 61.798267 -0.99670655
70.735901 61.365967 -0.99772626
72.384186 60.721413 -0.99715281
74.776642 59.785858 -0.96455026
79.414421 57.972282 -0.92240059
81.700333 57.078388 -0.5307883
81.690445 57.082256 0
84.705597 55.903198 0.62090862
69.63765 61.80328 -0.99752069
72.411812 60.722324 -0.99996668
74.786499 59.79702 -0.9649778
79.426506 57.989033 -0.9226886
81.790993 57.067707 -0.53325552
81.689102 57.10741 0
84.608841 55.96973 0.61771584
69.589622 61.829769 -0.98855841
72.39682 60.739845 -0.99771518
74.805939 59.804482 -0.96626216
79.438599 58.005802 -0.92297775
81.799362 57.089211 -0.53325552
81.711975 57.123138 0
84.657288 55.979591 0.61887693
72.405502 60.748158 -0.99827969
74.806213 59.819389 -0.96583456
79.426529 58.031925 -0.92182457
81.90947 57.071346 -0.53630334
81.739685 57.137032 0
84.65242 56.010181 0.6184414
72.395195 60.763802 -0.9965905
74.820831 59.828762 -0.96668971
79.438553 58.04871 -0.92211258
81.893593 57.102337 -0.53557777
81.762527 57.152863 0
84.671768 56.031403 0.61873198
74.816284 59.84552 -0.96583456
79.426414 58.074791 -0.92095941
81.926163 57.114647 -0.53630334
82.052597 57.066086 0
84.666817 56.061977 0.61829638
69.641594 61.840908 -0.99589235
72.431458 60.773201 -0.99996668
74.830879 59.854923 -0.96668971
79.438393 58.091587 -0.92124742
82.016983 57.104736 -0.53877056
82.031799 57.099064 0
84.671547 56.08881 0.61815137
72.430611 60.785202 -0.99940437
74.835876 59.868015 -0.96668971
79.450363 58.108395 -0.92153656
82.068993 57.109848 -0.54007667
82.010941 57.131989 0
84.681091 56.113792 0.61815137
72.420227 60.800808 -0.99771518
74.831276 59.884754 -0.96583456
79.428452 58.138096 -0.91980624
82.218185 57.078159 -0.5442856
82.165184 57.098301 0
84.646889 56.155399 0.61684525
72.419342 60.812782 -0.99715281
74.850632 59.892395 -0.96711725
79.445206 58.153076 -0.92038339
82.348038 57.054184 -0.54791391
82.14917 57.129467 0
84.651474 56.182198 0.6166997
69.670464 61.861225 -0.99915218
72.437454 60.817574 -0.998842
74.845985 59.90913 -0.96626216
79.442574 58.1754 -0.91980624
82.351562 57.07819 -0.54776895
82.274345 57.107315 0
84.641479 56.214485 0.61611974
72.435593 60.841541 -0.99771518
74.87027 59.929951 -0.96754646
79.446922 58.216358 -0.91923022
82.572639 57.046028 -0.55386448
82.261688 57.162453 0
84.694283 56.25164 0.61713529
69.667633 61.881828 -0.99752069
72.4375 60.846638 -0.99771518
74.848663 59.945511 -0.9654054
79.450409 58.225693 -0.91923022
82.606033 57.046337 -0.55473506
82.43158 57.111534 0
84.698959 56.264141 0.61713529
69.679459 61.885223 -0.99915218
72.460358 60.849743 -0.99996668
74.86319 59.955036 -0.96626216
79.433128 58.253395 -0.91778791
82.663132 57.050686 -0.55618674
82.59111 57.077503 0
84.70343 56.29097 0.61699027
69.621765 61.914436 -0.98855841
72.435577 60.870571 -0.9965905
74.868073 59.968163 -0.96626216
79.440056 58.272049 -0.91778791
82.803055 57.024441 -0.56010509
82.614082 57.094547 0
84.673752 56.330452 0.61582917
69.64283 61.914375 -0.99181831
72.444115 60.879005 -0.99715281
74.872932 59.9813 -0.96626216
79.432426 58.296082 -0.91692388
82.835846 57.038158 -0.56083065
82.705406 57.086369 0
84.702499 56.348232 0.61640972
72.452644 60.887455 -0.99771518
74.901863 59.985573 -0.96840155
79.439308 58.314735 -0.91692388
82.946648 57.023216 -0.56387842
82.699112 57.114365 0
84.711731 56.373253 0.61640972
69.643196 61.929726 -0.99100095
72.456398 60.897671 -0.99771518
74.897079 60.002281 -0.96754646
79.441292 58.335182 -0.91663474
83.052643 57.010315 -0.56678122
82.692749 57.142345 0
84.696541 56.40723 0.61568415
72.464928 60.906143 -0.99827969
74.901901 60.01545 -0.96754646
79.433563 58.359165 -0.91577071
83.119644 57.011932 -0.56852287
82.847672 57.111336 0
84.734978 56.421543 0.61655474
69.694641 61.926453 -0.99915218
70.791374 61.527107 -0.99703479
74.901871 60.030388 -0.96711725
79.430641 58.381359 -0.91519356
83.250153 56.990589 -0.57215124
82.880432 57.125214 0
84.714828 56.457268 0.61568415
72.472382 60.926605 -0.99827969
74.916321 60.040058 -0.96797401
79.427704 58.403534 -0.91461754
83.395386 56.964241 -0.57621461
82.937668 57.13028 0
84.738586 56.476986 0.61611974
72.49041 60.931671 -0.99996668
74.892113 60.063725 -0.9654054
79.414993 58.429211 -0.91346437
83.540718 56.938225 -0.58027852
83.087906 57.101864 0
84.762314 56.496758 0.61655474
69.599808 61.983944 -0.98122454
72.479782 60.94709 -0.99827969
74.930679 60.064713 -0.96840155
79.421715 58.447842 -0.91346437
83.612801 56.938957 -0.58216518
83.208855 57.084389 0
84.751801 56.528893 0.61597419
69.704597 61.954002 -0.99915218
72.473892 60.960773 -0.99715281
74.9161 60.084854 -0.96668971
79.423546 58.468224 -0.91317636
83.704468 56.932838 -0.5846324
83.241684 57.09882 0
84.78038 56.546951 0.61655474
69.702415 61.962559 -0.99833804
72.463196 60.976147 -0.99546361
74.940163 60.091141 -0.96840155
79.425331 58.488609 -0.91288722
83.761925 56.939171 -0.58608353
83.431366 57.057278 0
84.750221 56.586056 0.61539358
72.495575 60.976147 -0.998842
74.944878 60.104362 -0.96840155
79.436867 58.505512 -0.91317636
83.799828 56.952595 -0.58695465
83.429924 57.084255 0
84.808136 56.593704 0.61684525
69.679359 61.986259 -0.99344665
72.499222 60.986416 -0.998842
74.925385 60.126167 -0.96626216
79.438606 58.525906 -0.91288722
83.823029 56.97131 -0.58739018
83.47261 57.095558 0
93.236481 53.633568 0.86632681
69.705086 61.984894 -0.99752069
72.502861 60.996685 -0.998842
74.944588 60.134239 -0.96754646
79.454971 58.541115 -0.91346437
83.836403 56.993538 -0.5875352
83.62326 57.068825 0
93.302887 53.64986 0.86792344
72.501694 61.008648 -0.99827969
74.96376 60.142357 -0.9688291
79.446915 58.564945 -0.91259921
83.805634 57.031311 -0.58637404
83.65126 57.085629 0
93.305557 53.688728 0.86763293
69.653961 62.018307 -0.98774111
72.495697 61.022285 -0.99715281
74.953896 60.160698 -0.96754646
79.453468 58.583614 -0.91259921
83.848373 57.043213 -0.58739018
83.679245 57.102493 0
93.308197 53.727577 0.86734289
69.636513 62.028244 -0.98448437
72.497498 61.02742 -0.99715281
74.961052 60.165623 -0.96797401
79.456741 58.592949 -0.91259921
83.940865 57.024323 -0.59000242
83.909401 57.035328 0
93.329124 53.740139 0.86777848
69.713562 62.009037 -0.99752069
72.510689 61.034344 -0.99827969
74.97052 60.177181 -0.96840155
79.463264 58.611629 -0.91259921
84.081764 57.002254 -0.59392077
83.947289 57.049114 0
93.336578 53.777298 0.86763293
69.697281 62.022427 -0.99426085
72.495064 61.051292 -0.99602813
74.975136 60.190441 -0.96840155
79.455093 58.63541 -0.91173404
84.104942 57.021408 -0.5943563
84.009766 57.054447 0
93.353828 53.811043 0.86777848
72.51783 61.054916 -0.99827969
74.974884 60.205379 -0.96797401
79.442032 58.660843 -0.91058201
84.123169 57.042316 -0.59464633
84.023056 57.076931 0
93.371025 53.844826 0.86792344
69.688034 62.041023 -0.99181831
72.521385 61.065212 -0.99827969
74.984306 60.216976 -0.96840155
79.443565 58.681194 -0.91029286
84.195435 57.044636 -0.596533
84.026489 57.102821 0
93.393097 53.876938 0.86821347
69.685707 62.049507 -0.99100095
72.510498 61.08046 -0.9965905
74.979172 60.233578 -0.96754646
79.435318 58.704891 -0.90942883
84.23333 57.058922 -0.59740412
84.079117 57.111828 0
93.415146 53.909088 0.86850405
69.734848 62.040394 -0.99915218
72.518822 61.089104 -0.99715281
74.988564 60.24519 -0.96797401
79.456375 58.718533 -0.91029286
84.305626 57.061531 -0.59929079
84.309059 57.06036 0
93.437141 53.941277 0.86879402
72.546387 61.091213 -0.99996668
74.997948 60.256817 -0.96840155
79.448067 58.742207 -0.90942883
84.348442 57.074348 -0.60030693
84.302643 57.089935 0
93.449272 53.976856 0.86879402
72.540276 61.104801 -0.998842
75.017059 60.26516 -0.96968585
79.439705 58.765862 -0.90856367
84.479836 57.057232 -0.60393524
84.394775 57.086067 0
93.476135 54.007439 0.86922956
72.548576 61.113499 -0.99940437
75.006966 60.283405 -0.96840155
79.431313 58.789486 -0.90769851
84.611282 57.040428 -0.60756302
84.57077 57.054104 0
93.498024 54.039742 0.86951959
69.68335 62.088615 -0.98855841
72.55687 61.122211 -0.99996668
75.016304 60.295074 -0.9688291
79.437592 58.808136 -0.90769851
84.767456 57.015633 -0.6119175
84.64328 57.057396 0
93.51004 54.07539 0.86951959
69.718452 62.084499 -0.99426085
72.560341 61.132553 -0.99996668
75.025658 60.306751 -0.96925831
79.448761 58.82515 -0.90798652
84.87442 57.007725 -0.61481977
84.82933 57.022827 0
93.536797 54.106102 0.86995512
69.702003 62.097668 -0.99100095
75.015495 60.324951 -0.96797401
79.450096 58.845459 -0.90769851
84.942009 57.013218 -0.61656141
84.84761 57.044708 0
93.538879 54.145084 0.86966515
72.547958 61.15966 -0.99771518
75.000443 60.344742 -0.96626216
79.451408 58.865761 -0.9074105
84.97509 57.030334 -0.61728698
90.975662 55.036446 0
93.560623 54.177509 0.86995512
69.758209 62.094368 -0.99996638
72.556221 61.168388 -0.99827969
75.034088 60.348358 -0.9688291
79.447769 58.887688 -0.90683335
85.008156 57.047523 -0.61801255
91.055649 55.046158 0
93.592201 54.206703 0.87053567
75.03849 60.361694 -0.9688291
79.449028 58.907974 -0.90654534
85.006683 57.07616 -0.61772251
91.08622 55.072334 0
93.589203 54.247349 0.87010014
72.553375 61.192245 -0.99715281
75.038002 60.376637 -0.96840155
79.430603 58.934711 -0.90510416
84.881729 57.145309 -0.61380416
64 64 0
93.620712 54.276627 0.87068069
72.571259 61.197845 -0.998842
75.052147 60.38678 -0.96925831
79.431793 58.954964 -0.90481615
86.821281 56.539162 -0.67055053
91.068138 55.150757 0
93.632446 54.312424 0.87068069
75.054321 60.393459 -0.96925831
79.439758 58.962685 -0.90510416
64 64 -0
91.113068 55.154198 0
93.64325 54.328712 0.87082624
69.693268 62.150146 -0.98692691
72.576324 61.213387 -0.998842
75.029366 60.41634 -0.96668971
79.436005 58.984539 -0.90452814
64 64 -0
91.103928 55.193398 0
93.659851 54.36293 0.87097126
72.56517 61.228443 -0.99715281
75.05323 60.423347 -0.96840155
79.456802 58.998421 -0.90539217
64 64 -0
91.139328 55.21814 0
93.676407 54.397179 0.87111622
72.583031 61.234119 -0.998842
75.052658 60.438278 -0.96797401
79.46283 59.017101 -0.90539217
86.793274 56.654865 -0.66880882
91.125137 55.258926 0
93.697891 54.429852 0.87140679
69.742294 62.157204 -0.99426085
72.586365 61.244492 -0.998842
75.056953 60.451637 -0.96797401
79.454079 59.040527 -0.90452814
88.345932 56.186981 -0.71409011
91.135681 55.291706 0
93.73912 54.456219 0.87227738
69.749237 62.162632 -0.99507815
72.580002 61.257965 -0.99771518
75.061234 60.465 -0.96797401
79.46006 59.059204 -0.90452814
88.345467 56.219566 -0.71380013
91.166008 55.318161 0
93.735771 54.496906 0.87184179
72.593002 61.265251 -0.998842
75.060608 60.479923 -0.96754646
79.480797 59.073185 -0.90539217
86.666245 56.786392 -0.66430992
91.141777 55.362038 0
93.757141 54.52969 0.87213236
69.72538 62.185497 -0.99018681
72.581757 61.280243 -0.99715281
75.084435 60.487087 -0.96925831
79.46701 59.098145 -0.904239
86.694763 56.807503 -0.66489047
91.152191 55.39484 0
93.778465 54.562515 0.87242234
72.609268 61.282967 -0.99996668
75.078865 60.503574 -0.96840155
79.472923 59.116837 -0.904239
86.683609 56.841187 -0.66430992
91.152634 55.43079 0
93.7948 54.596939 0.87256736
69.743896 62.194889 -0.99263245
72.612541 61.293373 -0.99996668
75.092888 60.513882 -0.96925831
79.493622 59.130882 -0.90510416
86.662491 56.877953 -0.6634388
91.182831 55.457363 0
93.801186 54.634506 0.87242234
72.610962 61.305298 -0.99940437
75.092178 60.528828 -0.9688291
79.479744 59.155788 -0.90395099
86.685959 56.900684 -0.66387439
91.168304 55.497986 0
93.837273 54.662762 0.8731479
72.609367 61.317215 -0.998842
75.096367 60.542233 -0.9688291
79.470764 59.179115 -0.90308583
86.694527 56.928101 -0.66387439
91.183517 55.529274 0
93.848534 54.698822 0.8731479
72.60775 61.329124 -0.99827969
75.095642 60.557163 -0.96840155
79.481537 59.196274 -0.90337497
86.708008 56.953987 -0.66401935
91.173851 55.568295 0
93.86969 54.731812 0.87343848
69.653374 62.253315 -0.975519
72.615822 61.338028 -0.998842
75.094887 60.572086 -0.96797401
79.477432 59.21804 -0.90279782
86.726448 56.978363 -0.66430992
91.184021 55.601135 0
93.890785 54.764843 0.87372845
75.113747 60.580963 -0.96925831
79.493095 59.2337 -0.90337497
86.700142 57.016525 -0.66329384
91.204102 55.630924 0
93.906906 54.799435 0.87387407
72.631943 61.355881 -0.99996668
75.14241 60.58688 -0.97139776
79.479065 59.258484 -0.9022218
86.708565 57.043961 -0.66329384
91.21917 55.662277 0
93.932892 54.831017 0.87430906
69.740044 62.249306 -0.98937261
72.62056 61.370758 -0.99827969
75.136696 60.603344 -0.970541
79.47982 59.278706 -0.90193266
86.697067 57.077469 -0.66271323
91.219254 55.698212 0
93.953903 54.864155 0.87459958
72.638306 61.376751 -0.99996668
75.126068 60.621273 -0.96925831
79.485512 59.297413 -0.90193266
86.710403 57.103382 -0.66285878
91.229271 55.73111 0
93.96492 54.900356 0.87459958
69.771584 62.251114 -0.99426085
72.630173 61.384914 -0.998842
75.142838 60.623535 -0.970541
79.473511 59.311264 -0.90106863
86.694672 57.123131 -0.66227823
91.214355 55.753593 0
93.97538 54.916954 0.87474459
72.623581 61.398281 -0.99771518
75.127243 60.642933 -0.9688291
79.479164 59.329964 -0.90106863
86.688034 57.155064 -0.6618427
91.219299 55.787991 0
94.006233 54.947178 0.87532514
69.808937 62.255108 -0.99996638
72.636459 61.405777 -0.998842
75.141136 60.653423 -0.96968585
79.474876 59.35165 -0.90049148
86.681351 57.18697 -0.66140711
91.234207 55.819382 0
94.027092 54.980453 0.87561518
69.782639 62.270626 -0.99507815
72.634727 61.417667 -0.99827969
75.13533 60.66983 -0.9688291
79.475533 59.371834 -0.90020347
86.679619 57.217358 -0.66111714
91.249054 55.850807 0
94.047935 55.01376 0.87590569
69.723137 62.295952 -0.98448437
72.63784 61.428104 -0.99827969
75.149193 60.680355 -0.96968585
79.456329 59.397915 -0.89876229
86.672852 57.249214 -0.66068161
91.248886 55.886711 0
94.068726 55.047112 0.87619573
72.645813 61.437099 -0.998842
75.153198 60.693829 -0.96968585
79.48172 59.410713 -0.89991546
86.666039 57.281048 -0.66024601
91.268661 55.916679 0
94.089493 55.080494 0.87648624
69.689308 62.32098 -0.97796464
72.644028 61.448986 -0.99827969
75.162102 60.705856 -0.97011346
79.477318 59.432358 -0.8993383
86.654205 57.314323 -0.65966547
91.263428 55.954056 0
94.110214 55.113918 0.87677628
69.79567 62.297203 -0.99589235
72.66172 61.455139 -0.99996668
75.141449 60.726582 -0.96797401
79.458015 59.458351 -0.89789712
86.652298 57.344631 -0.65937549
91.268143 55.988472 0
94.125923 55.148838 0.87692183
69.79026 62.31398 -0.99426085
72.653221 61.480335 -0.99827969
75.164124 60.749207 -0.96925831
79.468948 59.49572 -0.89789712
86.648361 57.405205 -0.65879488
91.282433 56.055843 0
94.157196 55.218765 0.87721181
72.661133 61.48938 -0.998842
75.163094 60.764133 -0.9688291
79.454506 59.520176 -0.89674395
86.646317 57.435471 -0.65850437
91.302002 56.085918 0
94.17778 55.252312 0.87750238
75.176872 60.774773 -0.96968585
79.459908 59.538853 -0.89674395
86.649246 57.464279 -0.65835935
91.306549 56.120358 0
94.198303 55.285904 0.87779236
72.676941 61.507515 -0.99996668
75.185692 60.786865 -0.97011346
79.425507 59.568962 -0.89443761
86.657127 57.49165 -0.65835935
91.321045 56.15192 0
94.23378 55.315224 0.87851793
72.670181 61.520794 -0.998842
75.189568 60.800385 -0.97011346
79.401016 59.596134 -0.89270842
86.664978 57.519032 -0.65835935
91.305489 56.192093 0
94.244255 55.351765 0.87851793
75.19342 60.813908 -0.97011346
79.39637 59.61758 -0.89213127
86.657791 57.550694 -0.65792382
91.339928 56.217968 0
94.269684 55.384045 0.87895352
70.770416 62.081711 -0.97073394
72.685913 61.538986 -0.99996668
75.192329 60.828831 -0.96968585
79.411621 59.633366 -0.89270842
86.660568 57.579491 -0.6577788
91.349312 56.251007 0
94.280067 55.420624 0.87895352
70.130493 62.271023 -0.87868243
75.210983 60.838177 -0.97097021
79.46666 59.637951 -0.89559078
86.65332 57.611103 -0.6573438
91.353653 56.285473 0
94.30542 55.452988 0.87938905
70.079437 62.29335 -0.87106794
72.68206 61.562725 -0.998842
75.204895 60.854504 -0.97011346
79.451996 59.662235 -0.89443761
86.666023 57.637077 -0.65748876
91.367958 56.317123 0
94.315727 55.489609 0.87938905
70.070808 62.299728 -0.86968499
72.693314 61.565235 -0.99996668
75.21669 60.858501 -0.97097021
79.449638 59.672966 -0.8941496
86.649841 57.65638 -0.65690821
91.352547 56.339275 0
94.320862 55.507927 0.87938905
69.814011 62.379223 -0.99507815
70.039024 62.316498 -0.8648392
72.671776 61.582561 -0.99715281
75.210579 60.874817 -0.97011346
79.439903 59.695805 -0.89328444
86.652496 57.685143 -0.65676326
91.381836 56.366741 0
94.351128 55.53899 0.8799696
70.007202 62.333187 -0.8599934
75.219292 60.886993 -0.970541
79.440109 59.715847 -0.89299643
86.655083 57.713913 -0.6566177
91.375992 56.404007 0
94.366333 55.57428 0.88011461
69.941513 62.359142 -0.85030442
70.086456 62.319115 -0.69940245
75.213158 60.903282 -0.96968585
79.420349 59.74139 -0.89155525
86.647652 57.745438 -0.65618265
91.390182 56.435703 0
94.386497 55.608215 0.88040459
70.011215 62.34771 -0.8599934
70.137474 62.313004 -0.7050302
75.226784 60.914116 -0.970541
79.450424 59.75317 -0.89299643
86.65519 57.772808 -0.65618265
91.364166 56.478462 0
94.401627 55.643562 0.88054961
70.00354 62.357616 -0.85861039
70.110107 62.328465 -0.70165402
75.245361 60.923618 -0.9718253
79.46553 59.769112 -0.89357358
86.662697 57.800186 -0.65618265
91.368217 56.512901 0
94.421738 55.677555 0.88084018
69.852303 62.40659 -0.99996638
69.976479 62.37278 -0.85445875
70.087616 62.342522 -0.69884014
75.244125 60.938553 -0.97139776
79.480606 59.785084 -0.8941496
86.645088 57.834404 -0.65545654
91.367188 56.548714 0
94.401688 55.722511 0.8799696
70.114021 62.343262 -0.87383664
70.069992 62.355194 -0.69658858
75.252762 60.950802 -0.9718253
79.480698 59.805145 -0.89386159
86.652519 57.861771 -0.65545654
91.371155 56.583149 0
94.236099 55.806824 0.87488961
64 64 -0
70.004608 62.380695 -0.85791892
70.076874 62.36121 -0.69715095
75.261391 60.963066 -0.97225285
79.490746 59.82251 -0.8941496
86.65992 57.889149 -0.65545654
91.365021 56.620293 0
93.362938 56.081501 0.8493467
70.084084 62.367149 -0.86899084
70.07885 62.368553 -0.69715095
75.25515 60.979332 -0.97139776
79.490791 59.842567 -0.89386159
86.632164 57.925957 -0.654441
91.39402 56.647968 0
93.1968 56.164135 0.84426671
70.076363 62.377087 -0.86760783
70.085724 62.374588 -0.69771326
75.258789 60.992935 -0.97139776
79.480804 59.865295 -0.89299643
86.62944 57.955994 -0.65415043
89.688187 57.139046 0
94.662247 55.810543 0.88635522
70.058922 62.389587 -0.8648392
70.068039 62.387165 -0.69546175
75.257454 61.007858 -0.97097021
79.480789 59.88533 -0.89270842
86.626694 57.986008 -0.65386045
89.676338 57.175438 0
94.69722 55.840927 0.88708073
64 64 -0
70.012367 62.409737 -0.85791892
70.074905 62.393196 -0.69602621
75.285873 61.0149 -0.9731096
79.485756 59.904037 -0.89270842
86.628922 58.014679 -0.65371543
89.68959 57.205135 0
64 64 0
70.028824 62.413174 -0.8599934
70.05719 62.405708 -0.6937747
70.05658 62.405869 -0.52205431
79.480675 59.925388 -0.89213127
86.626076 58.044678 -0.65342486
91.434265 56.779129 0
64 64 0
70.040459 62.417915 -0.86137903
70.073845 62.409172 -0.69546175
70.048584 62.415787 -0.52119917
79.480591 59.945408 -0.89184326
86.618164 58.07597 -0.65298933
91.422829 56.817558 0
64 64 0
69.869286 62.470325 -0.99996638
70.022942 62.430279 -0.85861039
70.070847 62.417793 -0.69489938
70.030617 62.428276 -0.51948732
79.485474 59.964115 -0.89184326
86.610237 58.107231 -0.65255433
94.79586 55.973862 0
64 64 0
70.034538 62.43504 -0.8599934
70.072754 62.425129 -0.69489938
70.007668 62.442009 -0.51734787
79.470314 59.988022 -0.89069009
86.597214 58.139774 -0.65197378
64 64 0
64 64 0
70.050064 62.434914 -0.86207056
70.068794 62.430069 -0.69433701
69.99369 62.449497 -0.51606357
79.472733 59.997372 -0.89069009
86.590683 58.156036 -0.65168321
64 64 0
94.806122 56.030788 0.88867742
70.013077 62.452232 -0.85653323
70.055916 62.441204 -0.69264781
70.010483 62.4529 -0.51734787
79.467552 60.018646 -0.89011407
86.592697 58.184631 -0.65153819
64 64 0
94.835854 56.062836 0.88925797
70.048973 62.450783 -0.86137903
70.047958 62.451042 -0.69152313
69.987488 62.46653 -0.51520848
79.477356 60.036057 -0.89040208
86.589645 58.214508 -0.65124822
94.849701 56.099007 0
94.835342 56.102684 0.88896745
64 64 -0
70.036247 62.461811 -0.85930187
69.980873 62.475922 -0.68364167
64 64 -0
79.467087 60.058594 -0.88953692
86.58654 58.244377 -0.65095764
94.864281 56.135002 0
94.859978 56.136097 0.88940299
69.840988 62.519081 -0.99344665
69.960281 62.488838 -0.84822732
69.963005 62.488144 -0.68139017
69.986183 62.482269 -0.51477927
79.486893 60.073471 -0.89040208
86.578362 58.275505 -0.65052211
94.878799 56.171021 0
94.879524 56.170837 0.88969296
70.06427 62.470268 -0.86276203
69.959908 62.496593 -0.6808278
64 64 -0
79.506676 60.08839 -0.89126724
86.605423 58.297707 -0.65110266
94.878136 56.210888 0
94.904083 56.204342 0.89012855
70.022316 62.488586 -0.85653323
69.94693 62.507507 -0.6791386
70.004776 62.492989 -0.51606357
79.49633 60.110909 -0.89040208
86.592133 58.330086 -0.65052211
94.897629 56.245667 0
94.913483 56.241688 0.89012855
70.04361 62.491005 -0.85930187
69.92408 62.520847 -0.67632473
69.981689 62.506466 -0.51392418
79.49601 60.130886 -0.89011407
86.614098 58.353611 -0.65095764
94.922134 56.279221 0
94.917793 56.280304 0.88998353
64 64 -0
70.00161 62.509193 -0.85307312
69.871628 62.541481 -0.6701346
69.98349 62.513695 -0.51392418
79.500671 60.149612 -0.89011407
86.620903 58.380939 -0.65095764
94.946579 56.312828 0
94.952316 56.311405 0.8907091
70.00827 62.515244 -0.85376459
70.00164 62.51688 -0.68476856
69.975304 62.523388 -0.51306742
79.50531 60.168346 -0.89011407
86.617599 58.410767 -0.65066767
94.986176 56.342735 0
94.981758 56.343826 0.89128965
69.793968 62.575626 -0.98366708
70.053909 62.511726 -0.8599934
69.860321 62.559315 -0.66844541
69.972107 62.531834 -0.51263982
79.494858 60.190788 -0.88924891
83.00103 59.328842 -0.54646283
95.015617 56.37521 0
94.980881 56.383751 0.89099908
70.050835 62.520233 -0.85930187
69.896622 62.557945 -0.67238617
69.978859 62.537834 -0.51306742
79.494431 60.210743 -0.8889609
82.956169 59.364151 -0.54501116
95.009636 56.416401 0
95.005219 56.417484 0.89143467
69.835815 62.580284 -0.99018681
69.99411 62.541775 -0.85099596
70.016846 62.536247 -0.68589324
69.955681 62.551125 -0.51092798
79.498993 60.229469 -0.8889609
82.91127 59.399342 -0.54356003
95.018776 56.453876 0
94.989113 56.461094 0.8907091
69.995872 62.549019 -0.85099596
70.072945 62.530369 -0.6920855
69.957428 62.558323 -0.51092798
79.498512 60.249413 -0.88867289
82.835999 59.441753 -0.54123777
95.027878 56.491364 0
94.993149 56.499763 0.89056408
70.05616 62.542175 -0.85930187
70.094482 62.532951 -0.69433701
69.92424 62.573929 -0.50793344
79.497993 60.269356 -0.88838375
81.846199 59.704102 -0.51264715
91.798409 57.308426 0
95.088081 56.516544 0.89303136
64 64 -0
70.018875 62.558842 -0.85376459
70.046814 62.552151 -0.68870711
69.94593 62.576309 -0.50964528
79.487411 60.291695 -0.88751972
81.507721 59.807953 -0.50277817
91.771042 57.350506 0
95.086983 56.556538 0.89274079
64 64 -0
70.064537 62.555653 -0.8599934
70.0634 62.555923 -0.69039631
69.942635 62.584686 -0.50921613
79.491882 60.310413 -0.88751972
81.371216 59.862823 -0.4987143
91.753738 57.390095 0
95.101021 56.592896 0.89288634
64 64 -0
69.968651 62.586109 -0.84615278
70.045357 62.56794 -0.68814474
69.919365 62.597782 -0.50707668
79.486252 60.33152 -0.88694257
81.209335 59.923347 -0.49392483
91.88324 57.394844 0
95.120056 56.62809 0.89317632
69.975235 62.592171 -0.84684432
70.052025 62.574078 -0.68870711
69.926048 62.60376 -0.50750422
79.520889 60.343117 -0.88867289
81.118149 59.966785 -0.4911676
89.601379 57.968048 0
95.139069 56.663311 0.89346689
69.932129 62.60611 -0.84061551
70.067734 62.574249 -0.69039631
69.961884 62.599121 -0.51050043
79.507988 60.356045 -0.88780773
81.080109 59.986637 -0.49000648
89.716484 57.957325 0
90.211105 57.841103 0.75196302
69.899597 62.621273 -0.83576971
70.079361 62.579266 -0.69152313
64 64 -0
79.51741 60.373608 -0.88809574
81.044464 60.016739 -0.48884538
89.72377 57.988403 0
90.172989 57.883419 0.7506569
69.989227 62.60796 -0.84822732
70.041473 62.595818 -0.68702006
69.965248 62.613533 -0.51050043
79.50666 60.395878 -0.88723058
81.018883 60.044399 -0.48797426
89.756355 58.013599 0
90.155052 57.920929 0.74993134
69.932259 62.628754 -0.83992404
70.072861 62.596252 -0.69039631
69.946915 62.625366 -0.50878853
79.521095 60.412285 -0.88780773
81.059097 60.05677 -0.48899037
89.763573 58.044724 0
90.121872 57.961903 0.74877024
64 64 -0
69.880112 62.648289 -0.83230954
70.09436 62.599037 -0.69264781
69.928551 62.637154 -0.50707668
79.51532 60.433361 -0.88723058
64 64 -0
89.780884 58.073528 0
90.103828 57.99929 0.74804467
69.945328 62.640858 -0.84130698
70.081184 62.609802 -0.69095862
69.935196 62.643173 -0.50750422
79.529716 60.449802 -0.88780773
69.796867 62.674797 -0.16607191
89.798187 58.102364 0
90.085716 58.036629 0.74731857
64 64 -0
69.878479 62.663612 -0.83161807
70.033318 62.628414 -0.68533087
69.931831 62.651485 -0.50707668
79.533997 60.468571 -0.88780773
69.600838 62.72673 -0.16041188
89.80529 58.133537 0
90.077713 58.071606 0.74688357
64 64 -0
69.889862 62.668507 -0.83300108
70.020096 62.639065 -0.68364167
69.923447 62.660915 -0.50622159
79.538254 60.487343 -0.88780773
69.571953 62.740376 -0.15954077
89.797127 58.168167 0
90.074715 58.105415 0.746593
69.85231 62.684429 -0.82746375
69.991997 62.653027 -0.68026543
69.935074 62.665821 -0.50707668
79.527336 60.509525 -0.88694257
69.42643 62.780163 -0.15533186
89.78891 58.202766 0
90.081818 58.136925 0.746593
64 64 -0
69.868584 62.688217 -0.82954091
69.953941 62.669136 -0.67576236
69.936676 62.672997 -0.50707668
79.531548 60.52829 -0.88694257
69.438057 62.784451 -0.15562242
89.785751 58.236202 0
90.09903 58.166176 0.74688357
64 64 -0
69.860382 62.697483 -0.8281579
69.945633 62.678535 -0.67463768
69.928268 62.682396 -0.50622159
79.495331 60.556038 -0.88463622
69.322838 62.816956 -0.15228407
89.8181 58.261719 0
90.100975 58.198845 0.74673802
64 64 -0
69.906036 62.69482 -0.83438671
69.892639 62.697784 -0.66844541
69.939873 62.687344 -0.50707668
79.555046 60.562481 -0.88780773
69.380081 62.811054 -0.15388075
89.779274 58.303024 0
90.163788 58.218052 0.74833465
64 64 -0
69.82431 62.720264 -0.82262063
69.904129 62.702724 -0.66957009
69.93644 62.695625 -0.50664914
69.768051 62.732624 -0.32912526
69.285095 62.838741 -0.15112351
89.78614 58.334179 0
90.23674 58.235172 0.75022131
64 64 -0
69.840538 62.724091 -0.82469511
69.940445 62.702267 -0.67351085
69.932999 62.703892 -0.50622159
69.663475 62.762772 -0.32307249
69.322014 62.837368 -0.15213907
89.782806 58.367561 0
90.319847 58.25024 0.75239855
69.898186 62.718964 -0.99507815
69.856789 62.727955 -0.82677227
69.887383 62.72131 -0.66731858
69.924522 62.713245 -0.50536484
69.69529 62.763031 -0.32480171
69.298027 62.849312 -0.15141352
89.743805 58.408665 0
90.418182 58.262196 0.75501078
69.863228 62.733974 -0.82746375
69.923698 62.720917 -0.67125928
69.946144 62.716068 -0.50707668
69.696777 62.769913 -0.32480171
69.334976 62.848038 -0.15242963
69.400612 62.833862 0
90.496201 58.278767 0.75704247
69.90126 62.733223 -0.99507815
69.820602 62.750538 -0.821235
69.920273 62.729141 -0.67069697
69.947693 62.723255 -0.50707668
69.708366 62.774628 -0.32537773
69.407494 62.839214 -0.15446131
69.488525 62.821819 0
90.609795 58.28788 0.76009029
64 64 -0
69.822105 62.757568 -0.821235
69.926773 62.735237 -0.67125928
69.909058 62.739014 -0.50365293
69.674446 62.789082 -0.3233605
69.276756 62.873947 -0.15068796
69.545944 62.816502 0
90.723404 58.297264 0.76313806
64 64 -0
69.863625 62.759819 -0.82677227
70.003632 62.730206 -0.67970312
69.931427 62.745476 -0.50536484
69.651329 62.804718 -0.32191932
69.395721 62.858784 -0.15402575
64 64 0
104.18638 55.500404 1.1471573
69.82093 62.776196 -0.82054347
69.975319 62.743736 -0.67632473
69.958054 62.747364 -0.50750422
69.622383 62.817936 -0.32018903
69.259796 62.894169 -0.1501074
64 64 0
104.21696 55.544693 1.1477379
64 64 -0
69.797852 62.788361 -0.81708336
69.986786 62.748875 -0.67745155
69.934441 62.759815 -0.50536484
69.639008 62.821556 -0.32105416
69.332336 62.885643 -0.15213907
69.571281 62.835709 0
104.24242 55.590103 1.1481735
69.875664 62.779507 -0.98937261
69.858261 62.783119 -0.82538927
70.067902 62.739574 -0.68645775
69.940956 62.765942 -0.50579238
69.584709 62.839943 -0.31788269
69.237015 62.912167 -0.14938185
69.557388 62.845619 0
104.25763 55.63768 1.1483184
69.884293 62.78513 -0.82884943
70.054489 62.749989 -0.68476856
69.957535 62.770008 -0.50707668
69.51519 62.861336 -0.31384715
69.329926 62.899582 -0.15199408
69.518005 62.860752 0
104.28297 55.683174 1.148754
69.93187 62.782776 -0.99833804
69.920151 62.785183 -0.83369255
70.065941 62.755264 -0.68589324
69.913757 62.786495 -0.50322539
69.491226 62.873196 -0.31240594
69.31089 62.910202 -0.15141352
69.504097 62.870556 0
104.293 55.731853 1.148754
69.916702 62.793339 -0.83300108
70.052521 62.76564 -0.68420619
69.829704 62.811081 -0.49595034
69.482437 62.881901 -0.31182882
69.24601 62.930119 -0.14952683
69.464653 62.885529 0
104.31822 55.777435 1.149189
69.873901 62.809456 -0.82677227
70.029083 62.778004 -0.68139017
69.629883 62.858917 -0.47883332
69.412819 62.902912 -0.30779329
69.24221 62.937492 -0.14938185
69.491501 62.886963 0
104.36887 55.817898 1.1503501
64 64 -0
64 64 -0
70.035553 62.784283 -0.68195462
69.515495 62.889038 -0.46898964
69.434425 62.905365 -0.30894646
69.248581 62.942802 -0.14952683
69.467331 62.898739 0
104.38382 55.865658 1.1504951
64 64 -0
70.061928 62.786591 -0.68476856
69.466499 62.905777 -0.4647108
69.390099 62.92107 -0.30635208
69.249855 62.949142 -0.14952683
69.473755 62.904324 0
104.38853 55.915478 1.1503501
69.910019 62.824425 -0.99344665
69.952003 62.816074 -0.83715534
70.073349 62.791935 -0.68589324
69.462769 62.913387 -0.46428159
64 64 -0
69.30719 62.944336 -0.15112351
69.362778 62.933277 0
104.42886 55.958199 1.1512212
69.736847 62.866074 -0.80670023
70.054863 62.803215 -0.68364167
69.474159 62.917995 -0.46513835
69.372391 62.93811 -0.30519894
69.293167 62.953773 -0.15068796
69.35894 62.940769 0
104.43855 56.007057 1.1512212
69.840096 62.852997 -0.98122454
69.954842 62.83046 -0.83715534
70.006447 62.820324 -0.67801392
69.475464 62.92461 -0.46513835
64 64 -0
69.223038 62.974186 -0.14865628
69.406197 62.938217 0
104.49406 56.046913 1.1525273
69.857758 62.856876 -0.8233121
70.042786 62.82077 -0.68195462
69.426376 62.941059 -0.46085951
69.385086 62.94912 -0.30577496
69.249771 62.975525 -0.14938185
69.397247 62.946743 0
64 64 0
69.99704 62.837219 -0.84268999
70.084122 62.820332 -0.68645775
69.4226 62.948597 -0.46043029
69.406662 62.951687 -0.30692813
69.2612 62.979893 -0.14967184
69.393417 62.954258 0
64 64 0
69.924553 62.8587 -0.83230954
70.055595 62.833454 -0.68307936
69.398659 62.960007 -0.45829087
69.362213 62.967026 -0.30433378
69.24202 62.990181 -0.14909129
69.363998 62.966682 0
64 64 0
69.999832 62.851715 -0.84268999
70.076965 62.836952 -0.68533087
69.394875 62.967495 -0.45786333
69.343132 62.977398 -0.30318061
69.294289 62.986744 -0.15054296
69.395927 62.967293 0
64 64 0
69.822624 62.892921 -0.97714734
69.937141 62.871147 -0.83369255
70.048416 62.849991 -0.68195462
69.401161 62.973057 -0.45829087
69.354538 62.981918 -0.30375773
69.249542 63.001881 -0.14923628
69.361374 62.980621 0
64 64 0
64 64 -0
70.011772 62.860718 -0.84407568
70.044106 62.854591 -0.68139017
69.376564 62.981098 -0.45615146
69.314491 62.992859 -0.30145139
69.270569 63.001183 -0.14981684
69.34153 62.987736 0
64 64 0
69.998352 62.87077 -0.84199852
69.935623 62.88258 -0.66900778
69.423195 62.979046 -0.46000275
69.341118 62.994499 -0.3028926
69.307526 63.00082 -0.15083295
69.352989 62.992264 0
64 64 0
64 64 -0
69.994781 62.878941 -0.84130698
69.717201 62.930851 -0.644243
69.368927 62.995979 -0.45529634
69.301651 63.00856 -0.30058625
69.25766 63.016785 -0.14938185
69.328629 63.003513 0
64 64 0
64 64 -0
70.094795 62.867859 -0.85515022
69.593582 62.96096 -0.63017142
69.360031 63.004345 -0.45443958
69.343536 63.007408 -0.3028926
69.238403 63.026936 -0.14880128
69.334938 63.009007 0
64 64 0
70.071487 62.879772 -0.85169011
69.509888 62.983395 -0.62060291
69.376381 63.008026 -0.45572388
69.339645 63.014805 -0.30260456
69.249786 63.031384 -0.14909129
69.300301 63.022064 0
64 64 0
64 64 -0
70.132042 62.876263 -0.8599934
69.501099 62.991886 -0.61947608
69.362419 63.0173 -0.45443958
69.32048 63.024986 -0.30145139
69.24585 63.038662 -0.14894629
69.332207 63.022839 0
64 64 0
69.975449 62.912418 -0.83784688
69.482315 63.002174 -0.61722451
69.338348 63.028378 -0.45230016
69.296211 63.036045 -0.3000102
69.221443 63.049652 -0.14822073
69.323128 63.031147 0
64 64 0
70.070557 62.902683 -0.85099596
69.483521 63.008797 -0.61722451
69.339523 63.034828 -0.45230016
69.322823 63.037846 -0.30145139
69.253265 63.050419 -0.14909129
69.34478 63.033875 0
64 64 0
69.935852 62.934441 -0.99426085
70.076836 62.90913 -0.85169011
69.464706 63.019016 -0.61497301
69.325516 63.044003 -0.45101583
69.293419 63.049763 -0.29972109
69.25441 63.056767 -0.14909129
69.351067 63.039417 0
64 64 0
70.107773 62.911194 -0.85584176
69.455887 63.027401 -0.61384827
69.336792 63.048634 -0.45187259
69.284393 63.057976 -0.29914507
69.214615 63.070412 -0.14793016
69.326607 63.050449 0
64 64 0
70.094261 62.9212 -0.85376459
69.452065 63.034882 -0.61328596
69.337936 63.055084 -0.45187259
69.285522 63.064362 -0.29914507
69.256676 63.069469 -0.14909129
69.276505 63.065956 0
64 64 0
64 64 -0
70.021446 62.941589 -0.84338415
69.458221 63.040588 -0.61384827
69.339073 63.061535 -0.45187259
69.286652 63.070747 -0.29914507
69.247566 63.077618 -0.14880128
69.282753 63.071434 0
64 64 0
64 64 -0
70.007889 62.951454 -0.84130698
69.419334 63.054176 -0.6093452
69.360435 63.064453 -0.45358446
69.287773 63.077137 -0.29914507
69.2845 63.077705 -0.14981684
69.319771 63.071552 0
64 64 0
64 64 -0
70.103088 62.942436 -0.85445875
69.445503 63.056385 -0.61215907
69.321091 63.077946 -0.45016074
69.293976 63.082645 -0.29943308
69.265129 63.087643 -0.14923628
69.192673 63.100197 0
64 64 0
64 64 -0
70.045021 62.960022 -0.84615278
69.411591 63.068996 -0.60822052
69.332306 63.082638 -0.45101583
69.259384 63.095181 -0.29741475
69.245758 63.097527 -0.14865628
69.198883 63.105591 0
64 64 0
64 64 -0
70.04628 62.967327 -0.84615278
69.407692 63.076393 -0.607656
69.323303 63.090805 -0.45016074
69.260475 63.101536 -0.29741475
69.25708 63.102116 -0.14894629
69.266655 63.100483 0
64 64 0
64 64 -0
70.022774 62.978828 -0.84268999
69.398796 63.084625 -0.60653132
69.314262 63.098957 -0.44930398
69.297264 63.101841 -0.29943308
69.237671 63.111946 -0.14836572
69.247208 63.110325 0
64 64 0
64 64 -0
69.974533 62.994434 -0.83576971
69.39489 63.091991 -0.60596901
69.305229 63.107082 -0.44844887
69.252441 63.115967 -0.29683873
69.21312 63.122585 -0.14764017
69.263687 63.114075 0
64 64 0
64 64 -0
70.014725 62.991405 -0.84130698
69.380394 63.097775 -0.60427982
69.285515 63.113686 -0.44673699
69.273376 63.115719 -0.2979919
69.234146 63.122299 -0.14822073
69.233414 63.122421 0
64 64 0
64 64 -0
70.134727 62.978901 -0.85791892
69.391495 63.102608 -0.6054045
69.306839 63.116699 -0.44844887
69.223427 63.130585 -0.29510951
69.255707 63.12521 -0.14880128
69.255005 63.125328 0
64 64 0
64 64 -0
70.096352 62.992859 -0.85238159
69.397606 63.108292 -0.60596901
69.307907 63.123112 -0.44844887
69.270401 63.129307 -0.29770386
69.267006 63.129868 -0.14909129
69.276596 63.128284 0
64 64 0
64 64 -0
70.072815 63.004284 -0.84892148
69.378624 63.118103 -0.60371745
69.303902 63.130356 -0.44802129
69.26123 63.137352 -0.29712674
69.216782 63.144642 -0.14764017
69.272514 63.135502 0
64 64 0
64 64 -0
70.029427 63.018875 -0.84268999
69.39975 63.121338 -0.60596901
69.274529 63.141716 -0.44545269
69.257172 63.144539 -0.29683873
69.217812 63.150944 -0.14764017
69.170807 63.158592 0
64 64 0
64 64 -0
69.926605 63.042957 -0.8281579
69.370697 63.132729 -0.60259062
69.305984 63.143177 -0.44802129
69.273521 63.148418 -0.29770386
69.239357 63.153934 -0.14822073
69.284882 63.146584 0
64 64 0
64 64 -0
69.888123 63.056469 -0.82262063
69.366722 63.140022 -0.60202825
69.296867 63.151215 -0.44716454
69.279655 63.153973 -0.2979919
69.204445 63.166023 -0.14720461
69.255058 63.157913 0
64 64 0
64 64 -0
69.909081 63.060432 -0.82538927
69.38282 63.144112 -0.60371745
69.272545 63.161644 -0.44502512
69.290878 63.15873 -0.29856792
69.246513 63.165783 -0.14836572
69.214951 63.170803 0
64 64 0
64 64 -0
64 64 -0
69.373802 63.152203 -0.60259062
69.288773 63.165615 -0.44630945
69.261246 63.16996 -0.29683873
69.242386 63.172935 -0.14822073
69.221085 63.176296 0
64 64 0
64 64 -0
64 64 -0
69.364792 63.160267 -0.60146594
69.24411 63.179153 -0.44245651
69.211143 63.184315 -0.29395634
69.248512 63.178467 -0.14836572
69.247803 63.178577 0
64 64 0
64 64 -0
69.340698 63.170647 -0.59865201
69.265388 63.182343 -0.44416836
69.227448 63.188232 -0.2948204
69.223831 63.188793 -0.14764017
69.202507 63.192108 0
64 64 0
64 64 -0
69.361786 63.174004 -0.60090357
69.261307 63.189484 -0.44374081
69.223312 63.195335 -0.29453239
69.224808 63.195107 -0.14764017
69.224037 63.195225 0
64 64 0
64 64 -0
69.337646 63.184326 -0.59808755
69.282578 63.192741 -0.44545269
69.229393 63.200867 -0.2948204
69.236038 63.199852 -0.14793016
69.255882 63.196819 0
64 64 0
64 64 -0
69.37381 63.185444 -0.60202825
69.268318 63.201431 -0.44416836
69.204788 63.211063 -0.29337922
69.267838 63.201504 -0.14880128
69.231125 63.207069 0
64 64 0
64 64 -0
69.339607 63.197227 -0.59808755
69.24897 63.210854 -0.44245651
69.221085 63.215046 -0.29424438
69.243111 63.211735 -0.14807573
69.232079 63.21339 0
64 64 0
64 64 -0
69.345612 63.202927 -0.59865201
69.239777 63.218708 -0.4416014
69.247612 63.217541 -0.29568556
64 64 -0
69.171249 63.228928 0
64 64 0
64 64 -0
69.346573 63.209389 -0.59865201
69.220398 63.228043 -0.43988952
69.228081 63.22691 -0.29453239
64 64 -0
69.203064 63.23061 0
64 64 0
69.322365 63.219536 -0.59583598
69.256889 63.229137 -0.4428857
69.198311 63.237728 -0.29280317
69.287048 63.224716 -0.14923628
69.260643 63.228588 0
64 64 0
64 64 -0
69.323303 63.225967 -0.59583598
69.298462 63.22958 -0.44630945
69.224823 63.240288 -0.29424438
69.251999 63.236336 -0.14822073
69.179153 63.246929 0
64 64 0
64 64 -0
69.34893 63.22554 -0.59865201
69.237953 63.241608 -0.44117382
69.220161 63.244186 -0.29395634
69.278168 63.235786 -0.14894629
69.189926 63.248566 0
64 64 0
64 64 -0
69.329742 63.234894 -0.5964005
69.259193 63.245022 -0.4428857
69.221077 63.250492 -0.29395634
