# .PCD v0.7 - Point Cloud Data file format
VERSION 0.7
FIELDS x y z
SIZE 4 4 4
TYPE F F F
COUNT 1 1 1
WIDTH 1644
HEIGHT 1
VIEWPOINT 0 0 0 1 0 0 0
POINTS 1644
DATA ascii
85.84922 54.324776 -0.66735774
90.400848 52.309235 0
92.121117 51.54747 0.8589251
69.494621 61.574821 -0.99018681
70.534134 61.116009 -0.98526865
71.980194 60.477757 -0.96619576
74.33239 59.43956 -0.94144088
78.431931 57.630127 -0.87915951
85.813339 54.372173 -0.66590607
90.376862 52.357956 0
92.074341 51.608734 0.85703844
69.429688 61.611313 -0.97796464
70.565178 61.111778 -0.98942298
72.012344 60.475124 -0.96957201
74.323807 59.458244 -0.94015819
78.425415 57.653824 -0.87829435
85.791672 54.413177 -0.66489047
90.367096 52.400314 0
92.117844 51.630104 0.85790956
69.450684 61.609936 -0.98122454
70.508934 61.145905 -0.98042554
72.011948 60.486847 -0.9690097
74.329285 59.470722 -0.94015819
78.423599 57.675407 -0.87771833
85.788956 54.445782 -0.66445494
90.352501 52.444717 0
92.166069 51.649487 0.8589251
69.46714 61.610592 -0.98366708
70.503174 61.157795 -0.97903991
72.025513 60.492458 -0.97013652
74.353554 59.474991 -0.94186842
78.445442 57.68663 -0.87858236
85.733826 54.501247 -0.66242325
90.309212 52.501583 0
92.161926 51.691856 0.85834455
70.529594 61.155636 -0.98250002
72.02507 60.504192 -0.96957201
74.344902 59.493649 -0.94058573
78.448318 57.706154 -0.87829435
85.750053 54.525444 -0.66256827
90.294464 52.545849 0
92.162498 51.732113 0.85790956
69.477448 61.621834 -0.98448437
70.487015 61.183506 -0.97557974
72.024628 60.515915 -0.9690097
74.350342 59.506149 -0.94058573
78.460655 57.721558 -0.87858236
85.747177 54.557941 -0.66213268
90.270088 52.594212 0
92.253555 51.733044 0.86023122
69.428986 61.64677 -0.975519
70.502533 61.181438 -0.9776569
72.008087 60.528847 -0.96675813
74.343628 59.516491 -0.93972898
78.450218 57.736462 -0.87771833
85.767189 54.56488 -0.66256827
90.305618 52.597668 0
92.079773 51.828651 0.85471618
69.472664 61.635693 -0.98285288
70.528954 61.179352 -0.98111701
72.021614 60.534492 -0.96788496
74.363182 59.522884 -0.94101328
78.46727 57.749828 -0.87829435
85.764252 54.597374 -0.66213268
90.30983 52.633587 0
92.318672 51.765724 0.86153734
69.493675 61.634487 -0.98611277
70.541565 61.183277 -0.98250002
72.025795 60.544186 -0.96788496
74.373291 59.533379 -0.94144088
78.484322 57.763218 -0.8788715
85.799484 54.613396 -0.66285878
90.376114 52.642746 0
92.342987 51.795837 0.86182791
69.541946 61.621635 -0.99426085
70.577248 61.17733 -0.98734581
72.048645 60.545868 -0.97013652
74.383392 59.543896 -0.94186842
78.501343 57.776649 -0.87944752
85.820351 54.635647 -0.66314882
90.432861 52.656155 0
92.32428 51.84444 0.86081177
69.549377 61.626385 -0.99507815
70.552979 61.197113 -0.98319417
72.066818 60.549606 -0.97182357
74.393509 59.55442 -0.94229764
78.527878 57.786037 -0.88060069
85.845985 54.655888 -0.66358435
90.446548 52.688103 0
92.224289 51.927715 0.85732895
69.388535 61.702877 -0.96573943
70.514809 61.222748 -0.97696275
72.042938 60.571312 -0.96844733
74.40831 59.562958 -0.94315273
78.535378 57.803596 -0.88060069
85.881165 54.672104 -0.66430992
90.393181 52.748638 0
92.19104 51.982212 0.85587728
70.518158 61.230621 -0.97696275
72.033035 60.586994 -0.96675813
74.385315 59.587578 -0.94058573
78.557137 57.815094 -0.88146585
85.849373 54.716835 -0.6630038
90.435509 52.768318 0
92.215118 52.012215 0.85616785
69.471451 61.68314 -0.97959304
70.586197 61.211105 -0.98665434
72.032486 60.598682 -0.96619576
74.37645 59.60614 -0.93930143
78.559822 57.834709 -0.88117671
75.911942 58.955944 -0.36127433
90.420288 52.812454 0
92.29657 52.017952 0.85819954
69.487915 61.683983 -0.98203874
70.580307 61.222973 -0.98526865
72.064667 60.596539 -0.96957201
74.405403 59.6087 -0.94144088
78.595871 57.840237 -0.88290703
75.860573 58.994587 -0.35953265
90.496124 52.818077 0
92.239204 52.082462 0.8560223
69.513489 61.681038 -0.98611277
70.546661 61.246487 -0.97973138
72.068771 60.606285 -0.96957201
74.420174 59.617294 -0.94229764
78.622375 57.849854 -0.8840602
75.818718 59.029068 -0.35808152
90.490425 52.858173 0
92.27755 52.106514 0.8567484
69.509964 61.698174 -0.98448437
70.539413 61.268112 -0.9776569
72.081657 60.623833 -0.97013652
74.440201 59.638535 -0.94315273
78.637192 57.885208 -0.8840602
75.734787 59.09771 -0.35517874
90.411621 52.966358 0
92.291817 52.180893 0.85631287
69.57206 61.680138 -0.99507815
70.524185 61.28373 -0.97488827
72.090416 60.631649 -0.97069889
74.426506 59.659042 -0.94144088
78.658882 57.896942 -0.88492423
75.702324 59.127872 -0.35401762
90.458572 52.984276 0
92.306076 52.215088 0.85631287
69.52919 61.705818 -0.98692691
70.559891 61.27816 -0.97973138
72.080391 60.64727 -0.9690097
74.445969 59.665741 -0.94272518
78.680588 57.908707 -0.88578939
75.698608 59.145996 -0.35372764
90.500702 53.004288 0
92.416298 52.209465 0.85921568
69.605049 61.682278 -0.99996638
70.600266 61.270752 -0.98526865
72.103226 60.649269 -0.9712612
74.45594 59.676407 -0.94315273
78.687935 57.926453 -0.88578939
75.690056 59.166092 -0.35329208
90.614975 52.994549 0
92.430527 52.243809 0.85921568
69.438751 61.758736 -0.96981347
70.561813 61.295929 -0.97903991
72.083778 60.668743 -0.96844733
74.465897 59.687088 -0.94358027
78.704842 57.940258 -0.88636655
75.638229 59.203983 -0.3515504
90.556084 53.056458 0
92.377434 52.305897 0.8571834
69.510048 61.737141 -0.98203874
70.606842 61.286709 -0.98526865
72.125404 60.663067 -0.9729504
74.456871 59.705582 -0.94229764
78.726494 57.952141 -0.88723058
75.600754 59.235813 -0.35024428
90.550026 53.096462 0
92.319443 52.369801 0.85500675
69.549377 61.728821 -0.98855841
70.619415 61.29089 -0.98665434
72.105919 60.68251 -0.97013652
74.466797 59.716278 -0.94272518
78.743378 57.966015 -0.88780773
75.568024 59.265583 -0.34908316
90.6017 53.112785 0
92.328674 52.405994 0.85486174
69.555321 61.730305 -0.98937261
70.569954 61.315765 -0.97903991
72.112625 60.68549 -0.97069889
74.450371 59.73037 -0.94101328
78.747017 57.974922 -0.88780773
75.556442 59.278473 -0.34864759
90.627548 53.120987 0
92.374138 52.407394 0.8560223
70.59642 61.314247 -0.98250002
72.140152 60.685715 -0.97351277
74.474548 59.735256 -0.94272518
78.754288 57.992748 -0.88780773
75.547714 59.298313 -0.3482126
90.573196 53.180645 0
92.383316 52.443645 0.85587728
70.608971 61.318443 -0.98388571
72.106476 60.710838 -0.9690097
74.489197 59.744061 -0.94358027
78.771111 58.006695 -0.88838375
75.519676 59.325947 -0.34719649
90.67305 53.17754 0
92.445427 52.458405 0.85732895
69.499359 61.776398 -0.97796464
70.607559 61.328308 -0.98319417
72.129288 60.713013 -0.9712612
74.480064 59.762505 -0.94229764
78.768761 58.028419 -0.88780773
75.472313 59.361301 -0.3455998
90.642685 53.227333 0
92.478622 52.484993 0.85790956
69.506622 61.781197 -0.97877884
70.620079 61.33255 -0.98457718
72.095551 60.738033 -0.96675813
74.49469 59.771336 -0.94315273
78.780762 58.044338 -0.88809574
75.463463 59.380989 -0.34516481
90.781197 53.208961 0
92.42984 52.544666 0.8560223
69.564346 61.765751 -0.98855841
70.576744 61.359241 -0.9776569
72.127785 60.736454 -0.97013652
74.504555 59.782108 -0.94358027
78.802353 58.056419 -0.8889609
64 64 -0
90.721771 53.270416 0
92.622093 52.507381 0.86139232
69.553268 61.777985 -0.98611277
70.621857 61.350418 -0.98388571
72.126991 60.748169 -0.96957201
74.495361 59.800522 -0.94229764
78.804718 58.076229 -0.88867289
64 64 -0
75.991493 59.201878 0
64 64 0
69.51004 61.803001 -0.97796464
70.625046 61.358421 -0.98388571
72.13092 60.757992 -0.96957201
74.490875 59.817013 -0.94144088
78.807053 58.096043 -0.88838375
64 64 -0
75.973114 59.226006 0
89.478401 53.841095 0.76604086
69.540245 61.798714 -0.98285288
70.572281 61.38866 -0.97557974
72.139565 60.765938 -0.97013652
74.534096 59.814526 -0.94486457
78.818993 58.112022 -0.88867289
75.437347 59.455639 -0.34371313
76.027237 59.221264 0
89.490662 53.871887 0.76604086
69.570473 61.794495 -0.98774111
70.608093 61.383671 -0.98042554
72.143463 60.775772 -0.97013652
74.510513 59.838593 -0.94229764
78.830902 58.128029 -0.8889609
75.4235 59.477116 -0.34313259
75.999138 59.249207 0
89.386917 53.948608 0.76255751
69.573128 61.801228 -0.98774111
70.639244 61.380611 -0.98457718
72.156799 60.781891 -0.9712612
74.525078 59.847534 -0.94315273
78.852432 58.140259 -0.88982606
75.414474 59.496639 -0.34269759
76.029076 59.254158 0
89.239517 54.042229 0.75776803
69.603394 61.797108 -0.99263245
70.675095 61.375786 -0.98942298
72.160683 60.791748 -0.9712612
74.520538 59.864006 -0.94229764
78.849861 58.161995 -0.88924891
75.371529 59.529449 -0.34124592
76.063858 59.257275 0
89.227348 54.082237 0.75704247
69.569229 61.818306 -0.98611277
70.636223 61.400322 -0.98319417
72.159828 60.803463 -0.97069889
74.539856 59.871109 -0.94358027
78.856903 58.179943 -0.88924891
75.357567 59.550777 -0.34066534
76.006577 59.296532 0
89.20546 54.125992 0.75602692
70.625328 61.413818 -0.98111701
72.187347 60.804085 -0.97351277
74.57354 59.872643 -0.94614893
78.868736 58.196022 -0.88953692
75.343567 59.572063 -0.34008479
75.866798 59.367821 0
64 64 0
69.579094 61.829979 -0.98692691
70.628448 61.421825 -0.98111701
72.172256 60.82135 -0.9712612
74.55938 59.892864 -0.94443703
78.86129 58.219612 -0.88867289
75.334396 59.591419 -0.3396498
75.819046 59.402912 0
64 64 0
69.627808 61.818855 -0.99507815
70.640907 61.426212 -0.98250002
72.161873 60.836739 -0.96957201
74.554749 59.90934 -0.94358027
78.873085 58.235706 -0.8889609
75.315491 59.614506 -0.33892423
75.76635 59.43977 0
64 64 0
69.542824 61.859493 -0.97959304
70.653381 61.430618 -0.98388571
72.170448 60.844769 -0.97013652
74.593216 59.909149 -0.94657648
78.880035 58.253681 -0.8889609
75.262604 59.650646 -0.33718255
75.757278 59.459618 0
64 64 0
69.594856 61.843285 -0.98855841
70.636208 61.44186 -0.98111701
72.172348 60.849705 -0.97013652
74.590904 59.917397 -0.94614893
78.878685 58.26453 -0.88867289
75.255524 59.661194 -0.33689201
64 64 0
89.190872 54.28936 0.7539947
70.634613 61.451675 -0.98042554
72.199867 60.850471 -0.9729504
74.576653 59.937557 -0.94443703
78.900078 58.276955 -0.88953692
75.231659 59.685974 -0.33602145
64 64 0
89.197746 54.321671 0.75384969
69.576973 61.865643 -0.98448437
70.632988 61.461494 -0.97973138
72.198921 60.862198 -0.97238809
74.576767 59.952175 -0.94400948
78.873177 58.307899 -0.88751972
75.222298 59.705124 -0.33558589
64 64 0
89.214272 54.350266 0.7539947
69.542595 61.886471 -0.97796464
70.636055 61.469509 -0.97973138
72.193207 60.875732 -0.9712612
74.586441 59.963131 -0.94443703
78.909035 58.314819 -0.88924891
75.217773 59.722385 -0.33529589
64 64 0
89.201637 54.389999 0.75326914
69.55899 61.887909 -0.98040724
70.667259 61.466835 -0.98388571
72.215973 60.878414 -0.97351277
74.605713 59.970451 -0.94572133
75.298981 59.707054 -0.67361724
75.203506 59.743328 -0.33471534
75.665016 59.567978 0
89.203522 54.424145 0.75297916
70.632774 61.489105 -0.97834837
72.219742 60.888344 -0.97351277
74.629784 59.975998 -0.94743323
75.284805 59.728035 -0.67246407
75.223206 59.751354 -0.33515033
75.602226 59.607872 0
89.210205 54.456451 0.75283355
69.568718 61.899601 -0.98122454
70.663963 61.4865 -0.98250002
72.218742 60.90007 -0.9729504
74.615425 59.996094 -0.94572133
75.323845 59.728893 -0.67448241
75.194305 59.777748 -0.33413476
75.641617 59.609035 0
89.216858 54.48875 0.75268859
69.677666 61.866341 -0.99996638
70.629417 61.508675 -0.97696275
72.227234 60.908215 -0.97351277
74.620255 60.008923 -0.94572133
75.362877 59.729843 -0.67649961
75.204262 59.789452 -0.33427978
75.588448 59.645077 0
89.19915 54.530193 0.751818
70.64183 61.513165 -0.97834837
72.221458 60.921719 -0.97238809
74.620247 60.023563 -0.94529217
75.416489 59.725437 -0.6793831
75.223946 59.797523 -0.33471534
75.583939 59.662735 0
89.200836 54.564297 0.75152743
69.617973 61.904251 -0.98855841
70.654221 61.517685 -0.97973138
72.215637 60.935211 -0.9712612
74.629868 60.034599 -0.94572133
75.431328 59.735622 -0.67995912
75.146248 59.841969 -0.33224809
75.598938 59.673096 0
89.202484 54.598381 0.75123745
69.54174 61.940315 -0.9747048
70.718353 61.503006 -0.98872882
72.228874 60.941597 -0.97238809
74.629822 60.04924 -0.94529217
75.480103 59.733219 -0.68255347
75.190231 59.840954 -0.33340922
75.565125 59.701618 0
89.208961 54.63065 0.75109243
69.618378 61.919556 -0.98774111
70.660202 61.533775 -0.97973138
72.246841 60.946251 -0.97407508
74.64904 60.056736 -0.94657648
75.519211 59.734516 -0.6845718
75.297592 59.816582 -0.33645701
75.580063 59.711987 0
89.21051 54.66473 0.75080192
70.6679 61.540081 -0.98042554
72.245766 60.957977 -0.97351277
74.663437 60.066051 -0.94743323
75.55349 59.737694 -0.68630213
75.302635 59.830238 -0.33645701
75.54129 59.742191 0
89.207138 54.700596 0.75036633
69.590919 61.945072 -0.98203874
70.727364 61.527374 -0.98872882
72.244667 60.969692 -0.9729504
74.658539 60.082485 -0.94657648
75.553757 59.753445 -0.68601298
75.395462 59.81163 -0.33906925
75.517128 59.766911 0
89.232994 54.725681 0.75080192
69.598038 61.95013 -0.98285288
70.711502 61.542408 -0.98596019
72.25309 60.977913 -0.97351277
74.658447 60.09713 -0.94614893
75.534599 59.776302 -0.6845718
75.483467 59.795025 -0.34153646
75.55645 59.768303 0
89.210014 54.768688 0.74978578
69.688751 61.924706 -0.99833804
70.686188 61.560833 -0.98180854
72.2472 60.991367 -0.97238809
74.663155 60.110012 -0.94614893
75.384201 59.846966 -0.67534757
75.542229 59.789318 -0.34313259
75.453972 59.821514 0
89.216278 54.800934 0.74964076
69.584389 61.970421 -0.97959304
70.665558 61.57748 -0.97834837
72.250824 61.001335 -0.97238809
74.658188 60.126408 -0.94529217
75.262794 59.90667 -0.66785139
75.566849 59.796165 -0.34371313
75.405212 59.854912 0
89.227371 54.831409 0.74964076
69.679802 61.943512 -0.99589235
70.715652 61.568459 -0.98526865
72.240105 61.016499 -0.97069889
74.653214 60.14278 -0.94443703
75.233704 59.932602 -0.66583419
75.586578 59.804836 -0.3441487
75.429787 59.861607 0
89.22377 54.86721 0.74920523
69.643845 61.960384 -0.98937261
70.674652 61.587864 -0.97903991
72.256248 61.016293 -0.97238809
74.674858 60.142239 -0.94614893
75.206955 59.949944 -0.66410387
75.633095 59.795944 -0.34545481
75.30011 59.916279 0
89.21463 54.887741 0.74877024
69.706764 61.945438 -0.99996638
70.701164 61.587433 -0.98250002
72.264626 61.024551 -0.9729504
74.665009 60.160358 -0.94486457
75.211845 59.96349 -0.66410387
75.633286 59.81176 -0.34530982
75.38829 59.899963 0
89.20607 54.925259 0.74818969
69.62085 61.984039 -0.98448437
70.680466 61.604 -0.97903991
72.263435 61.036255 -0.97238809
74.679321 60.169777 -0.94572133
75.221596 59.975288 -0.66439301
75.667679 59.815296 -0.34618038
75.373634 59.920757 0
89.221901 54.953968 0.74833465
69.674477 61.972542 -0.99344665
70.711708 61.60194 -0.98319417
72.267014 61.046242 -0.97238809
74.674263 60.186142 -0.94486457
75.221565 59.990593 -0.66410387
75.687408 59.82415 -0.34661594
64 64 0
89.213234 54.991444 0.7477541
69.681572 61.977741 -0.99426085
70.724045 61.606689 -0.98457718
72.28492 61.051125 -0.97407508
74.693375 60.193878 -0.94614893
75.177673 60.0215 -0.6612215
75.712029 59.831306 -0.34719649
64 64 0
89.214317 55.025398 0.74746412
69.58152 62.02095 -0.97633314
70.74585 61.608109 -0.98734581
72.283691 61.062836 -0.97351277
74.702805 60.205086 -0.94657648
75.201981 60.028095 -0.66237468
75.770943 59.826355 -0.34879315
64 64 0
89.21534 55.059349 0.74717355
69.667801 61.998062 -0.99100095
70.725082 61.624619 -0.98388571
72.292023 61.071156 -0.97407508
74.697708 60.221439 -0.94572133
75.201897 60.043354 -0.66208667
75.810265 59.828468 -0.34980872
64 64 0
89.216331 55.093281 0.74688357
69.656242 62.00983 -0.98855841
70.713745 61.637741 -0.98180854
72.266808 61.091293 -0.97069889
74.711945 60.230965 -0.94657648
75.226189 60.050022 -0.66323984
75.785896 59.853088 -0.34893817
64 64 0
89.207466 55.130657 0.74630302
69.677299 62.010128 -0.99181831
70.749748 61.634239 -0.98665434
72.29908 61.091202 -0.97407508
74.726189 60.240509 -0.94743323
75.211426 60.070435 -0.66208667
75.678093 59.906872 -0.3455998
64 64 0
89.198547 55.167999 0.74572241
69.717033 62.003952 -0.99833804
70.714706 61.655624 -0.98111701
72.297791 61.102905 -0.97351277
74.745247 60.248402 -0.94871587
75.245461 60.073757 -0.66381586
75.565292 59.96209 -0.34211701
75.343857 60.039402 0
89.209198 55.198452 0.74572241
69.677406 62.025482 -0.99100095
70.727005 61.660446 -0.98250002
72.291695 61.116268 -0.97238809
74.740082 60.264755 -0.94786078
75.215988 60.099243 -0.66179752
75.403282 60.034107 -0.33718255
75.338806 60.05653 0
89.195282 55.23745 0.74499691
69.68914 62.029102 -0.99263245
70.72509 61.670219 -0.98180854
72.295174 61.126289 -0.97238809
74.730034 60.28278 -0.94657648
75.274467 60.09417 -0.66496903
75.309853 60.081913 -0.33427978
75.338654 60.071934 0
89.200928 55.269608 0.74485129
69.612083 62.063389 -0.97877884
70.761101 61.666889 -0.98665434
72.317856 61.129684 -0.97463959
74.729668 60.297421 -0.94614893
64 64 -0
75.28511 60.105747 -0.33340922
75.323708 60.09243 0
89.216385 55.298363 0.74499691
69.721924 62.033218 -0.99752069
70.754417 61.678326 -0.98526865
72.3069 61.144695 -0.9729504
74.76326 60.300377 -0.94871587
64 64 -0
75.265221 60.127838 -0.33268309
64 64 0
89.207222 55.335598 0.7444163
69.663506 62.060947 -0.98692691
70.776207 61.679985 -0.98803735
72.310341 61.154736 -0.9729504
74.728859 60.326691 -0.94529217
75.249397 60.148472 -0.66266268
75.240402 60.15155 -0.33181253
75.259247 60.145096 0
89.207825 55.369431 0.74412578
69.656494 62.07098 -0.98529857
70.764755 61.693035 -0.98596019
72.337814 61.156578 -0.97576427
74.752731 60.333027 -0.94700402
75.239349 60.167076 -0.66179752
75.240128 60.166809 -0.33166754
75.263901 60.158707 0
89.218239 55.399895 0.74412578
69.738388 62.050789 -0.99915218
70.74855 61.707661 -0.98319417
72.321999 61.173191 -0.97351277
74.766884 60.342716 -0.94786078
75.273369 60.170673 -0.66352785
75.229988 60.18541 -0.33123198
75.258682 60.175663 0
89.189247 55.443745 0.74296463
70.775078 61.707779 -0.98665434
72.335045 61.179989 -0.97463959
74.781013 60.352444 -0.94871587
75.277992 60.184299 -0.66352785
75.229668 60.200645 -0.33108699
75.243576 60.195942 0
89.19957 55.47419 0.74296463
69.663452 62.091499 -0.98529857
70.768318 61.719173 -0.98526865
72.333618 61.191689 -0.97407508
74.785408 60.365471 -0.94871587
75.292389 60.19463 -0.66410387
75.239174 60.212559 -0.33123198
75.25309 60.20787 0
89.195084 55.509617 0.74252963
69.61306 62.112255 -0.97633314
70.760193 61.72646 -0.98388571
72.335312 61.196724 -0.97407508
74.773018 60.376892 -0.94743323
75.294685 60.20145 -0.66410387
75.20697 60.230949 -0.33021587
75.255379 60.214668 0
89.185432 55.529812 0.7420941
69.746582 62.075077 -0.99915218
70.82003 61.715504 -0.99219161
72.343529 61.205181 -0.97463959
74.77739 60.389912 -0.94743323
75.313988 60.210171 -0.66496903
75.211517 60.244492 -0.33021587
75.255013 60.229923 0
89.195648 55.560249 0.7420941
69.666786 62.117023 -0.98448437
70.792198 61.743069 -0.98734581
72.340607 61.228561 -0.97351277
74.781197 60.417591 -0.94700402
75.274033 60.25383 -0.66208667
75.215637 60.273235 -0.33007085
75.234444 60.266983 0
89.191315 55.629356 0.74136853
69.66906 62.123871 -0.98448437
70.775864 61.757584 -0.98457718
72.353607 61.235443 -0.97463959
74.790405 60.429005 -0.94743323
75.268715 60.27071 -0.66150951
75.200394 60.29332 -0.3294903
75.243881 60.278927 0
89.206345 55.658169 0.74151355
69.699478 62.121441 -0.98937261
70.778564 61.765774 -0.98457718
72.366585 61.242359 -0.97576427
74.799583 60.440437 -0.94786078
75.229004 60.298901 -0.65891516
75.195007 60.310108 -0.3292003
75.263206 60.287628 0
89.201591 55.693512 0.74107796
69.762802 62.108288 -0.99996638
70.805092 61.76614 -0.98803735
72.369904 61.252472 -0.97576427
74.813622 60.450291 -0.94871587
75.233467 60.312473 -0.65891516
75.229073 60.313915 -0.33007085
75.238022 60.310978 0
89.211609 55.723969 0.74107796
69.694595 62.138294 -0.98774111
70.803024 61.775925 -0.98734581
72.368393 61.264164 -0.97520196
74.803276 60.46814 -0.94743323
75.22316 60.330872 -0.65805
75.189064 60.342018 -0.32876474
75.237534 60.326176 0
89.211716 55.757668 0.74078798
69.734444 62.132935 -0.99426085
70.791389 61.788807 -0.98526865
72.366867 61.275848 -0.97463959
74.827049 60.474846 -0.94914347
75.222672 60.346035 -0.65776199
75.203369 60.352322 -0.32905531
75.232056 60.342979 0
89.206833 55.792965 0.74035239
69.694382 62.153587 -0.98692691
70.779755 61.801651 -0.98319417
72.374985 61.284397 -0.97520196
74.811783 60.494259 -0.94743323
75.227074 60.3596 -0.65776199
75.183037 60.373878 -0.32832921
75.21666 60.362976 0
89.201889 55.828239 0.73991686
69.696609 62.160469 -0.98692691
70.801483 61.803684 -0.98596019
72.378258 61.294518 -0.97520196
74.81601 60.507324 -0.94743323
75.256073 60.365223 -0.65920317
75.197311 60.384197 -0.32861975
75.230957 60.373329 0
89.211746 55.858696 0.73991686
69.712952 62.162811 -0.98937261
70.804131 61.811905 -0.98596019
72.405708 61.296867 -0.97801584
74.825104 60.518826 -0.94786078
64 64 -0
75.181885 60.404095 -0.3280392
75.225418 60.390095 0
89.211685 55.892345 0.73962688
69.748123 62.159161 -0.99507815
70.787674 61.826244 -0.98319417
72.375084 61.317875 -0.97407508
74.839073 60.528782 -0.94871587
64 64 -0
75.186218 60.417606 -0.3280392
75.239693 60.400482 0
89.206604 55.92757 0.73919129
69.698532 62.182629 -0.98611277
70.809402 61.828354 -0.98596019
72.388008 61.324905 -0.97520196
74.843262 60.541882 -0.94871587
64 64 -0
75.195488 60.42955 -0.32818419
75.20932 60.425137 0
89.211395 55.95961 0.73904628
69.757263 62.171562 -0.99589235
70.807243 61.8381 -0.98526865
72.391235 61.335045 -0.97520196
74.847427 60.554985 -0.94871587
64 64 -0
75.175034 60.450943 -0.32745862
75.213623 60.438686 0
89.20623 55.994801 0.73861074
69.77832 62.172558 -0.99915218
70.795509 61.850861 -0.98319417
72.413834 61.339054 -0.97745347
74.851585 60.568092 -0.94871587
64 64 -0
75.189209 60.461319 -0.32774863
75.203033 60.456947 0
89.205986 56.028393 0.73832077
69.723946 62.197357 -0.98937261
70.831589 61.84853 -0.98803735
72.402496 61.353806 -0.97576427
74.84594 60.58429 -0.94786078
64 64 -0
75.2034 60.471714 -0.3280392
75.212265 60.468925 0
89.235428 56.052612 0.73890132
69.721405 62.205753 -0.98855841
70.805466 61.865791 -0.98388571
72.400841 61.365479 -0.97520196
74.859848 60.59433 -0.94871587
64 64 -0
75.202705 60.486809 -0.32789418
75.216522 60.482475 0
89.205338 56.095551 0.73774016
69.689461 62.219547 -0.98285288
70.816322 61.866909 -0.98526865
72.426674 61.362968 -0.97801584
74.8619 60.600891 -0.94871587
64 64 -0
75.165146 60.505993 -0.32673308
75.198792 60.495464 0
89.20018 56.113888 0.73744965
69.77655 62.199955 -0.99752069
70.818893 61.875145 -0.98526865
72.415298 61.377689 -0.97632664
74.866005 60.614017 -0.94871587
64 64 -0
75.189209 60.513302 -0.32731363
75.203018 60.508999 0
89.214668 56.142792 0.7375952
69.674866 62.239162 -0.97959304
70.787926 61.893791 -0.98042554
72.413612 61.389362 -0.97576427
74.870087 60.627148 -0.94871587
64 64 -0
75.16362 60.536068 -0.32644251
75.20224 60.524086 0
89.224144 56.173264 0.7375952
69.667549 62.248936 -0.97796464
70.838394 61.887188 -0.98734581
72.431328 61.395027 -0.97745347
74.874153 60.640285 -0.94871587
75.266701 60.519005 -0.65718597
75.177734 60.54649 -0.32673308
75.196503 60.540691 0
89.218681 56.208351 0.73715961
69.740517 62.233986 -0.99018681
70.831345 61.898403 -0.98596019
72.415039 61.411194 -0.97520196
74.88311 60.65192 -0.94914347
75.261002 60.535664 -0.65660882
75.206734 60.552357 -0.32745862
75.180771 60.560345 0
89.193298 56.249527 0.73614353
70.85788 61.899307 -0.98942298
72.427872 61.418392 -0.97632664
74.872429 60.669579 -0.94786078
75.240448 60.556847 -0.65516764
75.166176 60.579601 -0.32615253
75.184921 60.573856 0
89.202652 56.279976 0.73614353
69.678581 62.268051 -0.97877884
70.836403 61.914917 -0.98596019
72.43586 61.42709 -0.97689116
74.901001 60.675232 -0.95000023
75.254494 60.567417 -0.65574366
75.185196 60.588551 -0.32658753
75.189049 60.587376 0
89.202026 56.313461 0.73585349
69.779999 62.244751 -0.99589235
70.834122 61.924637 -0.98526865
72.448677 61.434334 -0.97801584
74.895172 60.691391 -0.94914347
75.258629 60.581017 -0.65574366
75.184341 60.603577 -0.32644251
75.193169 60.600899 0
89.20134 56.346943 0.73556298
70.889458 61.916924 -0.99288315
72.42746 61.451897 -0.97520196
74.894257 60.706043 -0.94871587
75.242966 60.600609 -0.65459162
75.178497 60.620098 -0.32615253
75.197266 60.614426 0
89.205597 56.378902 0.73541796
69.779495 62.260147 -0.99507815
70.863136 61.933929 -0.98872882
72.449997 61.456223 -0.97745347
74.898224 60.719208 -0.94871587
64 64 -0
75.177605 60.635105 -0.32600752
75.186394 60.632462 0
89.19986 56.41386 0.73498237
69.80999 62.258617 -0.99996638
70.870445 61.940777 -0.98942298
72.438454 61.470814 -0.97576427
74.926765 60.72501 -0.95085531
64 64 -0
75.176666 60.650108 -0.32586196
75.185471 60.647472 0
89.223946 56.439835 0.73541796
69.783684 62.27412 -0.99507815
70.858498 61.953388 -0.98734581
72.426888 61.485371 -0.97407508
74.920883 60.74115 -0.95000023
64 64 -0
75.18071 60.663616 -0.32586196
75.204483 60.656525 0
89.208168 56.477749 0.73469239
69.809448 62.274071 -0.99915218
70.846535 61.965965 -0.98526865
72.468887 61.483978 -0.97857815
74.910049 60.758736 -0.94871587
75.239426 60.660877 -0.65343845
75.159828 60.684528 -0.32513639
75.183548 60.677479 0
89.20726 56.511177 0.73440182
69.773605 62.292309 -0.99263245
70.89711 61.960003 -0.99219161
72.447563 61.501419 -0.97576427
74.928726 60.767551 -0.95000023
75.23848 60.675934 -0.65314931
75.15387 60.700958 -0.32484642
75.197548 60.688042 0
89.221291 56.540161 0.73454738
69.756699 62.304871 -0.98937261
70.913994 61.964092 -0.99426609
72.46521 61.50732 -0.97745347
74.937546 60.779308 -0.95042777
75.247467 60.688049 -0.65343845
75.142883 60.718845 -0.32441086
75.176582 60.708923 0
89.215324 56.575047 0.73411185
69.758743 62.311829 -0.98937261
70.87793 61.983738 -0.98872882
72.473083 61.516121 -0.97801584
74.936508 60.793972 -0.95000023
75.231606 60.707462 -0.65228528
75.191719 60.719154 -0.32571697
75.220512 60.710716 0
89.214294 56.608448 0.73382127
70.894821 61.987831 -0.99080598
72.446823 61.534901 -0.97463959
74.930511 60.810066 -0.94914347
75.235573 60.721039 -0.65228528
75.160751 60.742874 -0.32470083
75.194489 60.733028 0
89.203255 56.644741 0.73324072
69.729576 62.335403 -0.98366708
70.86351 62.005966 -0.98596019
72.48394 61.535187 -0.97857815
74.94915 60.818977 -0.95042777
75.224617 60.738945 -0.65142012
75.189644 60.749107 -0.32542697
75.183426 60.750916 0
89.227097 56.670849 0.73367625
70.874359 62.007317 -0.98734581
72.465904 61.545975 -0.97632664
74.936272 60.829884 -0.94914347
75.226585 60.745728 -0.65142012
75.1866 60.75732 -0.32528141
75.190399 60.756218 0
89.206573 56.693325 0.73295075
70.876762 62.015625 -0.98734581
72.488388 61.550568 -0.97857815
74.954895 60.838829 -0.95042777
75.230515 60.759296 -0.65142012
75.180534 60.773716 -0.32499141
75.179306 60.774071 0
89.200394 56.728111 0.73251516
70.912918 62.014236 -0.99219161
72.476707 61.565033 -0.97689116
74.95871 60.852066 -0.95042777
75.249336 60.768581 -0.65228528
75.179436 60.788662 -0.32484642
75.183197 60.787582 0
89.224152 56.754261 0.73295075
69.807861 62.339264 -0.99589235
70.88636 62.030869 -0.98803735
72.499184 61.569687 -0.97914267
74.977318 60.861076 -0.95171207
75.293022 60.770802 -0.65459162
75.168312 60.806461 -0.32441086
75.182068 60.802528 0
89.207916 56.791885 0.73222518
69.781326 62.354404 -0.99100095
70.864609 62.046059 -0.98457718
72.497215 61.581356 -0.97857815
74.971214 60.877155 -0.95085531
75.331734 60.77454 -0.65660882
75.172165 60.819958 -0.32441086
75.190926 60.814617 0
89.211609 56.823772 0.73208016
69.80233 62.356003 -0.99426085
70.866966 62.054356 -0.98457718
72.490364 61.594391 -0.97745347
74.974983 60.890415 -0.95085531
75.305771 60.796692 -0.65487963
75.185989 60.830627 -0.32470083
75.179733 60.832401 0
89.215248 56.855663 0.73193461
69.785286 62.368382 -0.99100095
70.893456 62.055843 -0.98803735
72.498146 61.603275 -0.97801584
74.973793 60.905071 -0.95042777
75.299667 60.813164 -0.65430248
75.189812 60.844147 -0.32470083
75.198593 60.841671 0
89.213867 56.888954 0.73164463
69.744423 62.387394 -0.98366708
70.905472 62.061462 -0.98942298
72.505928 61.612171 -0.97857815
74.997299 60.912781 -0.95213962
75.27861 60.833809 -0.6528613
75.173599 60.863289 -0.32412028
75.187363 60.859425 0
89.217445 56.92083 0.73149961
64 64 -0
70.898132 62.07251 -0.98803735
72.508804 61.622452 -0.97857815
74.991142 60.928833 -0.95128453
75.247543 60.857185 -0.65084296
75.192406 60.872597 -0.32455584
75.191147 60.872948 0
89.200943 56.958302 0.73077351
69.810211 62.384064 -0.99426085
70.905289 62.079502 -0.98872882
72.511673 61.632736 -0.97857815
74.999786 60.940742 -0.95171207
75.211487 60.881863 -0.64853776
75.2062 60.883335 -0.32484642
75.194916 60.886471 0
89.219452 56.98597 0.73106402
69.731178 62.413506 -0.98040724
70.897942 62.090523 -0.98734581
72.51944 61.641663 -0.97914267
75.008415 60.952667 -0.95213962
75.205261 60.898174 -0.6479606
75.199928 60.899651 -0.32455584
75.198669 60.900002 0
89.212875 57.020607 0.73062849
69.728325 62.421741 -0.97959304
70.914757 62.09486 -0.98942298
72.522278 61.651958 -0.97914267
75.007149 60.967331 -0.95171207
64 64 -0
75.213699 60.910423 -0.32484642
75.182335 60.919064 0
89.206253 57.055222 0.73019296
69.830338 62.401215 -0.99670655
70.92672 62.100563 -0.99080598
72.510406 61.66629 -0.97745347
75.030609 60.975204 -0.95342392
64 64 -0
75.18734 60.932224 -0.32397529
75.191086 60.931198 0
89.21463 57.085682 0.73019296
69.813187 62.413467 -0.99344665
70.943542 62.104973 -0.99288315
72.527931 61.672558 -0.97914267
75.029305 60.989883 -0.95299637
64 64 -0
75.206085 60.941639 -0.32441086
75.194786 60.944721 0
89.222969 57.116154 0.73019296
69.824654 62.417896 -0.99507815
70.921616 62.119938 -0.98942298
72.540535 61.680202 -0.98026735
75.032936 61.003212 -0.95299637
64 64 -0
75.219795 60.952457 -0.32470083
75.193428 60.959618 0
89.231262 57.146637 0.73019296
69.802689 62.431389 -0.99100095
70.967476 62.11652 -0.99565178
72.538429 61.691849 -0.97970504
75.031578 61.017891 -0.95256716
64 64 -0
75.198387 60.972797 -0.32397529
75.187057 60.975861 0
89.209435 57.185261 0.72932237
69.775948 62.446106 -0.98611277
70.92614 62.136669 -0.98942298
72.536308 61.703487 -0.97914267
75.045097 61.028553 -0.95342392
64 64 -0
75.232155 60.978226 -0.32484642
75.195724 60.988029 0
89.222672 57.214378 0.72946739
70.918686 62.147636 -0.98803735
72.539078 61.713802 -0.97914267
75.053635 61.040573 -0.95385152
64 64 -0
75.235802 60.991802 -0.32484642
75.204376 61.000214 0
89.22583 57.246204 0.72932237
69.85994 62.434895 -0.99996638
70.953743 62.142754 -0.99288315
72.520821 61.724209 -0.97689116
75.060379 61.045929 -0.95427907
75.217911 61.003853 -0.64709544
75.237617 60.998589 -0.32484642
75.176025 61.015041 0
89.219879 57.264122 0.7290324
69.771065 62.466095 -0.98448437
70.941429 62.155025 -0.99080598
72.543213 61.729282 -0.97914267
75.063942 61.059296 -0.95427907
75.196533 61.024052 -0.64565426
75.276375 61.002831 -0.32586196
75.184647 61.02721 0
89.217941 57.297276 0.72874182
69.796806 62.466751 -0.98855841
70.938805 62.164696 -0.99011445
72.545944 61.739609 -0.97914267
75.04763 61.077915 -0.95256716
75.225121 61.030972 -0.64709544
75.295067 61.01247 -0.32629752
75.183205 61.042057 0
89.241104 57.323761 0.72917736
69.789085 62.476276 -0.98692691
70.902199 62.183296 -0.98457718
72.553581 61.748646 -0.97970504
75.056129 61.089958 -0.95299637
75.118652 61.073502 -0.64075357
75.328812 61.018185 -0.32716808
75.171669 61.059547 0
89.22905 57.359558 0.72859681
69.862656 62.464485 -0.99915218
70.943222 62.181469 -0.99011445
72.566116 61.756409 -0.98082972
75.079506 61.098114 -0.95470828
75.182236 61.071209 -0.64421308
75.37767 61.020023 -0.32847476
75.185287 61.070408 0
89.211914 57.396629 0.72787124
69.850151 62.475311 -0.99670655
70.945412 62.189861 -0.99011445
72.549149 61.771889 -0.97857815
75.0681 61.115391 -0.95342392
75.135712 61.097767 -0.64133072
75.486862 61.006248 -0.33152255
75.168678 61.089176 0
89.219879 57.427097 0.72787124
64 64 -0
70.942741 62.199512 -0.98942298
72.571518 61.777115 -0.98082972
75.081505 61.12619 -0.95427907
75.16925 61.103436 -0.64305991
75.696701 60.966648 -0.33747256
75.182251 61.100063 0
89.227798 57.457577 0.72787124
69.858604 62.48822 -0.99752069
70.964348 62.202888 -0.99219161
72.554512 61.792553 -0.97857815
75.084969 61.139584 -0.95427907
75.162735 61.119514 -0.64248389
75.866409 60.937935 -0.34226203
75.185745 61.113575 0
89.225616 57.490662 0.72758073
70.956787 62.213802 -0.99080598
72.576859 61.797836 -0.98082972
75.088417 61.152977 -0.95427907
75.146164 61.138153 -0.64133072
64 64 -0
75.194267 61.125801 0
89.233459 57.521149 0.72758073
64 64 -0
70.944351 62.225937 -0.98872882
72.569679 61.810715 -0.97970504
75.106773 61.162567 -0.95556337
75.154617 61.150345 -0.64161873
64 64 -0
75.177574 61.144478 0
89.231216 57.554214 0.72729069
69.796982 62.526512 -0.98611277
70.970818 62.228146 -0.99219161
72.592018 61.816063 -0.98195654
75.090294 61.181046 -0.95385152
75.153046 61.165096 -0.64133072
64 64 -0
75.165878 61.161835 0
89.218834 57.589825 0.72671014
69.669373 62.566238 -0.96411103
70.963211 62.239033 -0.99080598
72.574944 61.831432 -0.97970504
75.108627 61.190674 -0.95513582
75.156464 61.178574 -0.64133072
75.976799 60.971115 -0.34501982
75.189484 61.170223 0
89.226562 57.6203 0.72671014
69.826256 62.541534 -0.99018681
70.991783 62.249771 -0.99426609
72.590012 61.849693 -0.98082972
75.115387 61.217525 -0.95513582
75.173279 61.203033 -0.64190674
75.837891 61.036663 -0.34081089
75.176094 61.202328 0
89.226776 57.68507 0.72627461
71.003639 62.255795 -0.99565178
72.57782 61.863754 -0.97914267
75.118736 61.230957 -0.95513582
75.191711 61.212784 -0.6427719
75.448128 61.148926 -0.3294903
75.184509 61.214577 0
89.20414 57.723091 0.72540402
69.786583 62.566315 -0.98285288
70.981392 62.27029 -0.99219161
72.585327 61.872902 -0.97970504
75.122078 61.244396 -0.95513582
75.18502 61.228802 -0.64219475
75.138847 61.240242 -0.32049251
75.177773 61.230595 0
89.216751 57.7523 0.72554904
70.968857 62.28233 -0.99011445
72.612556 61.877197 -0.98251891
75.140335 61.254154 -0.95641845
75.20845 61.237366 -0.64334792
75.096741 61.2649 -0.31918582
75.191208 61.241615 0
89.224274 57.782776 0.72554904
69.890846 62.555584 -0.99996638
71.009911 62.281193 -0.99565178
72.605232 61.890026 -0.98139203
75.138664 61.268837 -0.95599091
75.226852 61.247215 -0.64421308
75.105103 61.277069 -0.31933138
75.179367 61.258858 0
89.206543 57.819443 0.72482347
70.982727 62.296803 -0.99149746
72.592979 61.904034 -0.97970504
75.146942 61.281082 -0.95641845
75.230171 61.26078 -0.64421308
64 64 -0
75.20797 61.266197 0
89.229118 57.846214 0.72525847
69.859833 62.574444 -0.99426085
70.993515 62.298645 -0.99288315
72.618927 61.903221 -0.98251891
75.1436 61.289032 -0.95599091
75.261978 61.260231 -0.64594227
64 64 -0
75.204544 61.274204 0
89.217697 57.865139 0.72482347
69.827927 62.589661 -0.98855841
71.00531 62.304741 -0.99426609
72.621452 61.913639 -0.98251891
75.171814 61.296459 -0.95813036
75.295456 61.266541 -0.64767259
64 64 -0
75.182541 61.293865 0
89.225098 57.895615 0.72482347
70.963455 62.323772 -0.98803735
72.638794 61.920486 -0.98420811
75.1651 61.312363 -0.95727521
75.298752 61.28019 -0.64767259
75.121567 61.322842 -0.3194764
75.180748 61.308594 0
89.222336 57.928535 0.7245329
69.845726 62.6003 -0.99100095
70.999634 62.324009 -0.99288315
72.641304 61.930927 -0.98420811
75.153351 61.329441 -0.95599091
75.382523 61.27457 -0.65228528
75.129845 61.335072 -0.31962138
75.178932 61.323318 0
89.209442 57.963856 0.72395235
70.99678 62.33363 -0.99219161
72.62896 61.944904 -0.98251891
75.16156 61.341732 -0.95641845
75.400887 61.284733 -0.65314931
75.138107 61.347321 -0.31976637
75.192276 61.334419 0
89.216713 57.99432 0.72395235
70.954834 62.352497 -0.98596019
72.641319 61.952991 -0.98364359
75.194748 61.348118 -0.95898712
75.514908 61.272278 -0.65949231
64 64 -0
75.18029 61.351543 0
89.223953 58.024796 0.72395235
64 64 -0
70.951942 62.362049 -0.98526865
72.63884 61.9646 -0.98308122
75.172966 61.367535 -0.95684767
75.57357 61.273148 -0.66266268
64 64 -0
75.178421 61.366249 0
89.231155 58.055275 0.72395235
69.837997 62.63195 -0.98855841
71.032074 62.352135 -0.99634326
72.606674 61.98315 -0.97914267
75.196129 61.37635 -0.95855957
75.314972 61.348499 -0.64767259
64 64 -0
75.181595 61.379757 0
89.22821 58.088139 0.72366238
69.77224 62.654716 -0.97714734
72.638794 61.986633 -0.98251891
75.169281 61.396873 -0.95599091
75.217407 61.385658 -0.64190674
64 64 -0
75.174622 61.39563 0
89.225204 58.120987 0.7233718
69.874985 62.638252 -0.99426085
70.982269 62.381599 -0.98872882
72.626366 62.000515 -0.98082972
75.167419 61.41153 -0.95556337
75.190338 61.406219 -0.64017755
64 64 -0
75.187897 61.406784 0
89.21711 58.154987 0.72293681
70.994003 62.387779 -0.99011445
72.628769 62.010941 -0.98082972
75.195549 61.419262 -0.95770282
75.188408 61.42091 -0.63988841
64 64 -0
75.180885 61.422642 0
89.224159 58.185463 0.72293681
69.858986 62.656872 -0.99100095
71.010628 62.392868 -0.99219161
72.665848 62.01342 -0.98477042
75.203659 61.431644 -0.95813036
75.156235 61.442516 -0.63787121
64 64 -0
75.189056 61.43499 0
89.231163 58.215942 0.72293681
71.037018 62.395763 -0.99565178
72.653374 62.027283 -0.98308122
75.196754 61.447464 -0.95727521
75.189568 61.449104 -0.6396004
64 64 -0
75.176926 61.451984 0
89.217865 58.251057 0.72235626
69.895966 62.663383 -0.99670655
70.999802 62.413143 -0.99011445
72.675575 62.033245 -0.98533279
75.219856 61.456455 -0.95898712
75.192642 61.462624 -0.6396004
75.171379 61.467445 -0.31991193
75.190155 61.463188 0
89.234924 58.279236 0.72264624
71.045761 62.411671 -0.99634326
72.633331 62.053787 -0.98026735
75.222923 61.470013 -0.95898712
75.220924 61.470463 -0.64104158
75.174431 61.480946 -0.31991193
75.177971 61.480148 0
89.241814 58.309731 0.72264624
71.037895 62.422379 -0.99496025
72.675346 62.055325 -0.98477042
75.235985 61.481331 -0.95984221
75.193695 61.49081 -0.63931239
75.182526 61.493313 -0.32005695
75.186081 61.492516 0
89.22332 58.345917 0.72192067
71.034882 62.43198 -0.99426609
72.667763 62.068024 -0.98364359
75.213966 61.500492 -0.95770282
75.20681 61.50209 -0.63988841
75.1754 61.50909 -0.31976637
75.184029 61.507168 0
89.235199 58.375271 0.72206569
71.022095 62.443733 -0.99219161
72.675064 62.077396 -0.98420811
75.227013 61.511822 -0.95855957
75.189621 61.520111 -0.63873523
75.183487 61.521469 -0.31991193
75.181961 61.521809 0
89.252136 58.403515 0.72235626
69.922455 62.691193 -0.99996638
71.023033 62.447975 -0.99219161
72.671249 62.083736 -0.98364359
75.218475 61.520824 -0.95770282
75.196182 61.525749 -0.63902438
75.17482 61.530472 -0.31962138
75.18853 61.527443 0
89.280884 58.413166 0.72308177
64 64 -0
71.064087 62.447853 -0.99772626
72.658684 62.097485 -0.98195654
75.251564 61.527767 -0.96027142
75.199158 61.53928 -0.63902438
75.177795 61.543976 -0.31962138
75.196587 61.539845 0
89.399277 58.419182 0.72627461
71.026764 62.464954 -0.99219161
72.69075 62.10144 -0.98533279
75.254539 61.541363 -0.96027142
75.171791 61.559441 -0.63729405
75.195992 61.554153 -0.32005695
75.179214 61.557819 0
89.497375 58.429913 0.72888684
64 64 -0
70.994286 62.4809 -0.98734581
72.668213 62.117336 -0.98251891
75.222382 61.562592 -0.95727521
75.200005 61.567451 -0.63873523
75.204018 61.566582 -0.32020193
75.202499 61.56691 0
89.514252 58.458519 0.72917736
71.015732 62.485115 -0.99011445
72.685394 62.124592 -0.98420811
75.235344 61.57399 -0.95813036
75.177658 61.586445 -0.63729405
75.201874 61.581219 -0.32005695
75.23597 61.573856 0
89.505692 58.492645 0.72874182
64 64 -0
70.983215 62.500969 -0.98526865
72.697578 62.132957 -0.98533279
75.233253 61.588646 -0.95770282
75.200798 61.595612 -0.63844723
75.204788 61.594753 -0.32005695
75.198181 61.596172 0
89.502174 58.525646 0.72845179
69.902786 62.740353 -0.99507815
71.06353 62.492653 -0.99634326
72.684914 62.146652 -0.98364359
75.256241 61.597935 -0.95941466
75.193588 61.611305 -0.63787121
75.182274 61.613716 -0.31933138
75.190887 61.611881 0
89.518921 58.554298 0.72874182
71.04081 62.506393 -0.99288315
72.687149 62.157146 -0.98364359
75.25412 61.612602 -0.95898712
75.196465 61.624832 -0.63787121
75.174973 61.629391 -0.31904083
75.188675 61.626484 0
89.530563 58.584057 0.72888684
69.847771 62.766861 -0.98529857
71.04261 62.5149 -0.99288315
72.694351 62.166592 -0.98420811
75.256996 61.626202 -0.95898712
75.204384 61.637295 -0.63815922
75.182915 61.641823 -0.31918582
75.186447 61.641075 0
89.501511 58.622414 0.72787124
64 64 -0
71.019852 62.528557 -0.98942298
72.706497 62.175018 -0.98533279
75.264877 61.638752 -0.95941466
75.212288 61.649776 -0.63844723
75.180672 61.656403 -0.31904083
75.194382 61.65353 0
89.513069 58.652164 0.72801626
64 64 -0
71.065826 62.527832 -0.99565178
72.703728 62.186573 -0.98477042
75.257675 61.654457 -0.95855957
75.25563 61.654884 -0.64075357
75.173332 61.672031 -0.31875083
75.197205 61.667057 0
75.641136 61.574562 0.3320964
64 64 -0
71.092163 62.531284 -0.99911189
72.715858 62.195034 -0.98589516
75.260506 61.66806 -0.95855957
75.258461 61.668484 -0.64075357
75.176132 61.685535 -0.31875083
75.189835 61.682697 0
75.537201 61.61076 0.3290486
69.853668 62.795139 -0.98529857
71.044792 62.549969 -0.99219161
72.713058 62.206589 -0.98533279
75.263313 61.681671 -0.95855957
75.286598 61.676876 -0.64219475
75.178925 61.699039 -0.31875083
75.182419 61.698318 0
75.489166 61.635181 0.32759693
71.031792 62.561501 -0.99011445
72.670418 62.226284 -0.98026735
75.276154 61.693226 -0.95941466
75.350212 61.678074 -0.64565426
75.17659 61.713593 -0.31860527
75.190285 61.710793 0
75.486923 61.650108 0.32745194
71.063019 62.563999 -0.99426609
72.712395 62.228661 -0.98477042
75.278938 61.706852 -0.95941466
75.347946 61.692822 -0.64536625
75.169167 61.729168 -0.31831527
75.193047 61.724316 0
75.459213 61.6702 0.32658139
69.872513 62.813431 -0.98774111
71.084419 62.568562 -0.99703479
72.729477 62.236172 -0.98645961
75.276672 61.721497 -0.95898712
75.320312 61.712681 -0.64363706
75.166817 61.743694 -0.31817028
75.180496 61.740929 0
64 64 0
69.878807 62.819553 -0.98855841
71.086143 62.577122 -0.99703479
72.721626 62.248722 -0.98533279
75.294525 61.73209 -0.96027142
75.338264 61.723309 -0.64450109
75.159332 61.759239 -0.31787971
75.193413 61.752396 0
75.515747 61.687668 0.32803249
64 64 -0
71.043579 62.594521 -0.99080598
72.718758 62.260254 -0.98477042
75.297256 61.745739 -0.96027142
75.335938 61.738022 -0.64421308
75.167145 61.771702 -0.31802526
75.185921 61.767956 0
75.513443 61.702602 0.32788751
69.838005 62.842415 -0.98122454
71.000977 62.611816 -0.98457718
72.72583 62.269802 -0.98533279
75.289886 61.761391 -0.95941466
75.308228 61.757755 -0.64248389
75.164719 61.786213 -0.31787971
75.19371 61.78046 0
75.511124 61.717525 0.32774249
64 64 -0
71.060883 62.60437 -0.99288315
72.711914 62.278034 -0.98364359
75.296272 61.76722 -0.95984221
75.314651 61.763584 -0.6427719
75.171165 61.791946 -0.31802526
75.174622 61.791264 0
64 64 0
69.89344 62.842522 -0.99018681
71.072403 62.61097 -0.99426609
72.728951 62.285622 -0.98533279
75.29393 61.781857 -0.95941466
75.297043 61.781246 -0.64161873
75.163612 61.807449 -0.31773472
75.167061 61.806774 0
75.428551 61.755417 0.32527527
64 64 -0
71.06424 62.621437 -0.99288315
72.755951 62.291306 -0.98814666
75.311722 61.792557 -0.96069896
75.294647 61.795887 -0.64133072
75.176468 61.818951 -0.31802526
75.185036 61.817276 0
75.436348 61.768234 0.32542026
64 64 -0
71.065895 62.629974 -0.99288315
72.703148 62.312523 -0.98195654
75.284126 61.812088 -0.95813036
75.266815 61.815445 -0.6396004
75.158684 61.836411 -0.31744471
75.177452 61.832771 0
75.428825 61.784035 0.32512972
64 64 -0
71.111885 62.629971 -0.99911189
72.745102 62.31535 -0.98645961
75.29686 61.823784 -0.95898712
75.228813 61.836891 -0.63729405
75.171486 61.847931 -0.31773472
75.180061 61.846279 0
75.426399 61.798828 0.3249847
64 64 -0
71.069183 62.647053 -0.99288315
72.747131 62.32592 -0.98645961
75.304512 61.836468 -0.95941466
75.266991 61.843651 -0.63931239
75.163879 61.863384 -0.31744471
75.182655 61.859791 0
75.43927 61.81068 0.32527527
64 64 -0
72.714195 62.343136 -0.98251891
75.347473 61.842457 -0.96283841
75.264511 61.858231 -0.63902438
75.161331 61.87785 -0.31729916
75.154549 61.879139 0
75.416359 61.829361 0.32454914
64 64 -0
71.102005 62.658554 -0.99703479
72.74614 62.348007 -0.98589516
75.33493 61.859032 -0.96155411
75.226425 61.879524 -0.63671803
75.179214 61.888443 -0.31773472
75.172447 61.889721 0
75.418976 61.843155 0.32454914
64 64 -0
71.074043 62.672688 -0.99288315
72.743141 62.359512 -0.98533279
75.327423 61.874619 -0.96069896
75.259476 61.887371 -0.63844723
75.171555 61.903866 -0.31744471
75.169876 61.904182 0
75.411369 61.858871 0.32425916
64 64 -0
72.745117 62.370079 -0.98533279
75.319885 61.89019 -0.95984221
75.24678 61.903816 -0.6375832
75.179184 61.916416 -0.3175897
75.177513 61.916725 0
75.408844 61.873611 0.32411414
64 64 -0
71.062424 62.692528 -0.99080598
72.75708 62.378796 -0.98645961
75.33757 61.901066 -0.96112651
75.244202 61.918354 -0.63729405
75.166359 61.932762 -0.31715414
75.180023 61.930233 0
75.421616 61.885509 0.32440415
69.887543 62.917389 -0.98692691
71.118286 62.691078 -0.99842042
72.744034 62.392136 -0.98477042
75.340103 61.914768 -0.96112651
75.261978 61.929134 -0.63815922
75.163742 61.947197 -0.31700915
75.172272 61.945629 0
75.398613 61.904007 0.32367858
64 64 -0
71.114914 62.700584 -0.99772626
72.745972 62.402702 -0.98477042
75.322411 61.932159 -0.95941466
75.249199 61.94553 -0.63729405
75.166214 61.960686 -0.31700915
75.174744 61.959129 0
75.431801 61.912182 0.32454914
64 64 -0
71.111549 62.710079 -0.99703479
72.747894 62.413269 -0.98477042
75.345108 61.942177 -0.96112651
75.251671 61.959126 -0.63729405
75.173775 61.973255 -0.31715414
75.166969 61.974491 0
75.418991 61.928776 0.32411414
64 64 -0
71.068665 62.726677 -0.99080598
72.769814 62.420238 -0.98702198
75.357697 61.954067 -0.96198326
75.243958 61.974556 -0.63671803
75.176216 61.986759 -0.31715414
75.195015 61.983372 0
75.47773 61.932446 0.32571027
64 64 -0
71.124527 62.725498 -0.99842042
72.771713 62.430836 -0.98702198
75.360168 61.967793 -0.96198326
75.226028 61.991787 -0.63556486
75.173531 62.001179 -0.31700915
75.176949 62.000565 0
75.403496 61.960037 0.32353359
64 64 -0
71.126068 62.734108 -0.99842042
72.738579 62.447659 -0.98308122
75.372711 61.979725 -0.96283841
75.248817 62.001732 -0.63671803
75.175934 62.014679 -0.31700915
75.179359 62.014072 0
75.395706 61.975639 0.32324305
64 64 -0
72.750465 62.456451 -0.98420811
75.380196 61.992577 -0.96326596
75.24614 62.016224 -0.63643003
75.173218 62.029087 -0.31686416
75.181747 62.02758 0
75.423729 61.984898 0.32396859
69.915344 62.960239 -0.99018681
71.113518 62.749634 -0.99634326
72.761398 62.45998 -0.98533279
75.361183 62.003006 -0.96155411
75.257515 62.021229 -0.63700604
75.174408 62.035839 -0.31686416
75.172699 62.036137 0
75.430084 61.990898 0.32411414
64 64 -0
71.060646 62.767719 -0.98872882
72.778275 62.467945 -0.98702198
75.363586 62.016739 -0.96155411
75.244606 62.037502 -0.63614088
75.161407 62.052021 -0.3164286
75.175064 62.049641 0
75.437614 62.003819 0.32425916
64 64 -0
71.108124 62.777126 -0.99496025
72.776947 62.490025 -0.98645961
75.348106 62.047688 -0.95984221
75.26461 62.06205 -0.63700604
75.166084 62.079002 -0.3164286
64 64 0
75.365578 62.044682 0.32208192
64 64 -0
71.055183 62.79501 -0.98734581
72.763733 62.503201 -0.98477042
75.380829 62.056213 -0.96241087
75.25676 62.077404 -0.63643003
75.158142 62.094246 -0.31613803
64 64 0
75.414032 62.050541 0.32338804
64 64 -0
71.056641 62.803535 -0.98734581
72.780571 62.511238 -0.98645961
75.383171 62.069965 -0.96241087
75.259071 62.091007 -0.63643003
75.175812 62.105122 -0.31657359
64 64 0
75.36515 62.073021 0.32193694
64 64 -0
71.048172 62.813728 -0.98596019
72.812424 62.516792 -0.98983586
75.38044 62.084572 -0.96198326
75.256256 62.105473 -0.63614088
75.162712 62.121216 -0.31613803
64 64 0
75.541702 62.05743 0.3268714
64 64 -0
71.0793 62.817284 -0.99011445
72.784142 62.532463 -0.98645961
75.387802 62.097477 -0.96241087
75.258537 62.119076 -0.63614088
75.16497 62.134705 -0.31613803
64 64 0
75.661942 62.051678 0.33020973
