# .PCD v0.7 - Point Cloud Data file format
VERSION 0.7
FIELDS x y z
SIZE 4 4 4
TYPE F F F
COUNT 1 1 1
WIDTH 1682
HEIGHT 1
VIEWPOINT 0 0 0 1 0 0 0
POINTS 1682
DATA ascii
37.280884 91.873672 0
33.716759 95.591805 1.2221904
56.533955 71.769844 -0.89821821
56.34206 71.969543 -0.61596209
41.074051 87.858826 -0.92409593
37.283279 91.803841 0
33.678612 95.555191 1.2221904
56.52813 71.757118 -0.89779067
56.332436 71.960289 -0.61596209
41.366096 87.498001 -0.91117918
37.278595 91.741547 0
33.61166 95.54847 1.2233515
56.511623 71.755478 -0.89864743
56.358765 71.913795 -0.61307859
41.698669 87.096802 -0.89666635
37.281254 91.671791 0
33.559124 95.526688 1.223932
56.482189 71.748405 -0.89993006
56.41169 71.821068 -0.60731387
41.838333 86.841438 -0.88882911
37.272453 91.547371 0
33.472164 95.464218 1.2243676
56.494301 71.717239 -0.89736313
64 64 -0
54.868622 73.388741 -0.36577323
37.26458 91.488945 0
33.459534 95.40123 1.2233515
56.467068 71.726547 -0.89950252
64 64 -0
54.850021 73.385147 -0.36606377
37.267723 91.419342 0
33.421616 95.364304 1.2233515
56.479259 71.695412 -0.89693552
64 64 -0
54.860489 73.351776 -0.36519268
37.267349 91.353523 0
64 64 0
56.419674 71.737656 -0.90292627
64 64 -0
54.885559 73.303612 -0.36374155
37.270737 91.284027 0
33.371353 95.264343 1.2223359
56.428314 71.710182 -0.90078682
64 64 -0
54.914383 73.251801 -0.36214489
37.263321 91.225716 0
33.348167 95.212479 1.2217554
56.3974 71.722969 -0.90335381
56.373329 71.747421 -0.60587269
54.939659 73.203789 -0.36069375
37.255997 91.167435 0
33.292252 95.193932 1.2224809
56.398895 71.702812 -0.90206951
56.363976 71.738197 -0.60587269
54.979641 73.141052 -0.3586621
37.252434 91.105461 0
33.258228 95.153107 1.2223359
56.357086 71.726486 -0.90592247
56.336445 71.747353 -0.60731387
54.9613 73.137527 -0.35895208
37.256313 91.03611 0
33.290051 95.045738 1.2195781
56.373066 71.691719 -0.90292627
56.312519 71.752777 -0.60846704
54.946609 73.130287 -0.35909709
37.263969 90.963135 0
33.442825 94.816727 1.2120315
56.31311 71.733467 -0.90891701
56.27034 71.776497 -0.61106139
54.931911 73.123039 -0.35924265
37.238754 90.923416 0
33.519188 94.66552 1.2075319
56.332764 71.695084 -0.90549326
56.235401 71.792793 -0.61307859
54.928238 73.104706 -0.35895208
37.242973 90.854195 0
33.515167 94.595535 1.2062259
56.312584 71.696709 -0.90677756
56.204052 71.805374 -0.61480892
54.920914 73.090065 -0.35880709
37.251007 90.781326 0
33.525963 94.510887 1.2043391
56.318829 71.681168 -0.90549326
56.243229 71.756767 -0.6113494
54.915421 73.084579 -0.35880709
37.256912 90.743088 0
33.525902 94.474098 1.2036136
56.309555 71.671883 -0.90549326
56.178925 71.802193 -0.61567408
54.886059 73.091942 -0.35953265
37.257774 90.677673 0
33.540604 94.38588 1.201582
56.26754 71.695175 -0.90934455
56.180508 71.781792 -0.61480892
54.805088 73.150581 -0.36229044
37.255077 90.615967 0
33.50391 94.349052 1.201582
56.276463 71.667747 -0.9072051
56.167442 71.775978 -0.61509693
54.794037 73.139465 -0.36229044
37.245106 90.561623 0
33.459892 94.319496 1.201872
56.263542 71.662033 -0.90763432
56.110275 71.813828 -0.61884445
54.794083 73.117355 -0.36185488
37.246311 90.496315 0
33.423279 94.28257 1.201872
56.236034 71.670715 -0.90977377
56.093475 71.811562 -0.6194216
41.837212 85.896599 -0.87010682
37.251335 90.427399 0
33.334961 94.29673 1.2039037
56.245052 71.643311 -0.90763432
56.106152 71.780212 -0.61769128
41.770054 85.909935 -0.87170351
37.252785 90.362175 0
33.239159 94.318024 1.2062259
56.217522 71.651932 -0.90977377
56.063564 71.803307 -0.62028563
41.695427 85.93042 -0.87359017
37.250641 90.300644 0
33.165482 94.317276 1.2076775
56.193619 71.656906 -0.91148561
56.031975 71.815453 -0.62201595
64 64 -0
37.233742 90.253723 0
33.09919 94.309113 1.2088387
56.188053 71.64386 -0.9110564
56.015152 71.813042 -0.62259197
64 64 -0
37.242966 90.18132 0
33.021744 94.311722 1.2104348
56.167797 71.64518 -0.9123407
56.016811 71.792564 -0.62172794
64 64 -0
37.22625 90.13443 0
32.966549 94.292412 1.2111603
56.140175 71.653618 -0.91448015
55.985168 71.804558 -0.62345713
64 64 -0
37.22451 90.073021 0
32.915073 94.269394 1.2117409
56.134613 71.640541 -0.91405261
55.94606 71.8237 -0.62576348
41.578251 85.780785 -0.87300962
37.23037 90.004372 0
32.856148 94.253548 1.212612
56.125389 71.631027 -0.91405261
55.94405 71.806755 -0.62518632
41.622849 85.684967 -0.87025237
37.232605 89.939407 0
32.838287 94.1978 1.2118859
56.094017 71.642929 -0.91662121
55.9123 71.818596 -0.62691665
41.641499 85.614571 -0.86851072
37.238693 89.87088 0
32.820499 94.142067 1.2111603
56.073711 71.644051 -0.9179039
55.914036 71.798042 -0.62605149
41.626625 85.576714 -0.86807513
37.229942 89.816841 0
32.828991 94.061081 1.2094187
56.09037 71.609558 -0.91490936
55.859886 71.831306 -0.629511
41.585587 85.564072 -0.86865568
37.225014 89.759224 0
32.818893 93.998184 1.2084031
56.047848 71.631989 -0.91876066
55.876556 71.796387 -0.62749267
41.52581 85.569359 -0.8699618
37.227699 89.69442 0
32.831413 93.913712 1.2065164
56.031219 71.629471 -0.91961575
55.840981 71.811607 -0.629511
41.492249 85.549377 -0.87025237
37.219238 89.640442 0
32.829071 93.843689 1.2052103
56.019184 71.63176 -0.9204725
55.828796 71.81382 -0.63008702
41.482998 85.532173 -0.87010682
37.233849 89.595482 0
32.841095 93.796112 1.2040492
56.013695 71.618553 -0.92004329
55.789413 71.832512 -0.63239336
41.464512 85.497787 -0.86981684
37.229294 89.537987 0
32.850235 93.715393 1.2023075
55.989616 71.623062 -0.92175519
55.761223 71.840408 -0.63383454
41.461147 85.449036 -0.86894572
37.239937 89.466141 0
32.833176 93.659828 1.201582
55.969238 71.623978 -0.9230395
55.736748 71.844696 -0.63498771
41.423935 85.432526 -0.86938125
37.228054 89.415878 0
32.842587 93.579208 1.1998403
55.971222 71.603676 -0.92175519
55.73103 71.831154 -0.6346997
41.379192 85.423096 -0.87010682
37.227596 89.354874 0
32.840824 93.509384 1.1985341
55.947109 71.608078 -0.92346704
55.683964 71.856689 -0.6375832
41.311768 85.435013 -0.87170351
37.219688 89.301056 0
32.839188 93.43959 1.1972281
55.934177 71.601868 -0.92389625
55.636837 71.882103 -0.64046556
41.221596 85.46817 -0.87417072
37.227005 89.232986 0
32.837685 93.369827 1.1959214
55.906296 71.609695 -0.9260357
55.627319 71.871994 -0.64046556
41.119946 85.511826 -0.87707353
37.211708 89.186356 0
32.821148 93.314362 1.1951958
55.893368 71.603424 -0.92646325
55.614044 71.86541 -0.64075357
41.044697 85.53038 -0.87896019
37.223042 89.114807 0
32.812275 93.251785 1.1941803
55.876694 71.600632 -0.92731833
55.604546 71.85527 -0.64075357
40.885887 85.626892 -0.88403964
37.215527 89.061096 0
32.79213 93.199883 1.1935997
55.871269 71.587311 -0.92689079
55.564812 71.873352 -0.64305991
40.761005 85.691139 -0.88781303
37.219505 88.99675 0
32.779671 93.140869 1.1927286
55.847076 71.591476 -0.92860264
55.521233 71.894882 -0.64565426
40.673958 85.719704 -0.89013523
37.223602 88.932457 0
32.763496 93.085419 1.192003
55.849197 71.571136 -0.92731833
55.488953 71.905762 -0.64738458
40.598236 85.73748 -0.89202189
37.220196 88.875282 0
32.770264 93.008743 1.1904063
55.772263 71.6241 -0.93502259
55.468033 71.906006 -0.64824861
40.560547 85.719788 -0.89245749
37.197784 88.835838 0
32.754292 92.953331 1.1896808
55.796982 71.582794 -0.9311713
55.473682 71.881645 -0.64709544
37.213661 88.761032 0
32.780373 92.859123 1.1873591
55.768959 71.590271 -0.93331069
55.456551 71.878357 -0.64767259
37.202892 88.711014 0
32.787552 92.782623 1.1857624
55.703125 71.632454 -0.93972898
55.447037 71.868034 -0.64767259
37.199871 88.653946 0
32.771919 92.727303 1.1850369
55.74308 71.577293 -0.93416584
55.403236 71.889168 -0.65026695
37.212288 88.582825 0
32.77169 92.657928 1.1837308
55.718784 71.581177 -0.93587768
55.378448 71.892746 -0.65142012
37.205635 88.529358 0
32.802246 92.560516 1.1812636
55.705841 71.574631 -0.93630522
55.361286 71.88929 -0.65199614
37.195229 88.479424 0
32.786957 92.505272 1.1805375
55.667118 71.600761 -0.94015819
55.387096 71.856186 -0.64968979
37.211205 88.435165 0
32.777412 92.479408 1.1802474
55.665543 71.583771 -0.93930143
55.415863 71.810959 -0.64680743
37.208656 88.37825 0
32.812202 92.378708 1.1776352
55.614563 71.611656 -0.94400948
53.667576 73.378983 -0.77768499
37.206184 88.321381 0
32.816422 92.306068 1.1761836
55.609192 71.598068 -0.94358027
53.652405 73.36998 -0.77797413
37.199974 88.268021 0
32.81691 92.236984 1.1748774
55.565716 71.618904 -0.94743323
53.667969 73.333191 -0.7759558
37.18998 88.218178 0
32.825226 92.160973 1.1732813
55.598473 71.5709 -0.94272518
53.641327 73.334549 -0.77710897
37.199394 88.150925 0
32.825974 92.091965 1.1719747
55.574059 71.574471 -0.94443703
53.676216 73.280525 -0.77364945
37.212814 88.080246 0
32.811375 92.036903 1.171249
55.526695 71.598557 -0.94871587
53.661163 73.2715 -0.77393746
37.195366 88.03743 0
32.823952 91.957565 1.1695074
55.498394 71.605423 -0.95085531
53.646103 73.262459 -0.77422661
37.197357 87.97728 0
32.821175 91.892151 1.1683463
55.462391 71.61908 -0.95385152
53.6465 73.239601 -0.77336144
37.315903 87.813248 -0.99883896
37.191719 87.924072 0
32.822392 91.823318 1.1670401
55.464699 71.598511 -0.95256716
53.639206 73.223648 -0.77307343
37.302677 87.767166 -0.99825841
37.197815 87.860519 0
32.823723 91.754532 1.1657341
55.350292 71.662971 -0.96326596
53.620827 73.195145 -0.77278429
37.303658 87.650894 -0.99608177
37.18309 87.757706 0
32.815083 91.627426 1.1635574
55.294876 71.693314 -0.96840155
53.605839 73.186035 -0.77307343
37.29847 87.597969 -0.99521065
37.181694 87.701172 0
32.805092 91.569069 1.1626862
55.285583 71.682793 -0.96840155
53.594746 73.173462 -0.77307343
37.297268 87.541626 -0.99419451
37.160889 87.661858 0
32.814674 91.493561 1.1610901
55.241615 71.702766 -0.97225285
53.591446 73.154045 -0.77249628
37.303959 87.478455 -0.99288839
37.147957 87.615662 0
32.8088 91.431831 1.160074
55.209148 71.712502 -0.97482151
53.592049 73.131241 -0.77163225
37.295139 87.429047 -0.99216282
64 64 0
32.799107 91.373566 1.1592034
55.184383 71.715401 -0.97653335
53.573242 73.125465 -0.77220827
37.294212 87.372818 -0.99114728
37.141876 87.506142 0
32.812981 91.294777 1.1574618
55.236946 71.650719 -0.96968585
53.566116 73.109459 -0.77192026
37.293396 87.316605 -0.9901312
37.125259 87.463394 0
32.80352 91.236557 1.1565907
53.547325 73.103638 -0.77249628
37.292679 87.260422 -0.98911506
37.128311 87.403572 0
32.801987 91.171539 1.1554296
53.532429 73.094383 -0.77278429
37.299896 87.197464 -0.98780894
37.14328 87.333534 0
32.820171 91.089516 1.1535429
53.540989 73.064796 -0.77134311
37.338646 87.107323 -0.98534173
37.126907 87.290833 0
32.814941 91.028008 1.1525273
53.522209 73.058922 -0.77192026
37.613434 86.813385 -0.97416669
37.106651 87.251541 0
32.833408 90.946121 1.1506406
64 64 -0
53.481506 73.083015 -0.77451462
38.122772 86.345718 -0.95486385
37.124126 87.208076 0
32.840744 90.906906 1.1497695
53.497978 73.046661 -0.77249628
38.170593 86.25 -0.9521066
37.111877 87.162003 0
32.835804 90.845505 1.148754
53.494896 73.027229 -0.77192026
38.143726 86.218773 -0.9521066
37.10759 87.109146 0
32.834923 90.780731 1.1475929
53.519337 72.984238 -0.76932591
38.144524 86.163834 -0.95109046
37.111301 87.04953 0
32.830208 90.719376 1.1465768
53.508492 72.971565 -0.76932591
38.149357 86.10556 -0.94992936
37.10326 87.000099 0
32.841396 90.644531 1.1449801
53.501602 72.955513 -0.76903677
38.162193 86.040588 -0.94847822
37.107155 86.940575 0
32.828991 90.590004 1.1442546
53.561695 72.882484 -0.76384807
38.135582 86.009354 -0.94847822
37.099285 86.89119 0
32.8325 90.522011 1.1429484
53.479992 72.930115 -0.76903677
38.148621 85.944458 -0.94702715
37.103374 86.831734 0
32.840088 90.450706 1.1414973
53.496834 72.894012 -0.76701957
38.137985 85.899773 -0.94644654
37.099648 86.77903 0
32.82798 90.396248 1.1407717
53.517708 72.854607 -0.76471323
38.139336 85.845032 -0.94543046
37.103951 86.719635 0
32.835815 90.325027 1.13932
53.451645 72.888596 -0.76874876
38.12886 85.800369 -0.94484991
37.10437 86.663658 0
32.827866 90.267258 1.1384495
53.488426 72.835899 -0.76528925
38.114471 85.759056 -0.94441432
37.088963 86.621094 0
32.831947 90.199486 1.1371434
53.430191 72.863075 -0.76874876
38.108109 85.711075 -0.94368875
37.085587 86.568481 0
32.840141 90.128403 1.1356918
53.447254 72.827072 -0.76673156
38.097839 85.666435 -0.9431082
37.086273 86.512573 0
32.836487 90.067406 1.1346761
53.436596 72.814316 -0.76673156
38.06369 85.641785 -0.94339877
37.091064 86.453369 0
32.836933 90.003098 1.133515
53.481625 72.755211 -0.7626949
38.001614 85.64035 -0.94470489
37.079956 86.407516 0
32.821514 89.952126 1.1329345
53.439213 72.768929 -0.76500124
37.899529 85.671989 -0.94746214
37.088936 86.345047 0
32.83017 89.881226 1.1314828
53.436584 72.749573 -0.76442522
37.781303 85.716682 -0.95080048
37.077988 86.299232 0
32.814926 89.830284 1.1309023
53.41407 72.746674 -0.76528925
37.658951 85.76442 -0.95428324
37.087173 86.236855 0
32.80777 89.772728 1.1300317
53.447407 72.697693 -0.76211888
41.366043 82.655441 -0.81916553
37.096466 86.17453 0
32.808735 89.70858 1.1288706
53.408947 72.707932 -0.76413608
41.355549 82.618187 -0.81873053
37.085777 86.128784 0
32.809807 89.64447 1.1277095
53.447651 72.665421 -0.7609657
41.368408 82.584709 -0.81785941
37.096558 86.09269 0
32.82645 89.599236 1.1265483
53.401176 72.682167 -0.76356006
41.341953 82.560638 -0.81800443
37.110138 86.027191 0
32.827705 89.535202 1.1253872
54.74559 71.562202 -0.99621737
53.418739 72.646439 -0.76154172
41.323563 82.529968 -0.81785941
37.095634 85.984802 0
32.816986 89.481079 1.1246617
54.90757 71.411545 -0.97781605
53.404293 72.636909 -0.76182973
41.301189 82.502548 -0.81785941
37.085228 85.939117 0
32.814407 89.42041 1.1236461
54.970314 71.342255 -0.97011346
55.055389 71.273079 -0.64248389
41.238537 82.507889 -0.81931055
37.082962 85.886887 0
32.836128 89.340088 1.1217594
55.049164 71.260193 -0.96069896
54.942158 71.346985 -0.64997894
41.175819 82.513123 -0.82076222
37.084835 85.83139 0
32.821678 89.289322 1.1211789
55.048389 71.242905 -0.95984221
54.772446 71.466179 -0.66150951
41.137306 82.498604 -0.82134277
37.082748 85.779213 0
32.835587 89.215668 1.1195822
55.095566 71.186943 -0.95385152
54.151604 71.948837 -0.70532775
41.078583 82.500336 -0.82264888
37.113167 85.700905 0
32.829399 89.158417 1.1187116
55.218857 71.069931 -0.93972898
54.109772 71.962883 -0.70763409
41.027901 82.495445 -0.82366496
37.143715 85.622704 0
32.819275 89.104431 1.1179855
55.342415 70.953224 -0.92560649
54.132423 71.925018 -0.70532775
41.001526 82.470924 -0.82380998
37.105431 85.600021 0
32.817314 89.043961 1.1169699
64 64 -0
54.284325 71.783722 -0.69379717
40.971119 82.449615 -0.82409996
37.095596 85.554489 0
32.80735 88.990021 1.1162444
64 64 -0
54.359783 71.704163 -0.68774331
54.134197 71.884445 -0.3527115
37.085838 85.508972 0
32.809658 88.926361 1.1150833
64 64 -0
54.399021 71.653816 -0.68428379
54.149052 71.853088 -0.35184094
37.088364 85.45372 0
32.820206 88.856255 1.1136316
55.393276 70.844208 -0.91662121
54.381691 71.648643 -0.68485981
54.037884 71.922043 -0.35546929
37.078754 85.408226 0
32.806465 88.805618 1.1130511
55.393066 70.827415 -0.91576445
54.449444 71.575943 -0.6793831
54.073109 71.874466 -0.35387263
37.085529 85.3498 0
32.817223 88.735619 1.1115999
55.372742 70.826576 -0.91704875
55.340824 70.85183 -0.61538494
54.047302 71.875366 -0.35445318
37.07608 85.304344 0
32.819962 88.672127 1.1104388
55.380615 70.803421 -0.91533691
55.389389 70.796494 -0.6113494
54.123451 71.795723 -0.35140538
37.08712 85.242783 0
32.818729 88.611893 1.1094227
55.364342 70.799347 -0.916192
64 64 -0
54.126293 71.774132 -0.35096982
37.081917 85.194145 0
32.793091 88.570984 1.1092777
55.356133 70.78891 -0.916192
64 64 -0
54.1782 71.714058 -0.34879315
37.064507 85.155182 0
32.804291 88.501167 1.1078266
55.35601 70.772133 -0.91533691
55.478828 70.675911 -0.60327721
54.164799 71.705383 -0.34893817
37.071747 85.096939 0
32.823799 88.424995 1.1060849
55.327614 70.777489 -0.91747636
55.491142 70.649689 -0.60183603
54.159588 71.6903 -0.34879315
37.083179 85.035545 0
32.806595 88.377701 1.1056494
55.335625 70.754379 -0.91576445
55.50351 70.623505 -0.60039485
54.14621 71.681595 -0.34893817
37.08242 84.983795 0
32.818142 88.308044 1.1041982
55.319389 70.758606 -0.91704875
55.515839 70.605652 -0.59924167
54.145664 71.672455 -0.34879315
37.065643 84.970726 0
32.819862 88.276436 1.1036177
55.32745 70.735519 -0.91533691
64 64 -0
54.156921 71.644608 -0.34806761
37.085533 84.903061 0
32.827492 88.210052 1.1023116
55.299026 70.740753 -0.91747636
55.491714 70.591476 -0.59981883
54.155914 71.626335 -0.34777704
37.068535 84.864136 0
32.81469 88.159637 1.1017311
55.278698 70.739655 -0.91876066
55.496037 70.571701 -0.59895366
54.154922 71.608086 -0.34748703
37.068047 84.812492 0
32.822525 88.093346 1.1004249
55.29089 70.71344 -0.91662121
55.484009 70.564575 -0.59924167
54.158089 71.586662 -0.3470515
37.088264 84.74498 0
32.80579 88.046135 1.0999893
55.258369 70.721687 -0.9191882
55.467873 70.560593 -0.59981883
54.128334 71.590599 -0.34777704
37.087967 84.693413 0
32.813831 87.979919 1.0986832
55.250256 70.711113 -0.9191882
55.455853 70.553421 -0.60010684
54.148041 71.556526 -0.34676093
37.087757 84.641884 0
32.805496 87.926407 1.0979577
55.242153 70.700539 -0.9191882
55.447941 70.543091 -0.60010684
39.743172 82.558647 -0.85298121
37.07111 84.603012 0
32.822014 87.853958 1.096361
55.258545 70.671272 -0.91662121
55.4277 70.542175 -0.600972
39.691845 82.551399 -0.85399735
37.071053 84.551521 0
32.809738 87.803658 1.0957805
55.275158 70.625282 -0.91319746
55.391319 70.537079 -0.60241318
39.634666 82.502029 -0.85443288
37.07951 84.442307 0
32.814377 87.681076 1.0936037
55.226242 70.645729 -0.91747636
55.379311 70.529793 -0.60270119
39.575047 82.500816 -0.855739
37.067265 84.400345 0
32.802353 87.630829 1.0930232
55.177261 70.666069 -0.92175519
55.354916 70.531845 -0.60385436
39.49881 82.512009 -0.85762566
37.096619 84.327003 0
32.802853 87.571182 1.092007
55.156906 70.66468 -0.9230395
55.355301 70.51516 -0.60327721
39.447403 82.504295 -0.8586418
37.088703 84.281952 0
32.811745 87.505318 1.090701
55.132446 70.666328 -0.92475134
55.343285 70.507828 -0.60356635
39.067841 82.743156 -0.87112296
37.06839 84.246277 0
32.791679 87.461365 1.0904105
55.132607 70.649452 -0.92389625
55.314739 70.512878 -0.60500753
38.762501 82.925018 -0.88099188
37.081417 84.185623 0
32.804924 87.392471 1.0889593
55.116364 70.644882 -0.92475134
55.319309 70.49308 -0.60414237
38.714691 82.913177 -0.8818624
37.052883 84.156197 0
32.805817 87.332962 1.0879432
55.087769 70.64949 -0.92689079
55.307327 70.485672 -0.60443038
38.708519 82.870186 -0.88128185
37.057739 84.101845 0
32.810951 87.270409 1.0867826
55.050907 70.660172 -0.929887
55.295334 70.478264 -0.60471952
38.723251 82.811691 -0.87997574
37.054344 84.053741 0
32.79953 87.220291 1.086202
55.026375 70.661598 -0.93159884
55.275063 70.476982 -0.60558355
38.754784 82.740868 -0.87808907
37.059395 83.999443 0
32.800713 87.160889 1.085186
55.03896 70.635475 -0.92945939
55.24646 70.481827 -0.60702473
38.778088 82.676338 -0.87649298
37.056156 83.951393 0
32.793629 87.107712 1.0844604
55.01844 70.642273 -0.9311713
55.250858 70.47039 -0.60644871
38.770996 82.657997 -0.87634742
37.069225 83.916534 0
32.817276 87.06105 1.0831543
55.002167 70.637505 -0.93202639
55.168121 70.515083 -0.61163741
38.777733 82.605911 -0.87533182
37.070301 83.865448 0
32.81871 87.001755 1.0821382
55.014824 70.61142 -0.929887
55.247749 70.440025 -0.60558355
38.767834 82.566177 -0.87489629
37.063087 83.820557 0
32.803505 86.954819 1.0817026
54.973732 70.624855 -0.93331069
55.169086 70.481476 -0.61048424
38.778934 82.511078 -0.87373519
37.05175 83.778748 0
32.805103 86.895592 1.080687
54.936745 70.63517 -0.93630522
55.157074 70.473869 -0.61077338
38.764965 82.474457 -0.87344515
37.065666 83.718506 0
32.811008 86.833321 1.0795259
54.895565 70.648438 -0.93972898
55.15345 70.460114 -0.61048424
38.772041 82.422493 -0.87242907
37.054474 83.676735 0
32.833805 86.758842 1.0777843
54.87923 70.643478 -0.94058573
55.174904 70.428116 -0.60846704
38.758194 82.385887 -0.87213904
37.055954 83.625778 0
32.810524 86.718109 1.0776392
54.842148 70.653572 -0.94358027
55.146225 70.432648 -0.60990822
38.76963 82.330933 -0.87097794
37.078583 83.559555 0
32.808331 86.662071 1.0767682
54.834114 70.642502 -0.94358027
55.146843 70.415863 -0.60933107
38.747505 82.300438 -0.87097794
37.076038 83.511742 0
32.823044 86.59388 1.075317
54.813606 70.640442 -0.94486457
55.12233 70.417282 -0.61048424
38.750687 82.251633 -0.87010682
38.241974 82.619362 0
32.846306 86.519653 1.0735754
54.80143 70.632339 -0.94529217
55.081013 70.430756 -0.61279058
38.753937 82.202881 -0.86923629
38.282829 82.542557 0
32.98772 86.360435 1.0677704
54.793423 70.621223 -0.94529217
55.119434 70.386757 -0.60962021
38.736176 82.169334 -0.86909127
38.273125 82.50235 0
33.289806 86.086273 1.0564498
54.777077 70.616081 -0.94614893
55.08651 70.394112 -0.6113494
38.756477 82.108498 -0.8676396
38.174652 82.525871 0
33.410927 85.943138 1.0513703
54.773262 70.601952 -0.94572133
55.040932 70.410423 -0.61394376
38.734612 82.07798 -0.8676396
38.118439 82.518867 0
33.473183 85.842659 1.0483224
54.748573 70.602722 -0.94743323
55.041607 70.393593 -0.61336774
38.742386 82.026314 -0.86662406
38.062187 82.511772 0
33.472206 85.787636 1.0474514
54.778259 70.564735 -0.94358027
55.017029 70.39476 -0.61452091
38.73333 81.98674 -0.86618847
37.993187 82.513626 0
33.471294 85.732658 1.0465808
54.841496 70.503059 -0.93630522
54.99667 70.392876 -0.61538494
38.707382 81.959198 -0.86633348
37.958099 82.491234 0
33.474724 85.67469 1.0455647
54.867161 70.468254 -0.93288153
54.980499 70.387978 -0.61596209
38.672974 81.937637 -0.86676902
37.884808 82.49585 0
33.465519 85.625771 1.0449841
54.792259 70.504608 -0.93972898
54.964348 70.383041 -0.61653811
38.655556 81.90403 -0.86662406
37.807213 82.503319 0
33.537025 85.519905 1.0416464
54.721447 70.537842 -0.94614893
54.977779 70.357224 -0.61509693
38.612701 81.888359 -0.86734957
37.74659 82.498642 0
33.587502 85.429207 1.0390341
54.704899 70.5411 -0.94743323
54.944321 70.372612 -0.61711526
42.05275 79.444603 -0.74950248
37.697113 82.509735 0
33.680809 85.33606 1.0354058
54.730621 70.506264 -0.94400948
54.923939 70.370575 -0.61797929
42.029854 79.421051 -0.7496475
37.615128 82.519791 0
33.706093 85.26358 1.0336641
64 64 -0
54.773235 70.459724 -0.93887389
54.941666 70.341805 -0.6162501
42.015491 79.391518 -0.74950248
37.56292 82.508797 0
33.727257 85.194176 1.0320674
54.803318 70.422119 -0.93502259
54.912807 70.345665 -0.61769128
64 64 -0
37.476574 82.52153 0
33.714439 85.148666 1.0316324
54.799789 70.408058 -0.93459338
54.926369 70.319901 -0.6162501
42.003956 79.320518 -0.74863136
37.432846 82.504356 0
33.735825 85.079376 1.0300357
54.80048 70.391083 -0.93373829
54.888992 70.32959 -0.61826843
41.989723 79.29097 -0.74848634
37.342129 82.519745 0
33.731712 85.027969 1.0293102
54.801212 70.374115 -0.93288153
54.86861 70.327408 -0.61913246
41.984081 79.255478 -0.74805081
37.289818 82.50827 0
33.731964 84.973618 1.028439
54.742836 70.398018 -0.93801713
54.805653 70.354607 -0.62287998
41.935734 79.24955 -0.74906689
37.233219 82.499664 0
33.710915 84.934074 1.0282941
54.667477 70.433456 -0.94486457
54.72131 70.396347 -0.62806982
41.913048 79.22583 -0.74921191
37.180885 82.487991 0
33.698463 84.888626 1.0278591
64 64 -0
54.832939 70.303062 -0.61999762
41.928925 79.175575 -0.74805081
37.081367 82.508644 0
33.686096 84.843155 1.0274235
64 64 -0
54.761337 70.335869 -0.6243223
64 64 -0
36.951714 82.549698 0
33.656654 84.809448 1.0275685
54.656933 70.390884 -0.94358027
54.73661 70.336388 -0.62547547
64 64 -0
36.632912 82.719757 0
33.670132 84.746368 1.0262624
54.653458 70.376701 -0.94315273
41.998535 79.010544 -0.74384248
36.378143 82.84507 0
33.649376 84.706779 1.0261174
54.594822 70.400063 -0.94828832
42.010498 78.963478 -0.74282634
36.312366 82.840958 0
33.628685 84.66716 1.0259719
54.383202 70.527077 -0.9688291
42.018242 78.91938 -0.74195522
36.289619 82.807495 0
37.163952 82.214066 0.90580302
54.256279 70.596039 -0.98081219
42.026043 78.875336 -0.74108469
41.861328 78.986839 0
37.172092 82.161232 0.90478694
54.171734 70.635971 -0.98851478
42.016689 78.842964 -0.74079466
41.843239 78.960075 0
37.137245 82.137527 0.90522248
54.167976 70.621223 -0.98808724
42.020336 78.801865 -0.74006855
41.833805 78.927483 0
37.102425 82.113754 0.90565747
54.177032 70.597885 -0.98637539
42.019722 78.76371 -0.73948801
64 64 0
37.106438 82.063866 0.90478694
54.164513 70.597679 -0.98723215
42.023743 78.741753 -0.73905301
41.850021 78.858284 0
37.099838 82.044724 0.90464193
54.199226 70.557236 -0.98295164
41.993 78.723846 -0.73948801
41.832085 78.831512 0
37.103981 81.994858 0.9037708
54.25536 70.502647 -0.97653335
41.983864 78.691483 -0.73919797
41.844467 78.7845 0
37.116837 81.93927 0.90260971
54.290257 70.462418 -0.97225285
41.961807 78.667747 -0.73934299
41.822296 78.760597 0
37.207657 81.831917 0.89883637
54.325222 70.422295 -0.96797401
41.939774 78.643974 -0.73948801
41.804474 78.733788 0
37.255409 81.75354 0.89651412
54.308914 70.41626 -0.9688291
41.909088 78.625916 -0.73992354
37.351444 81.64344 0
64 64 0
54.249756 70.438492 -0.97396475
41.891434 78.599213 -0.73992354
37.330147 81.611229 0
64 64 0
54.267704 70.409775 -0.97139776
41.847763 78.589645 -0.74079466
37.295856 81.58757 0
37.273678 81.602173 0.89375687
55.701729 69.450943 -0.82760733
41.825806 78.56572 -0.74093968
37.278969 81.552437 0
37.287178 81.547043 0.89259577
55.652191 69.469055 -0.83188778
41.803883 78.541763 -0.74108469
37.257782 81.520134 0
37.27034 81.511909 0.89245075
55.619812 69.475815 -0.83445477
41.781982 78.517776 -0.74122965
37.21048 81.504898 0
37.249199 81.479599 0.89245075
55.647614 69.443253 -0.83103108
41.764458 78.490913 -0.74122965
37.150108 81.498093 0
37.210678 81.458611 0.89303136
55.632423 69.438759 -0.83188778
41.751312 78.461212 -0.74108469
37.120262 81.471298 0
37.180901 81.431892 0.89332134
55.485661 69.504929 -0.84515357
41.725151 78.401764 -0.74079466
31.627789 84.930191 0
31.509354 85.006767 1.0805415
64 64 -0
41.699043 78.380463 -0.74108469
31.55003 84.924911 0
31.453419 84.987213 1.0815576
64 64 -0
41.603012 78.404099 -0.74369687
31.46349 84.925102 0
31.375633 84.981606 1.0832993
55.500336 69.451859 -0.84172982
41.502506 78.430344 -0.74645472
31.376884 84.925117 0
31.293442 84.978638 1.085186
55.532673 69.416687 -0.83787853
53.974983 70.413162 -0.66323984
41.410667 78.450752 -0.74892193
31.294628 84.92215 0
31.215584 84.97271 1.0869277
55.539124 69.398163 -0.83659422
53.993416 70.384346 -0.66150951
41.349419 78.451393 -0.75037301
31.216732 84.916199 0
31.124561 84.975006 1.0891043
55.717712 69.277184 -0.81862044
53.93285 70.414429 -0.66525704
41.301254 78.462837 -0.75167912
31.147041 84.932739 0
31.050526 84.99424 1.0911366
55.862991 69.170799 -0.80364281
53.920746 70.405037 -0.66554505
41.275009 78.440979 -0.7519697
31.047077 84.940498 0
30.968166 84.990646 1.0930232
55.917454 69.12249 -0.79765207
53.917381 70.390083 -0.66525704
41.310257 78.380127 -0.75022805
30.955864 84.942451 0
30.876995 84.992439 1.0951999
64 64 -0
53.896545 70.386192 -0.6661222
38.165298 80.32959 -0.85356176
30.877789 84.935883 0
30.790146 84.99128 1.0972321
55.92247 69.091995 -0.79594022
53.919472 70.354668 -0.66410387
38.180759 80.276192 -0.85240066
30.799679 84.929153 0
30.720852 84.978844 1.0986832
64 64 -0
53.968727 70.306686 -0.66035634
46.124016 75.238678 -0.58971184
30.74358 84.908409 0
30.638336 84.974571 1.10057
55.918896 69.067001 -0.79508346
53.912899 70.324799 -0.66352785
46.053215 75.25296 -0.59159851
30.713917 84.870979 0
30.586609 84.950806 1.1014404
55.947605 69.035454 -0.79165971
53.940353 70.290657 -0.6612215
46.057259 75.220245 -0.59101796
46.050163 75.224678 0
30.53487 84.926956 1.1023116
55.941525 69.025719 -0.79165971
53.937145 70.275764 -0.66093349
46.048119 75.195808 -0.590873
46.054283 75.191963 0
45.977768 75.239685 0.59318852
55.926731 69.021408 -0.79251647
53.925179 70.266335 -0.6612215
46.069908 75.152153 -0.58971184
46.040771 75.170273 0
45.999504 75.195938 0.59202743
55.916313 69.014351 -0.79294401
53.93959 70.240524 -0.65978032
46.10944 75.097603 -0.5879702
46.0494 75.13485 0
45.985989 75.174179 0.59202743
55.927723 68.993774 -0.79123217
53.962856 70.209305 -0.65776199
46.157909 75.037704 -0.58593851
46.035957 75.113152 0
45.990181 75.141472 0.59144682
55.921696 68.984024 -0.79123217
53.92894 70.213478 -0.65949231
44.185356 76.224915 -0.65023208
46.013672 75.096909 0
45.972294 75.122437 0.59159237
55.928802 68.966179 -0.78994787
53.952282 70.182327 -0.65747398
44.179459 76.195511 -0.64994156
29.855934 85.008728 0
45.967728 75.0952 0.59130186
55.922806 68.956429 -0.78994787
53.94482 70.170181 -0.65747398
44.209023 76.144379 -0.64849043
29.852749 84.95385 0
30.496368 84.558907 1.0978127
55.91243 68.949348 -0.79037702
53.950615 70.149925 -0.65660882
46.12693 74.937782 -0.58521295
29.778633 84.942451 0
30.493729 84.504837 1.0970865
55.884548 68.952942 -0.79251647
53.947601 70.135086 -0.65632081
46.091553 74.929718 -0.58593851
29.673374 84.949898 0
30.47784 84.458923 1.0967965
55.913654 68.921783 -0.78909272
53.900429 70.147141 -0.65891516
46.13163 74.875641 -0.58419687
29.585846 84.946289 0
30.475334 84.4049 1.096071
55.907715 68.912003 -0.78909272
53.915115 70.121513 -0.65747398
44.163891 76.040489 -0.64805484
29.484924 84.9506 0
30.481808 84.345497 1.0950549
55.895977 68.912437 -0.78994787
53.924694 70.107368 -0.65660882
44.174397 76.017731 -0.64747429
29.436665 84.951332 0
30.500633 84.306381 1.0940387
55.894436 68.899986 -0.78952026
53.908459 70.100548 -0.65718597
44.217701 75.958817 -0.64558762
29.340107 84.952637 0
30.489452 84.257835 1.0936037
64 64 -0
55.901699 68.88224 -0.78823763
53.90554 70.08567 -0.65689683
64 64 -0
29.207848 84.975227 0
30.487263 84.203903 1.0928776
55.909012 68.864517 -0.78695333
53.867157 70.092133 -0.65891516
44.202209 75.902946 -0.64515263
29.128998 84.965355 0
30.485142 84.150009 1.0921521
64 64 -0
55.911953 68.849449 -0.78609657
53.859802 70.07988 -0.65891516
64 64 -0
29.005489 84.982086 0
30.460819 84.109497 1.0921521
55.897278 68.844948 -0.78695333
53.830269 70.080894 -0.66035634
44.218113 75.8284 -0.64370096
28.939945 84.963837 0
30.463299 84.052963 1.0912815
55.882618 68.840408 -0.78780842
53.805157 70.079201 -0.66150951
44.235069 75.785858 -0.64268541
28.843128 84.964096 0
30.465881 83.996445 1.0904105
55.863533 68.83847 -0.78909272
53.824486 70.051018 -0.65978032
44.22084 75.761971 -0.64268541
28.746243 84.964172 0
30.464073 83.942635 1.0896848
55.89743 68.805069 -0.78524143
53.857224 70.014977 -0.65718597
44.220058 75.73011 -0.64224982
28.685123 84.942795 0
30.440002 83.9021 1.0896848
55.882805 68.800499 -0.78609657
53.881134 69.984283 -0.65516764
44.201431 75.708839 -0.64239484
28.574715 84.950455 0
30.451763 83.84037 1.0885237
55.863739 68.798515 -0.78738087
64 64 -0
44.173866 75.692833 -0.64283037
28.482189 84.947289 0
30.454666 83.783981 1.0876532
55.844666 68.796486 -0.78866518
55.788406 68.829575 -0.53091997
44.146309 75.676773 -0.64326596
28.349228 84.96769 0
30.439754 83.738159 1.0873626
55.84774 68.781433 -0.78780842
55.679962 68.879837 -0.53754985
44.123253 75.658028 -0.64355594
28.301476 84.937759 0
30.433842 83.687088 1.0867826
64 64 -0
55.656212 68.880226 -0.53870302
44.050873 75.668114 -0.64544261
28.294174 84.884094 0
30.445965 83.625526 1.0856215
64 64 -0
55.659248 68.864937 -0.53812701
43.991886 75.670189 -0.64689428
33.075035 82.037689 0
30.444736 83.571869 1.0848954
64 64 -0
55.63549 68.865257 -0.53928018
43.964336 75.653831 -0.64732933
33.035267 82.010773 0
30.425598 83.528702 1.0847504
64 64 -0
55.656471 68.839569 -0.53754985
43.896324 75.660904 -0.64907098
32.986504 81.989021 0
30.42001 83.477692 1.0841699
64 64 -0
55.623756 68.845024 -0.53928018
43.841766 75.660019 -0.65037709
32.955788 81.956741 0
30.427975 83.418892 1.0831543
64 64 -0
55.61343 68.837486 -0.53956819
43.823196 75.638252 -0.65052211
32.952148 81.908813 0
30.431553 83.362732 1.0822831
55.868271 68.683945 -0.78224528
55.61499 68.829834 -0.53928018
39.466232 78.13166 -0.79071987
32.887211 81.921234 0
30.401848 83.352821 1.0828637
55.867065 68.671562 -0.78181767
55.62262 68.811974 -0.53841501
39.453678 78.099419 -0.79057485
32.815926 81.91214 0
30.410019 83.294098 1.0818481
55.776791 68.710205 -0.78994787
55.616814 68.801842 -0.53841501
39.418621 78.080078 -0.7911554
32.758194 81.895142 0
30.431835 83.227661 1.0803965
55.802299 68.682449 -0.78695333
55.615501 68.789146 -0.53812701
39.406151 78.047783 -0.79100984
32.709465 81.872871 0
30.399593 83.192245 1.080687
55.725269 68.713196 -0.79380077
55.677151 68.740608 -0.53380233
39.362091 78.033493 -0.79188097
32.579361 81.896866 0
30.394489 83.141342 1.0801065
55.759773 68.680367 -0.78994787
55.671429 68.730545 -0.53380233
39.304489 78.02681 -0.79318708
32.517014 81.882034 0
30.430126 83.06736 1.0782198
55.682644 68.710892 -0.79679531
55.670216 68.717934 -0.53351432
52.73061 70.382904 -0.36170986
32.336929 81.933746 0
30.407112 83.026787 1.0782198
55.757416 68.655396 -0.78909272
55.66452 68.707863 -0.53351432
52.691246 70.387169 -0.36272544
32.22464 81.946671 0
30.397728 82.978508 1.0777843
55.760735 68.640404 -0.78823763
55.676868 68.687637 -0.53236115
52.692581 70.368401 -0.36243543
32.121353 81.954239 0
30.388409 82.930244 1.0773487
55.777531 68.617867 -0.78609657
55.648663 68.690239 -0.53380233
52.77552 70.303841 -0.35953265
32.040688 81.948837 0
30.397266 82.871811 1.0763332
55.785385 68.600403 -0.78481388
55.570786 68.720589 -0.53841501
38.136574 78.484215 -0.82787335
32.000862 81.92038 0
30.388092 82.82357 1.0758976
55.779831 68.590477 -0.78481388
55.519917 68.735626 -0.54129851
38.141769 78.440285 -0.82714778
31.947414 81.899467 0
30.392605 82.767738 1.0750265
55.778786 68.578033 -0.78438467
55.491608 68.737953 -0.54273969
38.11525 78.414093 -0.82743835
31.857613 81.898705 0
30.401722 82.709427 1.074011
55.809155 68.548172 -0.78096259
55.485889 68.727669 -0.54273969
38.129662 78.365143 -0.82642221
31.817806 81.869957 0
30.388237 82.663765 1.0737203
55.799179 68.540756 -0.78139013
55.466618 68.724892 -0.54360372
38.162338 78.306183 -0.82482553
31.846329 81.803322 0
30.402081 82.602997 1.0725592
55.775719 68.540771 -0.78310204
55.429211 68.732079 -0.54562205
38.172363 78.259888 -0.823955
31.765594 81.797173 0
30.42057 82.53978 1.0712532
55.77475 68.528343 -0.78267282
55.432556 68.716736 -0.54504603
42.243134 75.978058 -0.6936267
38.368961 78.110954 0
30.439159 82.476639 1.069947
55.746765 68.530762 -0.78481388
55.372463 68.736244 -0.54850441
42.287895 75.91925 -0.69174004
38.379314 78.064941 0
30.416859 82.436073 1.069947
55.727798 68.528175 -0.78609657
55.375813 68.720848 -0.54792839
39.068977 77.647163 -0.79376763
38.293846 78.071465 0
30.417397 82.383011 1.0692215
55.674519 68.53775 -0.79037702
55.358196 68.710159 -0.54850441
38.966713 77.644226 -0.79623491
38.250107 78.034813 0
30.402386 82.312164 1.0686409
55.475082 68.633102 -0.80877841
55.329773 68.712074 -0.54994673
38.900032 77.641266 -0.797831
38.169151 78.038483 0
30.398548 82.261627 1.0680604
55.464981 68.625237 -0.80920595
55.383205 68.669556 -0.5461992
38.856148 77.625786 -0.79870212
38.083557 78.044464 0
30.385635 82.216064 1.0677704
55.445843 68.622246 -0.81049025
53.088509 69.896034 -0.69120282
38.775696 77.629974 -0.8007338
37.965874 78.067566 0
30.368237 82.172958 1.0676248
55.413155 68.626518 -0.81305724
53.149708 69.846039 -0.68687814
38.740948 77.609344 -0.80131435
37.88475 78.070663 0
30.369175 82.11998 1.0668992
55.434696 68.601562 -0.81049025
53.256573 69.771721 -0.67967111
38.651272 77.618172 -0.80363655
37.854008 78.046486 0
30.37019 82.067039 1.0661737
55.329586 68.644539 -0.81990474
53.194885 69.788048 -0.68313062
38.584442 77.614525 -0.80523324
37.781998 78.04438 0
30.352959 82.023941 1.0660287
55.23793 68.680023 -0.82803649
53.096642 69.82373 -0.68889648
38.494682 77.622971 -0.8075549
37.714558 78.039658 0
30.344963 81.975922 1.0655931
55.250412 68.659775 -0.82632464
52.989174 69.864044 -0.69523835
38.446129 77.609245 -0.80857104
37.647072 78.034798 0
30.263641 81.966995 1.0674797
55.145035 68.702171 -0.83573908
52.945545 69.870148 -0.69754469
38.347092 77.622223 -0.81118327
37.538193 78.051773 0
30.205238 81.945724 1.0686409
55.09853 68.713089 -0.83959037
52.911041 69.8713 -0.69927388
38.280125 77.617973 -0.81277996
37.470646 78.04657 0
30.146835 81.924332 1.069802
55.033821 68.733482 -0.84515357
52.894798 69.862732 -0.69985104
38.194763 77.623276 -0.81495661
37.407654 78.038811 0
30.019512 81.939209 1.0731398
55.037186 68.717873 -0.84429842
52.869411 69.858948 -0.70100421
38.136925 77.613876 -0.81626326
37.298592 78.055153 0
29.947269 81.924767 1.0747365
55.06332 68.690331 -0.84130228
53.008911 69.76857 -0.69177884
38.065292 77.611588 -0.81800443
37.180244 78.076096 0
29.870419 81.912582 1.0764781
55.044006 68.686676 -0.84258658
53.079865 69.714508 -0.68687814
38.002808 77.60434 -0.8194561
37.084862 78.084702 0
29.775127 81.909889 1.0788004
55.05201 68.668724 -0.84130228
53.08213 69.696533 -0.68630213
37.926498 77.604164 -0.82134277
36.998657 78.08828 0
29.665981 81.914192 1.0815576
55.005386 68.67923 -0.84515357
53.11657 69.661842 -0.68370664
37.836311 77.611023 -0.82366496
36.967796 78.062851 0
29.575203 81.908669 1.0837349
55.008846 68.663635 -0.84429842
53.105133 69.651077 -0.68399578
37.76915 77.605721 -0.82526112
36.927727 78.04216 0
29.48901 81.900558 1.0857666
55.001476 68.660561 -0.84472603
53.106327 69.642105 -0.68370664
37.700951 77.620934 -0.82714778
27.093632 83.114731 0
29.390537 81.92511 1.0885237
54.99585 68.649681 -0.84472603
53.127087 69.6147 -0.68197745
37.652184 77.605843 -0.82816386
27.061321 83.074898 0
29.304249 81.916664 1.090556
54.994801 68.636452 -0.84429842
53.106506 69.608665 -0.68284261
37.552605 77.616814 -0.8307761
36.413437 78.203323 0
29.231812 81.900887 1.0921521
54.998348 68.620872 -0.84344167
53.076733 69.607307 -0.68428379
37.462196 77.622818 -0.83309835
36.405548 78.165237 0
23.403618 84.8396 1.2744378
55.015617 68.598305 -0.84130228
53.157463 69.549324 -0.67880595
37.404121 77.612053 -0.83440447
36.402359 78.124763 0
23.364582 84.797638 1.2748734
55.014637 68.585114 -0.84087473
53.19223 69.51506 -0.6762116
37.322899 77.612968 -0.83643615
36.482666 78.041725 0
23.344109 84.746162 1.2747283
54.986229 68.585892 -0.84301412
64 64 -0
37.232361 77.618431 -0.83875835
64 64 0
23.337597 84.687592 1.2741477
54.985268 68.57267 -0.84258658
64 64 -0
37.151047 77.618988 -0.84079003
64 64 0
23.303368 84.643143 1.2744378
54.961426 68.571045 -0.84429842
64 64 -0
37.111408 77.598267 -0.84151614
64 64 0
23.199619 84.63382 1.2769051
54.960503 68.5578 -0.84386927
64 64 -0
37.090363 77.568108 -0.84166116
36.819435 77.704712 0
44.732918 73.714653 0.60262245
54.955002 68.546875 -0.84386927
64 64 -0
37.064709 77.540245 -0.84195119
36.863365 77.641457 0
44.725853 73.689026 0.60247689
54.940327 68.54055 -0.84472603
64 64 -0
37.062294 77.50071 -0.84151614
36.902725 77.580681 0
44.690933 73.677368 0.60320246
54.934849 68.529602 -0.84472603
64 64 -0
37.069256 77.456528 -0.84079003
36.91428 77.533966 0
44.688545 73.649384 0.60291243
54.901817 68.532372 -0.84729296
64 64 -0
37.057663 77.421661 -0.84064507
36.935219 77.482666 0
44.690857 73.619095 0.60247689
64 64 -0
54.790585 68.573906 -0.85713667
64 64 -0
37.036816 77.391411 -0.84079003
64 64 0
44.674583 73.598076 0.60262245
54.826485 68.542267 -0.8532837
52.880688 69.505722 -0.69149083
37.053242 77.342682 -0.83977449
36.935352 77.401054 0
44.653694 73.579323 0.60291243
54.761143 68.56073 -0.85884851
52.915787 69.47168 -0.68889648
37.046471 77.305511 -0.83948392
36.923859 77.366035 0
44.637474 73.558235 0.60305744
54.751038 68.551826 -0.85927606
52.909184 69.458282 -0.68889648
37.081688 77.247696 -0.83788782
36.921726 77.326416 0
44.616608 73.539429 0.60334802
54.713291 68.556473 -0.86227059
52.939751 69.426651 -0.68659014
37.070362 77.212875 -0.83774281
36.933693 77.27993 0
44.600433 73.518288 0.60349298
54.705917 68.553123 -0.86269981
52.708866 69.531471 -0.70071507
37.076389 77.189743 -0.83730727
36.939682 77.256714 0
44.576019 73.515709 0.60407358
54.709656 68.537384 -0.86184305
52.818394 69.461067 -0.69350803
37.088501 77.143509 -0.83643615
36.914337 77.228569 0
44.559868 73.494514 0.60421854
54.69957 68.528397 -0.86227059
52.797844 69.454353 -0.69437319
37.081974 77.106438 -0.83614612
36.921768 77.184441 0
44.562431 73.464188 0.60378301
54.670998 68.528374 -0.86441165
52.702839 69.483734 -0.69985104
37.075516 77.069359 -0.8358556
36.924587 77.142624 0
44.53698 73.447502 0.60421854
54.637814 68.53051 -0.86697865
54.297955 68.694977 -0.60068285
37.092476 77.020981 -0.83484
36.908726 77.109894 0
44.539619 73.417191 0.60378301
54.618469 68.525887 -0.86826295
54.273651 68.692238 -0.60183603
37.08144 76.986198 -0.83469504
36.925728 77.061317 0
44.518883 73.398186 0.60407358
54.645401 68.49897 -0.8652668
54.249344 68.689453 -0.6029892
41.603775 74.771172 -0.6940617
36.900574 77.033112 0
44.493484 73.381401 0.60450912
54.64922 68.483231 -0.86441165
54.257683 68.670952 -0.60212404
41.651688 74.714897 -0.69217503
36.913013 76.986855 0
44.463421 73.366814 0.60508966
54.616024 68.485207 -0.86697865
54.294044 68.639107 -0.59952968
41.802856 74.609451 -0.68709558
36.916126 76.945137 0
44.438065 73.349915 0.60552466
54.615242 68.471664 -0.8665511
54.279099 68.631828 -0.60010684
42.062153 74.452972 -0.67867774
36.914589 76.905693 0
19.689545 85.113098 1.3708054
54.582031 68.473534 -0.86911809
54.240814 68.635605 -0.60212404
42.143402 74.381866 -0.67577553
36.91782 76.864021 0
19.673447 85.055084 1.3705153
54.548782 68.475334 -0.8716867
54.291306 68.597252 -0.59866565
42.140282 74.350998 -0.67548496
36.921112 76.82238 0
19.662132 84.994843 1.3700799
54.464455 68.501167 -0.87896174
54.248333 68.603188 -0.600972
42.066696 74.353416 -0.67737162
36.933891 76.776314 0
19.669682 84.925728 1.3690643
64 64 -0
54.275547 68.575981 -0.59895366
42.021282 74.3424 -0.67838776
36.92318 76.741386 0
19.667953 84.861076 1.3683381
64 64 -0
54.246613 68.575211 -0.60039485
41.952339 74.342316 -0.68012941
36.931358 76.697609 0
19.64278 84.807495 1.3683381
54.025013 68.664459 -0.9179039
54.245773 68.561234 -0.60010684
41.850433 74.357491 -0.68288666
36.920746 76.662689 0
19.612949 84.756088 1.3684837
54.019386 68.652405 -0.9179039
54.235584 68.551628 -0.60039485
41.640106 74.422935 -0.68898225
36.933781 76.61676 0
19.53138 84.72879 1.3702254
53.925301 68.68145 -0.9260357
54.267624 68.522385 -0.5980885
37.692425 76.224449 -0.81016773
36.909103 76.58844 0
44.167877 73.215477 0.61074972
53.910343 68.673584 -0.92689079
54.248077 68.517143 -0.59895366
37.691826 76.186096 -0.80973214
36.912804 76.546944 0
44.185062 73.178391 0.6098786
64 64 -0
54.268822 68.500397 -0.59751248
41.500233 74.405518 -0.69232059
36.928848 76.519653 0
44.193657 73.159882 0.6094436
64 64 -0
54.254005 68.492966 -0.5980885
41.487679 74.378326 -0.69232059
36.927925 76.4804 0
44.192055 73.131592 0.60915303
64 64 -0
54.248585 68.481186 -0.5980885
41.446831 74.364128 -0.69319117
36.922333 76.443329 0
44.190468 73.10331 0.608863
64 64 -0
54.224365 68.47802 -0.59924167
41.420143 74.343369 -0.6936267
36.930973 76.399765 0
44.179482 73.079369 0.608863
53.801025 68.657036 -0.93459338
54.242485 68.45546 -0.59780049
41.469112 74.288017 -0.69174004
36.930199 76.360565 0
44.17799 73.051094 0.60857248
53.776714 68.653221 -0.93630522
54.24181 68.441528 -0.59751248
41.527653 74.228485 -0.6895628
36.920036 76.325684 0
44.181244 73.020683 0.60813749
53.714993 68.666321 -0.94144088
54.24588 68.425453 -0.59693533
41.586304 74.169121 -0.68738556
36.933594 76.28006 0
44.165634 72.998871 0.60828245
53.535248 68.717407 -0.95684767
54.239929 68.399742 -0.59664732
41.72287 74.042313 -0.68245113
36.932457 76.201782 0
44.110794 72.965858 0.60929805
53.496788 68.719482 -0.95984221
54.225189 68.392181 -0.59722334
41.786575 73.981316 -0.68012941
36.931984 76.162666 0
44.06205 72.958862 0.61045915
53.519196 68.694199 -0.95727521
54.238773 68.37191 -0.59607017
41.864655 73.914108 -0.67737162
36.91256 76.132072 0
44.018036 72.949638 0.61147523
53.522919 68.677345 -0.95641845
54.190971 68.379097 -0.59866565
53.288689 68.781914 -0.32760364
36.912186 76.092972 0
43.997753 72.929718 0.61176527
53.512569 68.666779 -0.95684767
54.110088 68.400887 -0.60327721
53.206947 68.802773 -0.32992586
36.940384 76.041183 0
43.967987 72.913994 0.61234581
53.483475 68.664505 -0.95898712
54.066948 68.405708 -0.60558355
53.229649 68.777092 -0.32905531
36.930611 76.006378 0
43.928719 72.902428 0.61321694
53.49194 68.645569 -0.95770282
54.071087 68.389526 -0.60500753
41.983341 73.733459 -0.67229217
43.913746 72.880043 0
43.908478 72.88237 0.61350691
53.49572 68.628731 -0.95684767
54.042126 68.387955 -0.60644871
41.919281 73.729904 -0.67388886
43.941135 72.838974 0
43.902512 72.855995 0.61336195
53.49485 68.61396 -0.95641845
54.022617 68.382164 -0.60731387
41.836182 73.734558 -0.6760655
43.978115 72.7938 0
19.122002 83.710846 1.3689187
53.47517 68.607445 -0.95770282
53.993641 68.38047 -0.60875505
41.767303 73.73278 -0.67780721
43.991341 72.759171 0
19.136303 83.639931 1.3677576
53.413139 68.619362 -0.96283841
53.983616 68.370445 -0.60904306
41.636482 73.757866 -0.68143553
44.00462 72.724579 0
19.150692 83.569092 1.3665971
53.35387 68.637573 -0.96797401
53.985718 68.362328 -0.60875505
41.625832 73.746429 -0.68158054
43.980263 72.72081 0
19.153175 83.535759 1.3661615
53.272923 68.657417 -0.97482151
53.985191 68.348167 -0.60846704
41.614075 73.719383 -0.68158054
43.988838 72.688324 0
19.16774 83.465004 1.3650004
53.229607 68.660767 -0.9782452
53.989452 68.331955 -0.60788989
41.588036 73.698524 -0.68201613
43.964043 72.670334 0
19.16333 83.402557 1.3644198
53.24757 68.637573 -0.97610414
53.988968 68.317802 -0.60760188
41.542938 73.685837 -0.68303168
43.948784 72.648186 0
19.159004 83.340134 1.3638393
53.17593 68.652969 -0.98209649
53.974266 68.309792 -0.6081779
41.50737 73.668961 -0.68375778
43.924019 72.630112 0
19.14521 83.281845 1.3635492
53.1656 68.641907 -0.9825241
53.931023 68.313965 -0.61048424
41.486156 73.645866 -0.68404776
43.899246 72.612 0
19.164932 83.209213 1.3622432
53.141113 68.636879 -0.98423594
53.925819 68.301796 -0.61048424
41.426735 73.639061 -0.68549889
43.893639 72.585663 0
19.151321 83.15094 1.3619525
53.140236 68.621742 -0.9838084
53.944424 68.279495 -0.60904306
41.357719 73.6362 -0.68724054
43.859337 72.571548 0
19.147343 83.088593 1.361372
53.167751 68.594582 -0.98081219
53.977356 68.251183 -0.60673672
41.288681 73.633186 -0.68898225
43.820251 72.559402 0
19.12431 83.034378 1.361372
53.171658 68.577499 -0.9799571
53.986507 68.233032 -0.60587269
41.262695 73.611809 -0.68941778
43.781151 72.547173 0
19.130054 82.968002 1.3605014
53.208729 68.546463 -0.97610414
54.033844 68.198837 -0.60270119
41.322937 73.554062 -0.68724054
43.727673 72.540924 0
19.12154 82.907722 1.3600659
53.141708 68.559258 -0.98166734
53.933388 68.226845 -0.60846704
41.35453 73.508545 -0.68593442
36.926971 75.367622 0
19.117893 82.845428 1.3594854
53.050949 68.581818 -0.98937154
53.95216 68.204689 -0.60702473
41.400589 73.457108 -0.68419278
36.922867 75.330879 0
19.023239 82.821281 1.3616626
53.102283 68.544868 -0.98423594
53.985264 68.17662 -0.60471952
41.36039 73.441795 -0.6850639
36.909199 75.298157 0
18.851852 82.828926 1.3661615
53.035172 68.557312 -0.98979908
53.965908 68.170471 -0.60558355
42.755013 72.830048 -0.64253986
36.924393 75.253433 0
18.718773 82.820229 1.3694993
55.856552 67.373123 -0.97632664
53.110306 68.510658 -0.9825241
53.889183 68.188034 -0.60990822
42.811569 72.776535 -0.64050817
36.920444 75.216721 0
18.628838 82.79335 1.3715315
56.030972 67.289604 -0.95493811
53.028931 68.528839 -0.98937154
53.8172 68.203445 -0.61394376
42.810577 72.746964 -0.64021814
36.940575 75.170097 0
18.634995 82.726608 1.3706604
56.045799 67.27224 -0.95268655
53.03297 68.511673 -0.98851478
53.816906 68.189171 -0.61365575
42.843277 72.70356 -0.63891208
36.941544 75.131447 0
18.617203 82.669807 1.3705153
56.02774 67.26841 -0.95437574
53.013271 68.504265 -0.98979908
53.787926 68.186676 -0.61509693
