# .PCD v0.7 - Point Cloud Data file format
VERSION 0.7
FIELDS x y z
SIZE 4 4 4
TYPE F F F
COUNT 1 1 1
WIDTH 1763
HEIGHT 1
VIEWPOINT 0 0 0 1 0 0 0
POINTS 1763
DATA ascii
69.583366 74.229179 0
69.566422 74.198135 0.32447943
67.413177 70.271217 -0.98493624
68.103195 71.539032 -0.95072913
69.194183 73.543564 -0.9057169
70.036583 75.091347 -0.70374811
69.703262 74.47892 -0.33319396
69.595879 74.281631 0
69.581429 74.255066 0.32607612
66.88485 69.315788 -0.99712926
67.381668 70.231247 -0.97801596
68.103775 71.561852 -0.9529807
69.182648 73.549828 -0.9057169
70.028107 75.107719 -0.70432413
69.685638 74.476677 -0.33290395
69.573524 74.270081 0
69.576469 74.275513 0.32651168
66.871376 69.306236 -0.99468672
67.395622 70.27504 -0.9842447
68.089798 71.557854 -0.95185387
69.193092 73.596718 -0.90956819
70.029457 75.142303 -0.70605445
69.665558 74.469826 -0.33246839
69.573502 74.299713 0
69.581352 74.314224 0.32752723
67.352295 70.212898 -0.97386163
68.075836 71.553856 -0.95072913
69.164421 73.571358 -0.90657198
70.028267 75.17234 -0.70749563
69.655365 74.481232 -0.33261338
69.57341 74.329338 0
69.55162 74.288956 0.32651168
66.856194 69.3088 -0.99386942
67.366188 70.256721 -0.98009306
68.071518 71.567719 -0.95185387
69.157722 73.586639 -0.90742874
70.014763 75.179611 -0.70749563
69.659935 74.520096 -0.33362949
69.575714 74.363556 0
69.551491 74.318535 0.32723722
67.365738 70.27404 -0.9821676
68.071983 71.590546 -0.95410538
69.1437 73.588326 -0.90699959
70.006134 75.195984 -0.70807165
69.634941 74.504036 -0.33290395
69.590256 74.420746 0
69.553757 74.352707 0.32810777
66.820045 69.272102 -0.98572129
67.36998 70.300217 -0.98562771
68.062805 71.595459 -0.95410538
69.146645 73.621704 -0.90956819
70.002365 75.221474 -0.70922482
69.61734 74.501663 -0.33261338
69.585022 74.441246 0
69.551048 74.377739 0.32868835
67.390701 70.357414 -0.99393368
68.053627 71.600357 -0.95410538
69.125351 73.609802 -0.90785635
64 64 -0
69.616875 74.531387 -0.33333951
69.572403 74.44799 0
69.550728 74.407364 0.32941389
66.846748 69.353096 -0.99957496
67.361816 70.32164 -0.98770487
68.068298 71.650108 -0.95973313
69.118553 73.625046 -0.90871143
69.982513 75.249657 -0.71008998
69.626106 74.579453 -0.33464563
69.579323 74.491478 0
69.552795 74.441597 0.33028501
67.367409 70.341393 -0.99047351
68.058914 71.6436 -0.95860845
69.122368 73.646271 -0.91042328
69.983002 75.266975 -0.71095514
69.622147 74.58744 -0.33479062
69.590073 74.527031 0
69.553802 74.458725 0.33072057
67.333923 70.296692 -0.98286176
68.042534 71.635025 -0.95691925
69.12513 73.679688 -0.91299194
69.97422 75.283333 -0.71153116
69.626381 74.626381 -0.33580673
69.584656 74.547585 0
69.548447 74.479195 0.33115557
66.830566 69.361671 -0.99957496
67.323967 70.296265 -0.9821676
68.030937 71.635414 -0.95635694
69.096649 73.654083 -0.90999573
69.972664 75.313431 -0.71297348
69.611099 74.628563 -0.33566117
69.559761 74.531311 0
69.550346 74.513474 0.33202669
67.328041 70.322472 -0.98562771
68.028809 71.65377 -0.95804614
69.094543 73.678406 -0.91170764
69.975845 75.352669 -0.71499068
69.598251 74.63533 -0.33566117
69.578545 74.597893 0
69.547318 74.538567 0.33260724
67.332062 70.348717 -0.9890905
68.019562 71.65863 -0.95804614
69.087616 73.693642 -0.91256273
69.974144 75.382782 -0.71643186
69.616791 74.701904 -0.33754784
69.565735 74.60463 0
69.551483 74.577461 0.33362281
66.762985 69.279922 -0.98246145
67.343002 70.388306 -0.99462783
68.010307 71.663483 -0.95804614
69.068764 73.68615 -0.91128004
69.969978 75.408325 -0.71758503
69.603859 74.708687 -0.33754784
69.569809 74.643616 0
69.5411 74.58876 0.3337678
67.30278 70.330055 -0.98493624
67.996338 71.659302 -0.95691925
69.085556 73.746887 -0.91641569
69.970551 75.443054 -0.71931535
69.672653 74.872108 -0.34248286
69.571396 74.678032 0
69.542732 74.623108 0.33463892
67.295128 70.334038 -0.98493624
67.998802 71.686668 -0.95973313
69.052444 73.712021 -0.91256273
69.973427 75.482368 -0.72133255
69.839378 75.224701 -0.35336736
69.565689 74.698593 0
69.54908 74.666679 0.33580005
66.789352 69.377663 -0.99876076
67.299026 70.360283 -0.98839635
67.98951 71.69149 -0.95973313
69.059616 73.754578 -0.91598648
69.976219 75.521729 -0.72335088
69.890419 75.356308 -0.35728627
69.574333 74.74691 0
69.538582 74.677979 0.33594504
67.279816 70.34198 -0.98493624
67.984886 71.705345 -0.96086001
69.045471 73.756126 -0.91555893
69.981308 75.565697 -0.72565722
69.91011 75.42804 -0.35931793
69.556557 74.744385 0
69.549538 74.73082 0.33739614
66.753685 69.340446 -0.99060953
67.267555 70.337029 -0.98355323
67.977898 71.714661 -0.96142232
69.021912 73.739403 -0.91341949
69.967323 75.572922 -0.72565722
69.905823 75.453644 -0.35989848
69.560272 74.783478 0
69.538956 74.742149 0.33754173
66.754013 69.356964 -0.99305522
67.305771 70.430206 -0.99739379
67.952316 71.687843 -0.95748377
69.017189 73.759171 -0.91470379
69.969894 75.612328 -0.72767556
69.896729 75.470009 -0.36018848
69.554367 74.804062 0
69.542603 74.781174 0.33855727
66.76107 69.386688 -0.99794656
67.949974 71.706169 -0.95917082
69.021782 73.797195 -0.91769832
69.960579 75.628731 -0.72825158
69.89946 75.509506 -0.36120459
69.536568 74.801514 0
69.534317 74.797119 0.33884785
67.961472 71.751656 -0.96423626
69.005272 73.794121 -0.91684324
69.965355 75.672775 -0.73055792
69.902107 75.549019 -0.36222073
69.540092 74.840637 0
69.537811 74.836182 0.33986339
66.75029 69.397751 -0.99876076
67.243713 70.36615 -0.98562771
67.952103 71.756439 -0.96423626
69.00042 73.813873 -0.91812587
69.96064 75.69841 -0.73171109
69.902298 75.583916 -0.36309129
69.560066 74.912247 0
69.536522 74.866028 0.34058949
66.741531 69.39666 -0.99794656
67.274651 70.446106 -0.99739379
67.933517 71.74308 -0.96198469
68.997856 73.838211 -0.91983777
69.955872 75.724052 -0.73286426
69.90007 75.614204 -0.36381683
69.627022 75.076729 0
69.532799 74.891243 0.34117007
67.241928 70.400833 -0.98978204
67.933342 71.765961 -0.96423626
68.976685 73.825928 -0.91812587
69.958054 75.763535 -0.73488146
69.911858 75.672325 -0.36541352
69.750038 75.352821 0
69.526672 74.911819 0.34160507
66.706192 69.359138 -0.98979539
67.923958 71.770714 -0.96423626
68.967133 73.836525 -0.91855508
69.967155 75.81691 -0.73776495
69.897751 75.679459 -0.36541352
69.891151 75.666389 0
69.520515 74.932411 0.34204063
67.244499 70.444504 -0.99531931
67.912285 71.770912 -0.96367389
68.955238 73.842522 -0.91855508
69.950554 75.819496 -0.73747694
69.916351 75.751556 -0.3674452
69.886414 75.692093 0
69.523659 74.971573 0.34305674
67.202942 70.381149 -0.98493624
67.896049 71.762001 -0.96198469
68.945648 73.853088 -0.91898263
69.959465 75.872894 -0.74035931
69.906815 75.76799 -0.36773574
69.90731 75.768982 0
69.51973 74.996811 0.34363729
67.204216 70.402962 -0.98770487
67.895767 71.784882 -0.96423626
68.938324 73.868233 -0.91983777
69.961327 75.912476 -0.74237764
69.904213 75.798355 -0.36846131
69.876778 75.743523 0
69.527367 75.045296 0.3449434
67.187515 70.38887 -0.98493624
67.8909 71.798691 -0.96536309
68.92411 73.869598 -0.91941023
69.963081 75.952057 -0.74439484
69.90155 75.828728 -0.36918685
69.881172 75.787872 0
69.525612 75.075218 0.34566897
67.201553 70.426727 -0.99047351
67.874855 71.778297 -0.96254921
68.929588 73.895546 -0.92154962
69.969704 75.983452 -0.74612516
69.919899 75.883461 -0.37078354
69.904221 75.85199 0
69.523552 75.087845 0.34595898
67.191559 70.426102 -0.98978204
67.899353 71.851234 -0.97099084
68.910782 73.887711 -0.92026699
69.971321 76.023071 -0.74814236
69.942513 75.965057 -0.3731052
69.887581 75.854454 0
69.530952 75.136398 0.34726509
67.179329 70.420944 -0.98839635
67.887611 71.851387 -0.97042853
68.905663 73.907433 -0.92154962
69.965973 76.04882 -0.74929553
69.944191 76.004837 -0.37412134
69.898651 75.912857 0
69.526718 75.161697 0.34784564
67.184898 70.45179 -0.99255067
67.869125 71.837852 -0.96817696
68.886879 73.899551 -0.92026699
69.967438 76.088501 -0.75131387
69.941185 76.035309 -0.37484688
69.898079 75.94799 0
69.520126 75.182358 0.3482812
67.183754 70.469139 -0.99462783
67.852921 71.828842 -0.96648777
68.881706 73.919258 -0.92154962
69.968819 76.128189 -0.7533322
69.92205 76.033157 -0.37455687
69.888229 75.964439 0
69.522675 75.221664 0.34929731
67.838982 71.824371 -0.96536309
68.881027 73.948204 -0.92369068
69.97467 76.177185 -0.75592655
69.907509 76.040306 -0.37455687
69.892113 76.008926 0
69.515984 75.242325 0.34973288
67.851852 71.874649 -0.97099084
68.866745 73.949471 -0.92326152
69.978134 76.221573 -0.75823289
69.895233 76.052101 -0.37470189
69.882172 76.025398 0
69.522949 75.290993 0.35103899
67.175667 70.512199 -0.99947095
67.835648 71.865585 -0.96930164
68.859222 73.964584 -0.92411828
69.990562 76.284561 -0.76169127
69.876122 76.049881 -0.37441188
69.89045 76.079269 0
69.516129 75.311661 0.35147399
67.163414 70.507011 -0.99808794
67.850586 71.920494 -0.97549391
68.840446 73.956589 -0.92283392
70.000595 76.342972 -0.76486278
69.868362 76.070984 -0.37484688
69.889511 76.114471 0
69.518364 75.351036 0.3524901
67.843231 71.92971 -0.97605628
68.841843 73.990143 -0.92540091
70.008232 76.396759 -0.76774514
69.858315 76.087425 -0.37513745
69.886215 76.144997 0
69.515976 75.381073 0.35321566
67.829224 71.925209 -0.9749316
68.820839 73.977516 -0.92369068
70.787636 78.048126 -0.86950767
69.86631 76.141281 -0.37658855
69.905495 76.222389 0
69.515785 75.415817 0.35408679
67.794662 71.902367 -0.97099084
68.810043 74.016891 -0.92625767
70.749191 78.055153 -0.86893052
69.929184 76.347488 -0.38253912
69.902977 76.292923 0
69.519669 75.49469 0.35611844
67.767555 71.870277 -0.96648777
68.802368 74.031952 -0.92711282
70.734436 78.067978 -0.86921966
69.945671 76.420265 -0.38457081
69.919579 76.365768 0
69.514755 75.520103 0.35669902
67.77774 71.916092 -0.97155321
68.788033 74.033119 -0.92668521
70.721886 78.085434 -0.86979568
69.953033 76.474335 -0.38602191
69.971886 76.513824 0
69.509781 75.545517 0.35727957
67.783455 71.952782 -0.97549391
68.782524 74.052811 -0.92796957
70.709312 78.102898 -0.87037277
69.940193 76.486221 -0.3861675
70.070801 76.76075 0
69.504761 75.570938 0.35786012
66.574745 69.428986 -0.99060953
67.769493 71.948174 -0.97436923
68.774773 74.067848 -0.92882466
70.692268 78.110992 -0.87037277
69.934013 76.512169 -0.38674805
70.124512 76.913857 0
69.510818 75.619843 0.35916623
67.757706 71.948112 -0.97380471
68.762604 74.073608 -0.92882466
70.686264 78.142448 -0.87181401
69.929993 76.542816 -0.38747361
64 64 0
69.503433 75.640587 0.3596018
67.741608 71.938873 -0.97211772
68.752625 74.084015 -0.92925388
70.671371 78.15519 -0.87210202
69.936989 76.596977 -0.38892472
70.108826 76.961578 0
69.500443 75.670731 0.36032736
67.074509 70.54393 -0.99739379
67.757942 71.998581 -0.9788723
68.731705 74.071167 -0.92754197
70.654266 78.163239 -0.87210202
69.93502 76.63237 -0.38979584
70.09758 76.978363 0
69.501801 75.710281 0.36134291
67.070557 70.545784 -0.99739379
67.753113 72.000847 -0.9788723
68.732147 74.087952 -0.92882466
70.654495 78.185989 -0.87325519
69.982567 76.753571 -0.39342418
70.065422 76.930206 0
69.507973 75.741837 0.36221403
67.743439 72.005379 -0.9788723
68.735184 74.126221 -0.93182087
70.637352 78.194023 -0.87325519
70.041992 76.920845 -0.39835864
70.047592 76.932816 0
69.502586 75.767319 0.36279458
67.058975 70.562286 -0.99877948
67.733765 72.009895 -0.9788723
68.720779 74.127289 -0.93139327
70.626755 78.216103 -0.87412035
70.074677 77.031754 -0.40155143
70.029762 76.935402 0
69.497147 75.792801 0.36337516
67.053154 70.570526 -0.99947095
67.734787 72.037437 -0.98168617
68.710701 74.137634 -0.93182087
70.611748 78.228783 -0.87440836
70.06987 77.062645 -0.40227699
70.018509 76.952103 0
69.506973 75.851257 0.36497125
67.712257 72.014267 -0.97830778
68.698448 74.143326 -0.93182087
70.605423 78.260231 -0.87584955
70.045349 77.051102 -0.40169644
69.994102 76.940475 0
69.494843 75.862633 0.36511683
67.715355 72.04644 -0.98168617
68.699097 74.176949 -0.9343878
70.579514 78.249413 -0.87469637
70.025223 77.048973 -0.40140644
69.969742 76.928825 0
69.500107 75.911728 0.36642295
67.707756 72.055534 -0.98224854
68.682503 74.173302 -0.93353271
70.573097 78.280846 -0.87613755
70.005096 77.046791 -0.40111586
69.947586 76.921844 0
69.505264 75.960846 0.36772904
67.691658 72.04615 -0.98055935
68.680916 74.202278 -0.93567216
70.562317 78.302887 -0.87700272
69.993668 77.063499 -0.40140644
69.929802 76.924294 0
69.499481 75.986382 0.36830962
67.665024 72.013634 -0.97605628
68.666451 74.203262 -0.93524456
70.545029 78.310806 -0.87700272
69.969231 77.051826 -0.40082586
69.918503 76.940903 0
69.497955 76.02137 0.36918017
67.674309 72.059669 -0.98112172
68.664764 74.232246 -0.93738401
70.529877 78.323402 -0.87729073
69.953461 77.059029 -0.40082586
69.881279 76.900696 0
69.49852 76.061104 0.37019628
67.664566 72.064102 -0.98112172
68.639656 74.209839 -0.93481702
70.508286 78.321877 -0.87671471
69.933372 77.05674 -0.40053532
69.869987 76.917259 0
69.49469 76.091393 0.37092185
67.654823 72.06852 -0.98112172
68.629433 74.220116 -0.93524456
70.50592 78.362717 -0.87873298
69.921883 77.07338 -0.40082586
69.862968 76.943314 0
69.488655 76.116959 0.3715024
67.651344 72.08683 -0.98281091
68.631874 74.258461 -0.93824077
70.484299 78.36113 -0.87815589
69.906082 77.080521 -0.40082586
69.860176 76.978859 0
69.484695 76.147263 0.37222797
67.656174 72.12368 -0.98675162
68.617363 74.259354 -0.93781155
70.475433 78.387825 -0.87930906
69.881744 77.068695 -0.40024531
69.84449 76.985931 0
69.489212 76.196526 0.37353408
67.623474 72.077087 -0.98055935
68.607071 74.269623 -0.93824077
70.453812 78.386208 -0.87873298
69.863815 77.071037 -0.40009975
69.813881 76.959732 0
69.48085 76.217377 0.37396964
67.613708 72.081459 -0.98055935
68.603035 74.29393 -0.93995261
70.438538 78.398712 -0.87902105
69.848015 77.07811 -0.40009975
69.79184 76.952492 0
69.489426 76.276184 0.3755663
67.608086 72.095108 -0.98168617
68.590599 74.299484 -0.93995261
70.412704 78.387581 -0.87786788
69.832207 77.085167 -0.40009975
69.776184 76.95948 0
69.478813 76.29229 0.37585631
67.604485 72.11338 -0.98337322
68.573975 74.295631 -0.93909585
70.399513 78.404762 -0.8784439
69.816391 77.092209 -0.40009975
69.754181 76.952171 0
69.489273 76.355896 0.37759799
67.592621 72.113091 -0.98281091
68.565697 74.310547 -0.93995261
70.394676 78.440872 -0.88017416
69.790054 77.07547 -0.39937419
69.72168 76.921059 0
69.480659 76.376778 0.37803355
67.586922 72.126732 -0.98393774
68.565666 74.344231 -0.94251961
70.356331 78.40126 -0.87729073
69.774246 77.082458 -0.39937419
69.703949 76.923187 0
69.474091 76.402405 0.3786141
67.585289 72.149666 -0.98618931
68.544891 74.33094 -0.94080776
69.79319 77.168419 -0.80176198
69.754257 77.079918 -0.39908421
69.682053 76.915794 0
69.471657 76.437546 0.37948465
67.574226 72.137871 -0.98450011
68.538651 74.333687 -0.94080776
69.764435 77.124557 -0.79887962
69.750526 77.092896 -0.39937419
69.684708 76.943047 0
69.485031 76.488419 0.38093576
67.566429 72.146835 -0.98506242
68.530273 74.348557 -0.94166285
69.74234 77.117294 -0.79801446
69.728455 77.085571 -0.39893919
69.67115 76.954666 0
69.48661 76.533127 0.38209689
67.566742 72.174423 -0.9878763
68.519829 74.358742 -0.94209206
69.726486 77.124222 -0.79801446
69.710556 77.087708 -0.39879364
69.630516 76.904266 0
69.477699 76.554039 0.38253245
67.571053 72.211349 -0.99181706
68.515495 74.383026 -0.94380391
69.708565 77.126396 -0.79772645
69.688522 77.080315 -0.39835864
69.587936 76.849014 0
69.481178 76.603539 0.38383856
67.55304 72.197006 -0.98956549
68.509071 74.402596 -0.9450866
69.678299 77.100052 -0.79570812
69.672714 77.087173 -0.39835864
69.562057 76.831879 0
69.474213 76.629227 0.38441911
67.537086 72.187294 -0.9878763
68.492432 74.398621 -0.94423151
69.666573 77.116409 -0.79628527
69.654831 77.089233 -0.39821309
69.536232 76.814705 0
69.471313 76.664444 0.38528967
67.535233 72.210236 -0.99012786
68.483917 74.41346 -0.9450866
70.303299 78.638809 -0.88824528
69.630791 77.076965 -0.39763254
69.506332 76.787918 0
69.478615 76.723557 0.38688636
67.523308 72.209831 -0.98956549
68.477409 74.433029 -0.9463709
70.287651 78.651176 -0.88853437
69.606789 77.064659 -0.39705196
69.476501 76.761078 0
69.469391 76.744499 0.38732192
67.521378 72.232773 -0.99181706
68.470856 74.452599 -0.9476552
70.276047 78.673019 -0.88939846
69.595093 77.080986 -0.39734253
69.528625 76.925606 0
69.466248 76.779755 0.38819247
67.487511 72.180923 -0.98506242
68.454193 74.44854 -0.94679844
70.258308 78.680595 -0.88939846
69.567047 77.059044 -0.39647141
69.508926 76.922707 0
69.463028 76.815048 0.38906357
67.51339 72.269318 -0.9951933
68.451599 74.477539 -0.94893789
70.244614 78.697678 -0.88997561
69.547203 77.056206 -0.3961814
69.513657 76.977249 0
69.469894 76.874237 0.39065969
67.495468 72.254837 -0.99294174
68.436935 74.478188 -0.94851035
70.230881 78.714729 -0.89055163
69.525345 77.048538 -0.39574584
64 64 0
69.466492 76.909561 0.39153081
67.479568 72.245018 -0.99125469
68.424271 74.483536 -0.94851035
70.221146 78.74131 -0.8917048
69.527756 77.098297 -0.39705196
69.508591 77.052872 0
69.471092 76.964027 0.39298192
67.469604 72.249222 -0.99125469
68.413589 74.493607 -0.94893789
70.20533 78.753578 -0.89199281
69.536102 77.162445 -0.39879364
64 64 0
69.4655 76.994576 0.39370748
67.481239 72.304947 -0.99744481
68.400909 74.498932 -0.94893789
70.191505 78.770615 -0.89256996
69.542297 77.221855 -0.40039033
69.499161 77.118958 0
69.461853 77.029938 0.39457861
67.473167 72.31385 -0.99800932
68.386246 74.499504 -0.94851035
70.169662 78.768532 -0.89199281
69.536331 77.25251 -0.40111586
69.503365 77.173607 0
69.46212 77.074875 0.39573917
67.461159 72.313332 -0.99744481
68.389343 74.542717 -0.9519341
70.15976 78.795082 -0.89314598
69.534294 77.292778 -0.40213197
69.489441 77.185051 0
69.462296 77.119843 0.39690027
67.443321 72.298737 -0.9951933
68.376595 74.548012 -0.9519341
70.143867 78.807304 -0.89343506
69.536156 77.342651 -0.40343809
69.501442 77.258987 0
69.456406 77.150452 0.3976264
67.431351 72.298195 -0.99463093
68.361893 74.548553 -0.9515065
70.129921 78.824265 -0.89401114
69.539886 77.397354 -0.40488923
69.51326 77.332954 0
69.458382 77.200249 0.39893252
67.42907 72.321129 -0.9968825
68.35305 74.563301 -0.95236164
70.110039 78.826889 -0.89372313
69.529633 77.418457 -0.40532479
69.507057 77.363663 0
69.456284 77.240456 0.39994806
67.422874 72.334679 -0.99800932
68.340279 74.56855 -0.95236164
70.113731 78.886879 -0.8968935
69.527237 77.458778 -0.4063409
69.500793 77.394379 0
69.458046 77.290298 0.40125418
67.412056 72.322632 -0.99632013
68.343643 74.59494 -0.9545027
70.091003 78.857079 -0.8948763
69.536842 77.505386 -0.40764701
69.506516 77.431419 0
69.459877 77.31765 0.40198028
67.403915 72.331451 -0.9968825
68.328888 74.595413 -0.95407349
70.078911 78.878784 -0.89574033
69.534279 77.545731 -0.40866256
69.50013 77.462151 0
69.463432 77.372337 0.40343142
67.397682 72.344978 -0.99800932
68.314148 74.595886 -0.95364594
70.064835 78.895706 -0.89631748
69.533585 77.590912 -0.40982369
69.493668 77.492882 0
69.453156 77.393372 0.40386698
68.310989 74.62487 -0.95578539
70.050713 78.912605 -0.8968935
69.534737 77.64093 -0.4111298
69.491058 77.533279 0
69.460411 77.457741 0.40560865
67.371788 72.339027 -0.99632013
68.296227 74.62532 -0.95535779
70.044334 78.948685 -0.89862382
69.529945 77.676521 -0.41200092
69.488365 77.573685 0
69.453888 77.488411 0.40633419
67.373108 72.371368 -0.99969637
68.285301 74.635262 -0.95578539
70.02433 78.951187 -0.89833575
69.53672 77.741035 -0.4137426
69.499191 77.647888 0
69.447296 77.519089 0.40705976
67.362984 72.375443 -0.99969637
68.285843 74.673782 -0.95878154
70.010117 78.968048 -0.89891183
69.533669 77.781464 -0.41475815
69.494331 77.683495 0
69.458061 77.59317 0.40909144
67.345314 72.360626 -0.99744481
68.263405 74.655128 -0.95664215
69.993942 78.980095 -0.89919984
69.532455 77.826736 -0.41591927
69.495201 77.733627 0
69.457077 77.638351 0.41025254
67.342735 72.383545 -0.99969637
68.24482 74.645958 -0.95535779
69.991165 79.025764 -0.90150619
69.533066 77.876854 -0.41722539
69.495949 77.783768 0
69.455994 77.683556 0.41141367
67.326981 72.373421 -0.99800932
68.23954 74.670166 -0.95706969
69.96727 79.01857 -0.90064102
69.539322 77.941483 -0.41896704
69.490814 77.819412 0
69.449051 77.714287 0.41213924
68.239876 74.708702 -0.96006584
69.951035 79.030594 -0.90093011
69.532036 77.972321 -0.41969261
69.495193 77.879272 0
69.453522 77.774017 0.4137359
68.228813 74.71859 -0.96049345
69.930962 79.032944 -0.90064102
69.534225 78.027351 -0.42114428
69.487968 77.91011 0
69.450218 77.814423 0.41475144
68.221497 74.738029 -0.96177775
69.924156 79.068993 -0.90237135
69.530579 78.067871 -0.42215985
69.480675 77.940948 0
69.450638 77.86454 0.41605812
68.199265 74.757751 -0.96263283
69.899002 79.112167 -0.90410054
69.532471 78.17318 -0.42491764
69.486717 78.055969 0
69.439789 77.935745 0.41779923
68.188126 74.767601 -0.96306038
69.886368 79.133759 -0.9049657
69.536057 78.233116 -0.42651376
69.484825 78.101395 0
69.441788 77.990753 0.41925091
68.180679 74.787018 -0.96434474
69.871819 79.150513 -0.90554279
69.520737 78.244659 -0.42665932
69.465904 78.103165 0
69.445534 78.050606 0.42084703
68.171333 74.801636 -0.96519983
69.851639 79.152756 -0.90525371
69.518501 78.2901 -0.42782041
69.482605 78.197151 0
69.443527 78.095955 0.42200816
68.156441 74.80188 -0.96477228
69.838898 79.174309 -0.90611887
69.523621 78.354942 -0.42956153
69.471054 78.218338 0
69.441422 78.141327 0.42316926
68.148903 74.821281 -0.96605659
69.81871 79.176521 -0.9058308
69.521149 78.400421 -0.43072265
69.466911 78.258949 0
69.43177 78.167297 0.42374983
68.139481 74.835869 -0.96691167
69.807755 79.202873 -0.90698397
69.526001 78.46534 -0.43246433
69.466393 78.309296 0
69.433197 78.222412 0.42520151
68.131111 74.833572 -0.96648413
69.804092 79.220863 -0.90784806
69.535782 78.517242 -0.433916
69.481857 78.375839 0
69.439407 78.264519 0.42636207
68.125305 74.857758 -0.96819603
69.787537 79.232719 -0.90813714
69.523766 78.538483 -0.434351
69.47187 78.401894 0
69.436935 78.309944 0.42752317
68.113998 74.867531 -0.96862358
69.767288 79.234848 -0.90784806
69.528275 78.60347 -0.43609267
69.461838 78.427963 0
69.443558 78.379684 0.42940983
68.097244 74.862892 -0.96776843
69.752533 79.251495 -0.90842521
69.528961 78.65876 -0.43754378
69.455429 78.463783 0
69.439018 78.420296 0.43042597
68.096764 74.901482 -0.97076464
69.746841 79.292336 -0.91044348
69.52771 78.709221 -0.43885046
69.46907 78.553192 0
69.438042 78.470634 0.43173209
68.087181 74.916031 -0.97161973
69.735603 79.318626 -0.91159558
69.51722 78.735359 -0.43943101
69.47155 78.613396 0
69.431496 78.506401 0.43260318
68.075783 74.925766 -0.97204733
69.717094 79.325546 -0.91159558
69.521202 78.80043 -0.44117212
69.468445 78.659012 0
69.428482 78.551888 0.43376374
68.067947 74.945129 -0.97333163
69.700378 79.337311 -0.91188467
69.52504 78.86554 -0.4429138
69.47068 78.719276 0
69.430817 78.61203 0.43536043
68.04937 74.935585 -0.97204733
69.687225 79.358719 -0.91274875
69.528725 78.930687 -0.44465548
69.467346 78.764923 0
69.433006 78.672195 0.43695709
68.046822 74.969383 -0.97461593
69.682983 79.404411 -0.9150551
69.517876 78.956863 -0.44523603
69.467514 78.820343 0
69.427864 78.71286 0.43797266
68.038872 74.988708 -0.97589862
69.651886 79.377289 -0.91303784
69.521317 79.022049 -0.4469777
69.462173 78.861145 0
69.429802 78.773071 0.43956932
68.022064 74.983948 -0.97504348
69.64753 79.422966 -0.91534418
69.513878 79.057983 -0.44784826
69.46032 78.91172 0
69.429817 78.828415 0.44102046
68.012299 74.998436 -0.97589862
69.627106 79.424911 -0.9150551
69.515274 79.118347 -0.44944495
69.463699 78.976982 0
69.427917 78.878899 0.44232655
67.999008 75.003273 -0.97589862
69.617302 79.456001 -0.91649628
69.507652 79.154297 -0.45031551
69.458046 79.017822 0
69.418823 78.909882 0.44305268
67.997948 75.041893 -0.97889477
69.5951 79.453056 -0.91592026
69.512329 79.224457 -0.45220217
69.459389 79.078224 0
69.418488 78.965271 0.44450378
67.984604 75.046715 -0.97889477
69.576424 79.459808 -0.91592026
69.506279 79.265335 -0.45321828
69.455292 79.123978 0
69.4198 79.025589 0.44610047
67.976463 75.066025 -0.98017907
69.56649 79.490868 -0.91736144
69.510674 79.335548 -0.45510498
69.449333 79.164856 0
69.419212 79.081024 0.44755158
67.956169 75.051483 -0.97846723
69.561714 79.536545 -0.91966778
69.504402 79.37645 -0.45612109
69.453812 79.23513 0
69.422005 79.146271 0.44929326
67.95488 75.090096 -0.98146176
69.548149 79.557877 -0.92053294
69.508507 79.446716 -0.45800775
69.454628 79.295624 0
69.408928 79.167488 0.44972825
67.932884 75.070679 -0.97932231
69.525879 79.55481 -0.91995579
69.503761 79.492538 -0.45916888
69.444855 79.326736 0
69.416695 79.247467 0.45190549
67.934921 75.11898 -0.98317361
69.508812 79.566368 -0.92024487
69.505844 79.557968 -0.46091056
69.447166 79.392174 0
69.41214 79.293198 0.45306659
67.926491 75.116516 -0.98274606
69.508018 79.594078 -0.92168605
69.517204 79.620079 -0.46265167
69.460396 79.459259 0
69.421936 79.350372 0.45466328
67.914757 75.126091 -0.98317361
69.484024 79.586075 -0.92082095
69.512123 79.665955 -0.46381277
69.443451 79.470764 0
69.425812 79.420639 0.45654994
67.904709 75.140518 -0.98403037
69.472031 79.612221 -0.92197412
69.505226 79.706932 -0.46482891
69.454018 79.560829 0
69.420921 79.4664 0.4577105
67.896324 75.159775 -0.98531467
69.449753 79.609062 -0.92139804
69.505081 79.767532 -0.466425
69.452362 79.616547 0
69.417648 79.517113 0.45901719
67.879463 75.154762 -0.98445797
69.444473 79.654701 -0.92370331
69.506508 79.833076 -0.46816668
69.445465 79.657539 0
69.415962 79.572723 0.46046829
67.871025 75.174004 -0.98574227
69.428947 79.671059 -0.92428046
69.509491 79.903549 -0.47005334
69.445274 79.718193 0
69.405647 79.603798 0.46119386
67.86422 75.198082 -0.98745412
69.408318 79.672722 -0.9239924
69.505531 79.954422 -0.47136003
69.441559 79.769035 0
69.403748 79.659454 0.46264553
67.852356 75.207596 -0.98788166
69.397789 79.703697 -0.92543364
69.499756 80.000366 -0.47252059
69.444504 79.839607 0
69.403397 79.720024 0.46424165
67.833817 75.197662 -0.98659736
69.387184 79.734673 -0.92687482
69.497253 80.056168 -0.47397226
69.438843 79.885551 0
69.406281 79.790451 0.46612832
67.825256 75.216873 -0.98788166
69.361488 79.721588 -0.92572165
69.494621 80.111984 -0.47542337
69.439804 79.951225 0
69.403976 79.846169 0.46757999
67.819954 75.245789 -0.99002111
69.35247 79.757431 -0.92745084
69.49855 80.187485 -0.47745505
69.437271 80.00708 0
69.408218 79.92157 0.46961167
67.803078 75.240677 -0.98916596
69.331764 79.758995 -0.92716283
69.495644 80.243362 -0.47890672
69.441269 80.082657 0
69.403969 79.972397 0.47091779
67.79113 75.250122 -0.98959357
69.322639 79.794846 -0.92889309
69.494263 80.304146 -0.48050284
69.435135 80.128677 0
69.401253 80.028152 0.4723689
67.784073 75.27417 -0.99130541
69.308479 79.815964 -0.92975718
69.481171 80.330482 -0.48108339
69.432198 80.18457 0
69.403381 80.098709 0.47425556
67.765556 75.264122 -0.99002111
69.292648 79.832191 -0.93033433
69.484505 80.406105 -0.48311564
69.435738 80.260223 0
69.390518 80.124939 0.47483614
67.764923 75.307632 -0.99344486
69.280052 79.858208 -0.93148744
69.482735 80.466942 -0.48471174
69.422668 80.28653 0
69.392365 80.195541 0.47672281
67.746407 75.297546 -0.99216056
69.256004 79.849838 -0.93062234
69.467743 80.488358 -0.4851473
69.421005 80.34742 0
69.392426 80.26123 0.47846448
67.739189 75.321564 -0.9938724
69.243332 79.875824 -0.93177551
69.469002 80.559097 -0.48703399
69.424103 80.423141 0
69.393959 80.331886 0.48035115
67.731926 75.345581 -0.99558425
69.224152 79.882149 -0.93177551
69.483086 80.669357 -0.49008176
69.422142 80.484077 0
69.396957 80.407516 0.48238337
67.713425 75.335464 -0.99430162
69.208176 79.898293 -0.9323526
73.081924 91.72316 -0.81474191
69.423286 80.554916 0
69.388451 80.448578 0.48339894
67.699722 75.339943 -0.99430162
69.185753 79.89473 -0.93177551
73.080658 91.832924 -0.81764472
69.417801 80.605988 0
69.391136 80.524254 0.48543116
67.696053 75.351929 -0.99515671
69.188957 79.93721 -0.93408185
73.092804 91.927345 -0.82025695
69.427109 80.668648 0
69.39241 80.562088 0.48644674
67.695 75.395454 -0.99858046
69.163315 79.923782 -0.93292868
73.033401 91.859215 -0.81793469
69.427834 80.739555 0
69.393234 80.632851 0.4883334
67.67334 75.375488 -0.99644101
69.147247 79.93985 -0.9335047
73.044449 92.008583 -0.8219986
69.428391 80.810486 0
69.387512 80.683876 0.48964009
67.665878 75.399467 -0.99815291
69.137489 79.975616 -0.93523502
73.024918 92.064011 -0.82330471
69.424011 80.866577 0
69.386429 80.749725 0.4913812
67.656799 75.418549 -0.99943554
69.133957 80.031067 -0.93811738
73.003677 92.114487 -0.82446581
69.419502 80.922699 0
69.377289 80.790871 0.49239731
67.641434 75.418068 -0.999008
69.111443 80.027405 -0.93754131
72.998123 92.214462 -0.82707804
69.429092 81.023438 0
69.383835 80.881523 0.49486455
69.092072 80.033569 -0.93754131
72.95459 92.195602 -0.82620752
69.425858 81.084564 0
69.380737 80.942505 0.49646121
67.612289 75.421944 -0.99858046
69.091415 80.0989 -0.94100082
72.940887 92.270813 -0.82809418
69.416199 81.125847 0
69.38063 81.013405 0.49834788
69.070396 80.10009 -0.94071174
72.917648 92.316299 -0.82911026
69.409569 81.177055 0
69.378807 81.079376 0.50008959
69.046303 80.091415 -0.93984765
72.89431 92.361755 -0.83012587
69.415283 81.268005 0
69.37838 81.150322 0.50197625
69.034561 80.122185 -0.94128883
72.863129 92.382408 -0.83041638
69.409927 81.324211 0
69.373138 81.206406 0.50342733
69.016617 80.133194 -0.9415769
72.836548 92.417908 -0.83114195
69.399811 81.365532 0
69.38166 81.307159 0.50618458
68.998642 80.14418 -0.94186491
72.358002 90.993935 -0.78919905
69.395752 81.426727 0
69.368431 81.338486 0.50691068
68.988281 80.179871 -0.94359517
72.290161 90.889786 -0.78586066
69.400764 81.517784 0
69.368912 81.414474 0.50894237
68.953697 80.206711 -0.94445926
70.728928 86.014626 -0.64290571
69.401016 81.670158 0
69.366302 81.55661 0.5127157
68.937126 80.222588 -0.94503641
70.696274 86.002853 -0.6423251
69.40239 81.751373 0
69.364754 81.627708 0.51460242
68.926521 80.25824 -0.9467656
70.672699 86.020882 -0.64261568
69.403572 81.832588 0
69.367569 81.713753 0.51692462
68.908371 80.26915 -0.94705468
70.634079 85.989128 -0.64145458
69.394051 81.878967 0
69.361168 81.769974 0.51837575
68.896149 80.299835 -0.94849586
70.603012 85.982193 -0.64101899
69.399391 81.975197 0
69.357628 81.836166 0.5201174
68.87793 80.310684 -0.94878393
70.582405 86.010071 -0.6415996
69.38662 82.011635 0
69.355431 81.907349 0.52200407
68.863632 80.298752 -0.94791877
70.55722 85.974197 -0.64043844
69.399544 82.094673 0
69.362442 81.970337 0.52374578
68.852783 80.334381 -0.94964904
70.530663 85.982109 -0.64043844
69.402878 82.185997 0
69.361443 82.046539 0.52577746
68.840378 80.365036 -0.95109028
70.502625 85.985001 -0.64029348
69.397141 82.247421 0
69.354378 82.102844 0.52722913
68.819138 80.365913 -0.95080221
70.470184 85.9729 -0.63971287
69.400078 82.338806 0
69.36039 82.20401 0.52998632
68.802269 80.381638 -0.95137829
70.436317 85.95578 -0.63898736
69.392555 82.395256 0
69.350082 82.250366 0.53114748
68.786819 80.402336 -0.95224339
70.41124 85.968521 -0.63913232
69.390739 82.471718 0
69.358597 82.36158 0.53419524
68.76844 80.413071 -0.95253146
70.389046 85.991226 -0.63956791
69.387299 82.543198 0
69.346558 82.402985 0.53521138
68.750038 80.423782 -0.95281947
70.359573 85.988937 -0.63927734
69.385132 82.619682 0
69.350304 82.499283 0.53782362
68.744507 80.479233 -0.9557029
70.330132 85.986626 -0.63898736
69.388542 82.716202 0
69.335136 82.530693 0.53854913
68.711761 80.440201 -0.95310855
70.312149 86.024223 -0.63985789
69.387436 82.797752 0
69.344238 82.647026 0.54174197
68.711761 80.515518 -0.95714408
70.28981 86.046837 -0.64029348
69.387566 82.884338 0
69.341667 82.723442 0.54377419
68.691803 80.521194 -0.95714408
70.274521 86.094414 -0.64145458
69.384651 82.960922 0
69.337494 82.794868 0.54566085
68.671837 80.526855 -0.95714408
70.254883 86.126976 -0.64218014
69.378723 83.027512 0
69.338814 82.886314 0.54812807
68.653259 80.53746 -0.95743215
70.235184 86.159531 -0.64290571
69.371239 83.089119 0
69.337097 82.967781 0.55030477
68.640251 80.567978 -0.95887333
70.222412 86.217079 -0.64435679
69.367821 83.165756 0
69.332397 83.039261 0.55219144
68.621613 80.578545 -0.95916134
70.196968 86.229599 -0.64450234
69.372612 83.272507 0
69.335899 83.140816 0.55494922
68.608498 80.609055 -0.96060359
70.170105 86.237076 -0.64450234
69.367416 83.344177 0
69.315544 83.157257 0.5552392
68.578789 80.579704 -0.95858532
70.103111 86.099243 -0.64029348
69.368973 83.440948 0
69.321442 83.268852 0.55828702
68.568352 80.620148 -0.96060359
70.044724 85.991348 -0.63695508
69.357895 83.492592 0
69.320198 83.355446 0.56060922
68.553726 80.645615 -0.96175677
70.009918 85.968567 -0.63608456
69.365921 83.614502 0
69.31189 83.417007 0.56220591
68.540398 80.676056 -0.96319795
69.983368 85.975815 -0.63608456
69.364098 83.701332 0
69.300713 83.468536 0.56351203
68.528969 80.673805 -0.96290994
69.959198 85.939301 -0.63492346
69.369926 83.769859 0
69.318916 83.582062 0.56670481
68.520966 80.724205 -0.96550429
69.927254 85.926422 -0.63434285
69.366409 83.851715 0
69.314232 83.658691 0.56873649
68.500755 80.729652 -0.96550429
69.91021 85.968697 -0.63535899
69.362701 83.933563 0
69.328278 83.805618 0.5728004
68.48455 80.750061 -0.96636838
69.876945 85.950729 -0.63463342
69.354767 84.000359 0
69.327194 83.897385 0.57526761
68.461647 80.745476 -0.96579236
69.853088 85.96785 -0.63492346
69.357391 84.107407 0
69.321877 83.974098 0.5772993
68.446709 80.770859 -0.96694547
69.809227 85.909607 -0.63303673
69.353104 84.189339 0
69.315048 84.045807 0.57918596
68.425125 80.771217 -0.96665746
69.786728 85.931686 -0.63347232
69.352608 84.286369 0
69.32132 84.167801 0.5825243
68.421936 80.841591 -0.97040498
69.761543 85.943687 -0.63361734
69.35849 84.4086 0
69.316742 84.249596 0.584701
68.402885 80.851929 -0.97069305
69.723198 85.90538 -0.63231122
69.345665 84.460381 0
69.301468 84.291206 0.58571708
68.385124 80.867233 -0.97126907
69.704575 85.942451 -0.63318175
69.345825 84.562538 0
69.307022 84.413284 0.58905548
68.363441 80.867516 -0.97098106
69.675453 85.93927 -0.63289177
69.343132 84.654648 0
69.30838 84.520287 0.59195769
68.346931 80.88781 -0.97184616
69.660599 85.991409 -0.63419789
69.350609 84.787094 0
69.3069 84.617287 0.59457046
68.332939 80.918106 -0.9732874
69.635307 86.003258 -0.63434285
69.343567 84.864128 0
69.301323 84.699188 0.59674716
68.316322 80.93837 -0.97415251
69.621552 86.060425 -0.63579458
69.336342 84.941177 0
69.298119 84.791183 0.59921438
68.292038 80.928528 -0.9732874
69.603828 86.102448 -0.63681012
69.335342 85.043472 0
69.293427 84.878174 0.60153663
68.289291 81.003914 -0.97732294
69.592377 86.16967 -0.63855177
69.336647 85.155884 0
69.292343 84.980278 0.60429382
68.262451 80.984001 -0.97588176
69.584557 86.252029 -0.64072901
69.328812 85.232986 0
69.282173 85.04715 0.60603553
68.243179 80.994156 -0.97616976
69.609276 86.465454 -0.64667904
69.330887 85.350502 0
69.281914 85.154358 0.60893834
68.225136 81.009315 -0.97674686
69.66732 86.81517 -0.65654796
69.323914 85.432709 0
69.28141 85.261597 0.61184108
68.22319 81.089722 -0.98107046
69.685875 87.008667 -0.66191798
69.324234 85.545227 0
69.274414 85.343628 0.61401778
68.188957 81.039574 -0.97790003
69.661789 87.030663 -0.66235352
69.313103 85.612305 0
69.28212 85.486244 0.61793667
68.172058 81.0597 -0.97876519
69.636429 87.047577 -0.66264355
69.316658 85.740028 0
69.27343 85.563278 0.61996835
68.162971 81.067238 -0.9790532
69.644669 87.141861 -0.66525632
69.331894 85.859543 0
69.283798 85.662369 0.62272561
68.156982 81.132584 -0.98251271
69.625275 87.184006 -0.66627187
69.438019 86.412224 0
69.283356 85.774796 0.62577337
68.137489 81.142616 -0.98280072
69.608231 87.236244 -0.66757798
69.486641 86.732468 0
69.283867 85.892311 0.62896675
68.119186 81.157654 -0.9833768
69.592285 87.293549 -0.66902965
69.495621 86.890915 0
69.275604 85.974464 0.63114339
68.097252 81.157593 -0.98308879
69.585861 87.391266 -0.67164189
69.507851 87.064598 0
69.267151 86.056648 0.63332063
68.087273 81.207817 -0.98568314
69.590019 87.5345 -0.67556024
69.54493 87.344688 0
69.264511 86.164108 0.63622284
68.066483 81.212746 -0.98568314
69.632072 87.83963 -0.68412304
69.619629 87.78698 0
69.273575 86.322189 0.64057732
68.043312 81.207581 -0.98510706
69.672203 88.139832 -0.69254088
69.640892 88.006554 0
69.263245 86.399361 0.642609
68.030754 81.247704 -0.98712432
69.653679 88.192207 -0.693847
69.61425 88.023499 0
69.261009 86.511971 0.64565676
68.01226 81.26265 -0.98770142
69.627968 88.214218 -0.69428253
69.588745 88.045464 0
69.252625 86.599304 0.64797902
67.993721 81.277557 -0.98827749
69.5952 88.205803 -0.693847
69.553833 88.026848 0
69.25457 86.732193 0.6516068
67.971687 81.277328 -0.98798949
69.572929 88.242943 -0.69471812
69.520126 88.013245 0
69.250381 86.839821 0.6545096
67.96003 81.322464 -0.99029583
69.537842 88.224312 -0.69399202
69.493431 88.03006 0
69.24942 86.962677 0.65784794
67.945976 81.357491 -0.99202502
69.508568 88.230988 -0.69399202
69.462082 88.02652 0
69.247017 87.080482 0.66104072
67.907425 81.382118 -0.99289018
69.444298 88.21888 -0.69326645
69.382317 87.943176 0
69.241371 87.31617 0.66742629
67.89093 81.407021 -0.99404335
69.407097 88.189957 -0.69225091
69.33976 87.888702 0
69.241531 87.44928 0.67105466
67.87326 81.426865 -0.99490845
71.138985 96.120247 -0.91894674
69.308632 87.884964 0
69.228981 87.526604 0.67308635
67.862251 81.47699 -0.9975028
71.125961 96.245544 -0.92228454
69.275269 87.871033 0
69.240921 87.715591 0.67831135
67.836685 81.461433 -0.99634969
71.078072 96.213547 -0.92112398
69.263184 87.953651 0
69.225647 87.782814 0.68005306
67.832779 81.494057 -0.99807888
71.065285 96.24826 -0.92199451
69.289925 88.144943 0
69.240189 87.917946 0.68382639
67.817146 81.523956 -0.99952114
71.063911 96.429413 -0.926929
69.291756 88.293701 0
69.2323 88.020721 0.68658358
67.792679 81.51339 -0.99865597
71.037926 96.498878 -0.92867064
69.287743 88.417084 0
69.239563 88.194633 0.69137305
70.992088 96.476868 -0.92779958
69.276855 88.509956 0
69.23658 88.322876 0.69485641
70.951752 96.480209 -0.92765456
69.295166 88.740242 0
69.223503 88.405426 0.69703364
70.942787 96.63092 -0.93171847
69.286926 88.848442 0
69.211311 88.493027 0.6993553
70.925934 96.746048 -0.93476623
69.290283 89.012657 0
69.222572 88.692505 0.70487034
70.881012 96.728973 -0.93404067
69.270775 89.069977 0
69.246193 88.953072 0.71212703
70.869102 96.869507 -0.93781406
69.240479 89.076332 0
69.236237 89.056046 0.71488482
70.817749 96.821808 -0.93621737
69.224991 89.153984 0
69.231323 89.184456 0.71836764
70.811714 96.992889 -0.94086182
69.218796 89.277504 0
69.229256 89.328186 0.72228652
70.753036 96.909454 -0.93824905
64 64 0
69.215363 89.415916 0.72460818
70.713272 96.917587 -0.93824905
69.272102 89.851013 0
64 64 0
70.722008 97.16507 -0.94507074
69.247063 89.887985 0
64 64 0
70.683983 97.18335 -0.94536072
69.238388 90.006554 0
64 64 0
70.633682 97.14045 -0.94390965
69.238632 90.171066 0
64 64 0
70.619995 97.28096 -0.94768298
69.23645 90.325417 0
64 64 0
70.562645 97.202263 -0.94521576
69.237946 90.500221 0
64 64 0
70.536545 97.281555 -0.94724739
69.201904 90.486099 0
64 64 0
70.496323 97.289429 -0.94724739
69.204788 90.671158 0
64 64 0
70.506966 97.451469 -0.95174634
69.237373 90.924644 0
64 64 0
70.462601 97.438896 -0.95116574
69.211746 90.966728 0
64 64 0
70.434929 97.513046 -0.953053
69.204681 91.105896 0
64 64 0
70.3993 97.54631 -0.95377856
69.206055 91.291107 0
64 64 0
70.384888 97.691872 -0.95769691
69.212814 91.507042 0
64 64 0
70.325905 97.602539 -0.95493966
69.229637 91.779289 0
64 64 0
70.2939 97.656128 -0.95624578
69.220947 91.918602 0
64 64 0
70.278847 97.801651 -0.96016413
69.220474 92.103989 0
64 64 0
70.2248 97.737671 -0.95813245
69.200684 92.187057 0
64 64 0
70.210258 97.888275 -0.96219581
69.210709 92.433929 0
64 64 0
70.182335 97.967346 -0.96422803
69.200584 92.573341 0
69.121475 92.138702 0.79877073
70.113556 97.821381 -0.95987415
69.206787 92.80497 0
69.11058 92.272713 0.80239904
70.109413 98.033333 -0.96567917
69.164627 92.770256 0
69.100288 92.41185 0.80617237
70.077408 98.091843 -0.96713024
69.147209 92.873825 0
69.114288 92.689148 0.81386465
70.024429 98.032639 -0.96524358
69.104156 92.8339 0
69.09774 92.797653 0.81676745
70.02919 98.300919 -0.97264528
64 64 0
69.099823 93.013626 0.82271749
69.968079 98.195557 -0.9694525
64 64 0
64 64 0
69.938293 98.26931 -0.97133917
64 64 0
64 64 0
69.900406 98.296951 -0.97191972
64 64 0
64 64 0
69.881706 98.437233 -0.97569305
64 64 0
76.607819 137.81844 2.0914612
69.830536 98.38797 -0.97409695
64 64 0
76.525558 137.8746 2.0926223
69.804504 98.487228 -0.97670919
64 64 0
64 64 0
69.812889 98.664978 -0.98164368
64 64 0
64 64 0
69.753937 98.569443 -0.97874087
64 64 0
64 64 0
69.718086 98.612274 -0.97975695
64 64 0
64 64 0
69.691399 98.711456 -0.98236918
64 64 0
64 64 0
69.657799 98.769608 -0.98382092
64 64 0
75.957558 137.48431 2.0792701
69.623238 98.822594 -0.98512697
64 64 0
75.866272 137.48332 2.0788345
69.589378 98.880661 -0.98657811
64 64 0
75.761024 137.39499 2.0759323
69.56192 98.979767 -0.98919034
64 64 0
75.680496 137.46048 2.0773833
69.519646 98.986465 -0.98919034
64 64 0
75.594154 137.48993 2.0778189
69.478973 99.003387 -0.98948091
64 64 0
64 64 0
69.443054 99.051064 -0.99064201
64 64 0
64 64 0
69.420479 99.18602 -0.99427038
64 64 0
64 64 0
69.388954 99.26445 -0.99630207
64 64 0
75.658806 140.2934 2.1554642
69.327644 99.147621 -0.99281871
64 64 0
75.568947 140.32285 2.1558998
69.319168 99.380157 -0.99920481
64 64 0
64 64 0
69.27565 99.381424 -0.99905986
64 64 0
64 64 0
64 64 0
64 64 0
64 64 0
64 64 0
64 64 0
64 64 0
64 64 0
64 64 0
71.975731 120.28415 0
64 64 0
71.942451 120.29411 0
64 64 0
71.870102 120.27274 0
64 64 0
71.802101 120.28221 0
64 64 0
71.732674 120.28128 0
64 64 0
71.661148 120.26479 0
64 64 0
71.589676 120.24823 0
64 64 0
71.521019 120.25218 0
64 64 0
71.453041 120.26123 0
64 64 0
71.389801 120.30632 0
64 64 0
71.321754 120.31521 0
64 64 0
71.265007 120.41177 0
64 64 0
71.211327 120.53409 0
64 64 0
71.138451 120.50662 0
64 64 0
74.021484 144.10652 0
64 64 0
64 64 0
64 64 0
64 64 0
64 64 0
64 64 0
64 64 0
64 64 0
64 64 0
64 64 0
64 64 0
73.431946 144.10471 0
64 64 0
73.335754 144.12122 0
64 64 0
73.292137 144.1682 0
64 64 0
73.186371 144.10181 0
64 64 0
64 64 0
64 64 0
64 64 0
64 64 0
72.921219 144.36218 0
64 64 0
64 64 0
64 64 0
64 64 -0
64 64 0
64 64 0
64 64 0
74.381676 160.71365 2.7165446
64 64 0
74.26207 160.70029 2.7158191
64 64 0
74.157143 160.82632 2.719012
64 64 0
64 64 0
64 64 0
64 64 0
64 64 0
64 64 0
64 64 0
64 64 0
64 64 0
64 64 0
64 64 0
73.476608 161.11981 2.7252526
64 64 0
73.358253 161.12082 2.724962
64 64 0
73.247292 161.19934 2.7268493
64 64 0
64 64 0
64 64 0
64 64 0
64 64 0
64 64 0
64 64 0
64 64 0
64 64 0
64 64 0
64 64 0
64 64 0
64 64 0
64 64 0
64 64 0
64 64 0
64 64 0
64 64 0
64 64 0
64 64 0
64 64 0
64 64 0
64 64 0
64 64 0
64 64 0
64 64 0
64 64 0
64 64 0
64 64 0
64 64 0
64 64 0
64 64 0
64 64 0
64 64 0
64 64 0
64 64 0
64 64 0
64 64 0
64 64 0
67.75174 119.86139 1.5636164
67.683556 119.8555 1.5633259
67.609016 119.75101 1.5602781
70.606201 167.99988 0
67.541321 119.75014 1.5601331
70.475998 167.93506 0
67.471046 119.7077 1.5588269
64.775093 76.686661 0
67.401825 119.68074 1.5579563
64 64 -0
64.762253 76.729156 0
67.329269 119.59663 1.5554892
64.745041 76.698883 0
67.260872 119.57986 1.5549086
64.731789 76.736153 0
67.195496 119.61488 1.5557792
64.712311 76.664284 0
64 64 0
64.697861 76.680733 0
64 64 0
64.681702 76.66597 0
67.040237 120.48749 1.5798709
64.561401 74.671043 -0.89073765
64.666122 76.661591 0
66.969795 120.4496 1.5787098
64.546661 74.635834 -0.88774312
64.647881 76.605202 0
66.900787 120.43759 1.5782748
64.536385 74.687759 -0.89202195
64.632912 76.611168 0
66.832069 120.43066 1.5779842
64.522217 74.662758 -0.8898825
64.61895 76.637909 0
66.769981 120.55862 1.5814676
64.507614 74.62748 -0.88688636
64.60318 76.628265 0
66.716019 120.86299 1.5898854
64.494537 74.622963 -0.88645875
64.576157 76.376328 -0.69048721
64.584045 76.545792 0
64 64 0
64.558395 76.315002 -0.68702769
64.559219 76.333305 0
66.589661 121.11339 1.5967065
64.54351 76.315674 -0.68702769
64.533302 76.084396 0
66.524315 121.19952 1.5990282
64.534721 76.285004 -0.6852985
64.520569 75.959915 0
66.483429 121.05568 1.5949649
64.520752 76.306313 -0.68645167
64.5037 75.903351 0
66.401306 120.74712 1.5862571
64.505669 76.301765 -0.68616366
64 64 -0
64 64 0
64 64 0
64.489571 76.271347 -0.68443334
64.455078 75.406891 -0.31882611
64 64 0
66.23951 120.13486 1.5689864
64.473343 76.235741 -0.68241501
64.433464 75.204918 -0.31316608
64 64 0
64 64 0
64.457199 76.200134 -0.68039781
64.413109 75.023666 -0.30808607
64 64 0
64 64 0
64.408104 75.253403 -0.93866831
64.442085 76.190323 -0.67982066
64.391502 74.795662 -0.3017005
64 64 0
64 64 0
64.395767 75.289795 -0.94166285
64.421555 76.025436 -0.67059642
64.378098 74.785751 -0.3014105
64.414841 75.833847 0
64 64 0
64.382126 75.29026 -0.94166285
64.362228 74.702477 -0.59679687
64.366295 74.82254 -0.30242604
64.400536 75.834343 0
65.905075 120.28758 1.5729048
64.367477 75.259933 -0.93909585
64.35537 74.889038 -0.60717541
64.353554 74.833374 -0.30271661
64.385391 75.808815 0
67.250748 163.60669 2.7833056
64.351616 75.188538 -0.93310517
64.338806 74.780884 -0.60112154
64.343407 74.927284 -0.30532885
64.369652 75.762451 0
67.132835 163.68845 2.7854822
64.33313 75.024742 -0.91941023
64.323273 74.698555 -0.59650886
64.333023 75.021179 -0.30794108
64.354805 75.742081 0
67.007355 163.52594 2.7808383
64.315346 74.871185 -0.90657198
64.3078 74.611038 -0.59160817
64.323021 75.135849 -0.31113386
64.339561 75.706093 0
65.661331 121.27267 1.6001893
64.297646 74.707329 -0.89287704
64.292099 74.50798 -0.58584231
64.310143 75.157013 -0.31171441
64.325562 75.711693 0
65.590973 121.23309 1.5990282
64.281433 74.584526 -0.88260746
64.278717 74.482475 -0.58440113
64.297081 75.172966 -0.31214997
64.309753 75.649643 0
65.521126 121.209 1.5983026
64.26786 74.554054 -0.88003886
64.266052 74.482803 -0.58440113
64.283051 75.152542 -0.31156942
64.29422 75.592766 0
65.450287 121.14326 1.596416
64.253372 74.482521 -0.87404811
64.253761 74.498642 -0.58526629
64.269577 75.15287 -0.31156942
64.279335 75.556702 0
65.378227 121.0203 1.5929332
64.240349 74.467415 -0.87276381
64.240715 74.483421 -0.58440113
64.256813 75.184372 -0.31244054
64.264053 75.499786 0
65.307541 120.94398 1.5907559
64.227036 74.436913 -0.87019682
64.228279 74.494057 -0.58497828
64.242844 75.163895 -0.31185997
64.249825 75.484482 0
65.237152 120.8728 1.5887243
64.214104 74.421776 -0.86891252
64.214851 74.458115 -0.58295995
64.228714 75.132996 -0.31098887
64.23391 75.385918 0
65.167679 120.83788 1.5877082
64.202209 74.457962 -0.87190872
64.202118 74.453201 -0.58267194
64.215668 75.154045 -0.31156942
64.220863 75.422623 0
65.09388 120.57426 1.5803065
64.195892 74.458084 -0.87190872
64.19619 74.474007 -0.58382511
64.209709 75.19574 -0.31273052
64.21376 75.412338 0
64 64 0
64.183609 74.478844 -0.87362057
64.183716 74.484573 -0.58440113
64.196091 75.190796 -0.31258553
64.200432 75.438606 0
64 64 0
64.170616 74.458527 -0.87190872
64 64 -0
64.182732 75.201408 -0.31287554
64.186356 75.423241 0
64 64 0
64.158752 74.510048 -0.87618756
64.158066 74.464294 -0.58324796
64.169281 75.206833 -0.31302109
64.17318 75.465073 0
64 64 0
64.148483 74.684769 -0.89073765
64.145416 74.464478 -0.58324796
64.155663 75.201813 -0.31287554
64.159401 75.47049 0
64 64 0
64.140717 75.090485 -0.92454582
64.132904 74.475006 -0.58382511
64.141869 75.181213 -0.31229499
64.14547 75.465454 0
64 64 0
64.129791 75.306259 -0.94251961
64 64 -0
64.128174 75.165802 -0.31185997
64.131081 75.418785 0
64.133186 75.602051 0.32404444
64 64 -0
64.107964 74.51149 -0.58584231
64.114738 75.171135 -0.31200498
64.117393 75.429359 0
64.119324 75.617775 0.32447943
64 64 -0
64.094749 74.454727 -0.58267194
64.100487 75.08812 -0.30968276
64.103958 75.47113 0
64.105331 75.623123 0.32462499
64.089371 75.378525 -0.94851035
64.082069 74.449646 -0.5823828
64 64 -0
64.090012 75.460831 0
64.091537 75.654411 0.32549557
64.075211 75.317017 -0.94337475
64.06955 74.465263 -0.58324796
