# .PCD v0.7 - Point Cloud Data file format
VERSION 0.7
FIELDS x y z
SIZE 4 4 4
TYPE F F F
COUNT 1 1 1
WIDTH 1896
HEIGHT 1
VIEWPOINT 0 0 0 1 0 0 0
POINTS 1896
DATA ascii
75.621628 81.12294 0
95.295593 110.10996 1.5563598
75.034409 80.30011 -0.5497309
75.638855 81.193001 0
95.268982 110.19077 1.5578108
75.011803 80.309128 -0.54958588
89.239716 101.38152 0
95.259674 110.29743 1.5601331
64 64 -0
89.191628 101.40768 0
95.247253 110.39983 1.5623103
64 64 -0
89.163818 101.464 0
95.269394 110.55402 1.5662286
64 64 -0
89.135918 101.52034 0
95.218918 110.60042 1.5665193
64 64 -0
89.093452 101.55501 0
95.136589 110.5992 1.5652125
64 64 -0
89.053825 101.59395 0
95.045685 110.58492 1.5634714
74.917572 80.40358 -0.55031145
89.048416 101.63509 0
95.029045 110.62094 1.5640514
74.897743 80.416756 -0.55031145
89.023071 101.69569 0
94.992813 110.68872 1.5650675
74.929535 80.507904 -0.55292368
88.968887 101.71288 0
94.979416 110.79114 1.5672448
74.975449 80.62085 -0.55626202
88.880272 101.67786 0
95.60437 111.86061 1.601786
74.998222 80.699188 -0.55843872
88.800369 101.65573 0
95.586533 111.95952 1.6038177
74.978035 80.712463 -0.55843872
88.726288 101.64217 0
95.474358 111.91513 1.6010604
74.963539 80.734421 -0.55872923
88.637993 101.6067 0
95.393654 111.91835 1.5998993
74.971725 80.791153 -0.56018037
88.592537 101.63645 0
95.278877 111.86924 1.5969965
74.925896 80.765213 -0.55887425
88.558411 101.68358 0
95.150085 111.79816 1.5933682
74.931122 80.817612 -0.56018037
88.512863 101.71323 0
95.080978 111.81833 1.5927876
74.865051 80.80471 -0.55887425
88.489471 101.87726 0
104.89138 127.24568 2.1033618
74.861649 80.84404 -0.55974537
88.457794 101.9287 0
104.86563 127.37367 2.1059747
74.875008 80.909584 -0.56148648
88.437279 101.99761 0
64 64 0
74.879829 80.962097 -0.56279314
88.402588 102.04464 0
103.02335 124.83899 2.0186048
74.864922 80.983978 -0.56308317
88.379044 102.10918 0
103.01981 124.99554 2.0222332
74.875137 81.045288 -0.56467986
88.360977 102.1825 0
104.77129 127.90339 2.1170046
74.860107 81.067177 -0.56496984
88.345551 102.26019 0
101.84844 123.48062 1.9689696
74.847839 81.09346 -0.56540537
88.310463 102.30716 0
101.87679 123.68427 1.9741946
74.7966 81.058243 -0.56380874
88.286423 102.37169 0
101.77686 123.68609 1.9727435
74.730759 80.976906 -0.56090593
88.285492 102.42155 0
101.72968 123.69133 1.972163
74.618797 80.844803 -0.556117
88.252922 102.47289 0
101.64645 123.71929 1.9715824
74.543114 80.769623 -0.55321425
88.228577 102.53741 0
101.59639 123.79993 1.9727435
74.495239 80.738335 -0.55176312
88.223473 102.63281 0
101.54895 123.88493 1.9740497
74.455719 80.720154 -0.55074698
88.193329 102.68852 0
101.54819 124.04482 1.977823
74.432755 80.728371 -0.55060202
88.157585 102.73539 0
88.806602 103.77606 1.3091999
74.412537 80.740967 -0.55060202
88.132751 102.79991 0
88.621292 103.58537 1.3019432
74.386818 80.74469 -0.55031145
88.116028 102.87769 0
88.288559 103.15584 1.2868499
74.377518 80.77491 -0.550892
88.082733 102.92894 0
88.205696 103.1277 1.2849631
74.349045 80.774162 -0.55045646
88.057541 102.99345 0
88.158401 103.15692 1.2849631
74.331505 80.791092 -0.55060202
88.032219 103.05794 0
88.113785 103.19051 1.2851081
74.313919 80.807991 -0.55074698
88.020393 103.14462 0
88.071846 103.22847 1.2853981
74.299026 80.8293 -0.55103701
87.983948 103.19137 0
88.046127 103.29298 1.2865592
74.278687 80.841728 -0.55103701
87.9664 103.2692 0
88.014885 103.34863 1.2874304
74.277245 80.885216 -0.55205309
87.937881 103.32925 0
87.986229 103.40869 1.2884459
74.267616 80.91539 -0.5526337
87.895737 103.36703 0
87.984436 103.51315 1.2909131
74.249863 80.932228 -0.55277866
87.850845 103.40033 0
87.985123 103.62215 1.2935259
74.237457 80.957954 -0.55321425
87.77095 103.37567 0
87.945274 103.66443 1.2939609
74.211594 80.961395 -0.55292368
81.038879 92.301491 0
87.908051 103.71114 1.2945415
74.19912 80.987091 -0.55335921
80.956444 92.24173 0
87.876106 103.76674 1.2954127
74.175919 80.994949 -0.55321425
80.884872 92.199684 0
87.838715 103.8134 1.2959932
74.160698 81.016151 -0.55350423
80.829445 92.184311 0
87.793259 103.84663 1.2961382
74.142799 81.03289 -0.55364978
80.787384 92.191208 0
87.747749 103.87981 1.2962831
74.13781 81.047943 -0.55393982
80.751732 92.170044 0
87.7024 103.85841 1.295122
74.127808 81.078056 -0.55452037
80.717682 92.190262 0
98.66259 122.44994 1.8978549
74.107162 81.090286 -0.55452037
80.64386 92.143234 0
64 64 0
74.089142 81.106956 -0.55466533
80.615143 92.172302 0
97.731918 121.19518 1.8544608
74.071106 81.123627 -0.55481088
80.541504 92.125053 0
97.575844 121.08807 1.8496714
74.058289 81.149216 -0.55524594
80.504875 92.140533 0
97.548904 121.20032 1.8519937
74.034943 81.156876 -0.55510092
80.441956 92.111031 0
97.424667 121.14661 1.8489459
74.014206 81.168991 -0.55510092
80.402733 92.121895 0
88.13681 105.38168 1.3379362
73.998672 81.190056 -0.55539089
80.342567 92.096695 0
64 64 0
73.97789 81.202118 -0.55539089
80.300781 92.102921 0
107.55292 139.08624 2.4242487
73.993538 81.277153 -0.55742311
80.245956 92.086555 0
88.08812 105.64434 1.3435961
73.951881 81.253204 -0.55626202
80.206802 92.097137 0
97.569534 122.19827 1.8763754
73.943977 81.287735 -0.55698758
80.14949 92.076096 0
97.506973 122.2523 1.8768109
73.948936 81.34481 -0.55843872
80.107788 92.082062 0
97.426216 122.27472 1.8762304
73.925392 81.35231 -0.5582937
80.042831 92.047287 0
87.481476 105.05208 1.3208104
73.91729 81.386856 -0.55901927
80.003769 92.057594 0
87.424133 105.06687 1.320375
73.896271 81.398827 -0.55901927
79.967285 92.072395 0
87.341095 105.03642 1.3184882
73.913704 81.478584 -0.56119651
79.907684 92.046402 0
87.291489 105.0646 1.3184882
73.938629 81.57196 -0.56380874
79.850723 92.024834 0
87.264877 105.13342 1.3197944
73.945473 81.633759 -0.56540537
79.832184 92.071159 0
87.253456 105.2294 1.3219717
74.125397 82.003571 -0.57687044
79.77784 92.05397 0
87.185791 105.22575 1.3209555
74.151932 82.101921 -0.57962823
79.73629 92.059395 0
87.138504 105.25829 1.3211011
74.183319 82.209427 -0.58267599
79.697296 92.069305 0
87.068344 105.24993 1.31994
74.182449 82.233719 -0.58325654
79.677803 92.074249 0
87.025681 105.23209 1.3189238
79.623611 92.056793 0
96.127991 121.69527 1.8443013
79.587166 92.071083 0
95.992668 121.61592 1.840528
79.558281 92.099014 0
95.912956 121.63635 1.8399475
79.531868 92.13147 0
95.883484 121.74767 1.8422697
79.490334 92.136528 0
95.803658 121.76794 1.8416891
79.448807 92.141533 0
95.723831 121.7881 1.8411086
79.429794 92.187584 0
95.711365 121.93123 1.8444464
79.3666 92.233925 0
85.994637 104.41199 1.2849631
79.347374 92.27993 0
85.920998 104.39285 1.2835114
79.325577 92.321335 0
85.887016 104.44674 1.2843826
79.288879 92.335258 0
85.892418 104.57377 1.2875754
64 64 0
85.91478 104.73291 1.2917843
64 64 0
85.867996 104.76393 1.2919292
79.210609 92.436378 0
85.821175 104.79491 1.2920743
79.186035 92.473106 0
85.764542 104.8075 1.2916392
79.144287 92.477646 0
85.659088 104.72823 1.2883009
79.092796 92.46373 0
85.305557 104.18048 1.2701597
79.858742 93.995758 0
85.191414 104.08215 1.2662408
79.80307 93.978058 0
85.128426 104.08015 1.2653702
79.757141 93.978699 0
85.072723 104.09184 1.2649347
79.74749 94.048439 0
85.009796 104.08968 1.2640642
80.304131 95.202225 0
84.905991 104.00909 1.2607259
80.268425 95.179779 0
84.821716 103.90652 1.2570975
80.211525 95.162476 0
84.713516 103.81641 1.2534691
64 64 0
84.710861 103.92906 1.2562269
80.102692 95.136826 0
84.820145 104.25869 1.2658052
80.072212 95.170135 0
84.847702 104.43163 1.2704498
80.041679 95.20343 0
84.782196 104.42443 1.2694336
80.001595 95.218163 0
92.057884 118.73927 1.7178915
79.966225 95.242104 0
92.00354 118.79626 1.718617
79.952087 95.307739 0
91.894852 118.74672 1.7160047
79.935463 95.368752 0
91.74395 118.61361 1.7107803
79.942238 95.476212 0
91.55584 118.40601 1.703233
79.969879 95.625534 0
91.459625 118.37897 1.7013464
80.074425 95.928391 0
91.391571 118.40747 1.7012014
80.262314 96.399002 0
96.608315 128.96474 2.0300705
80.302345 96.576874 0
86.215797 108.39369 1.3864102
80.242065 96.554642 0
86.155182 108.40656 1.3859746
80.179527 96.527634 0
84.467575 105.1484 1.2835114
80.133286 96.53318 0
84.392448 105.1219 1.2819153
80.084732 96.533981 0
84.326622 105.11389 1.2808992
80.036209 96.534729 0
84.249359 105.08249 1.2791575
79.980812 96.521378 0
91.237946 119.42993 1.7248582
79.930054 96.517288 0
91.170944 119.4628 1.7248582
79.883896 96.522476 0
90.050285 117.33829 1.6578068
79.841438 96.485291 0
90.024895 117.36803 1.6582423
79.802177 96.50441 0
84.21199 105.57523 1.2910587
79.744728 96.486008 0
84.14814 105.57155 1.2901876
79.691872 96.476883 0
84.131813 105.66606 1.2923648
79.648102 96.48645 0
84.182922 105.90103 1.2988954
79.588562 96.463112 0
84.17952 106.02376 1.3019432
79.535835 96.453751 0
84.056931 105.89813 1.2972993
78.9795 95.388908 -0.97133917
79.492134 96.463104 0
83.849617 105.59402 1.2871398
78.923698 95.369438 -0.97017807
78.808945 95.12822 0
83.86409 105.75407 1.2913487
78.894691 95.406235 -0.97075862
78.766853 95.136673 0
84.031845 106.23819 1.3055716
78.816757 95.339645 -0.96814638
78.740349 95.178032 0
84.023003 106.35163 1.3083293
78.758942 95.315224 -0.96684027
78.731514 95.257027 0
83.985107 106.40399 1.3091999
78.71225 95.314217 -0.96625972
78.722504 95.336044 0
83.944901 106.45162 1.3099254
78.665588 95.313148 -0.96567917
78.72216 95.433929 0
83.911224 106.51334 1.3110865
78.640938 95.359108 -0.96655029
78.690765 95.465836 0
83.851044 106.51853 1.310506
78.616188 95.405037 -0.96742082
78.685677 95.554352 0
83.751419 106.43884 1.3073132
78.626343 95.526382 -0.9706136
78.673828 95.628731 0
83.590775 106.22697 1.3000565
78.640594 95.657234 -0.97409695
78.677109 95.736183 0
83.454666 106.06667 1.2943965
78.641487 95.759842 -0.97670919
78.647461 95.772804 0
83.349426 105.97216 1.2907681
78.618294 95.81057 -0.97772533
78.646011 95.87088 0
83.263977 105.91995 1.2884459
78.610146 95.894348 -0.97975695
78.629166 95.935883 0
83.198174 105.91014 1.2874304
78.580231 95.930893 -0.98033756
78.620834 96.019814 0
87.20549 114.82032 1.5602781
78.571716 95.963333 -0.98106307
78.607964 96.042854 0
83.294632 106.32315 1.2990409
78.537384 95.990387 -0.98135364
86.603119 113.73952 0
83.280029 106.42686 1.3015082
78.500862 96.012657 -0.98149866
86.598831 113.89005 0
83.245903 106.48799 1.3026693
86.58287 114.17709 0
83.153831 106.55807 1.3033949
86.588264 114.35155 0
83.08963 106.55272 1.3025237
86.610268 114.5641 0
83.784904 108.24564 1.3536106
86.625443 114.76253 0
83.727188 108.26001 1.35332
86.623253 114.92302 0
83.667366 108.26956 1.3528845
86.601746 115.04073 0
83.538116 108.12225 1.3476601
86.630424 115.27275 0
83.3358 107.80827 1.3373555
86.658577 115.50491 0
83.330994 107.94102 1.340694
86.677849 115.71816 0
89.828522 122.90347 1.7962629
86.675781 115.88383 0
89.76358 122.94893 1.7966985
86.71077 116.13546 0
90.653214 125.18584 1.8638942
86.724442 116.33949 0
90.558563 125.17034 1.8624431
86.743874 116.55799 0
90.499077 125.23576 1.8634586
86.762802 116.7766 0
88.35672 120.47217 1.7176014
86.816177 117.07662 0
88.261787 120.43949 1.7157148
86.825813 117.27637 0
88.158783 120.38757 1.7132475
86.918816 117.67249 0
83.256073 109.09489 1.3694296
86.963997 117.95874 0
83.219887 109.16116 1.3707356
87.055275 118.35539 0
83.155159 109.16043 1.3700101
87.117821 118.59459 0
83.135971 109.19114 1.3705907
87.223846 119.03008 0
83.087418 109.22859 1.3710263
87.31675 119.4371 0
83.067009 109.33306 1.3734934
87.392609 119.80604 0
83.012215 109.35606 1.3734934
64 64 -0
82.967415 109.40298 1.3742191
82.89856 109.39227 1.3732029
64 64 -0
89.242592 124.83702 1.8395119
64 64 -0
100.79174 152.97513 2.6889696
64 64 -0
64 64 0
64 64 -0
64 64 0
100.49963 152.87631 2.6833096
64 64 -0
94.68515 138.97577 0
86.499641 118.97539 1.6589679
64 64 -0
94.622047 139.08026 0
86.433197 119.00253 1.6589679
94.497986 139.03523 0
86.360847 119.01515 1.6585324
64 64 -0
94.40535 139.0672 0
86.296318 119.04697 1.6586779
94.318512 139.11354 0
86.218109 119.04494 1.6578068
94.210251 139.10666 0
88.195557 124.15334 1.8107762
94.117546 139.13828 0
88.134453 124.21146 1.8116468
93.997772 139.10211 0
88.057831 124.23094 1.8113568
87.921616 124.10063 1.8065673
86.017357 119.51149 1.6678213
81.820648 109.08939 1.3540456
81.790909 109.17375 1.3559322
81.69455 109.08879 1.3527395
82.745308 111.93655 1.4374965
82.703125 111.914 1.4364809
85.840103 120.15058 1.6826247
85.760971 120.14784 1.6817535
83.573929 114.6865 1.5174645
91.130432 134.50739 0
83.546265 114.79741 1.5200768
91.056404 134.56929 0
83.479286 114.80643 1.5196413
90.948822 134.54358 0
83.388206 114.75226 1.517319
90.845055 134.52747 0
83.284355 114.66395 1.5139812
90.730286 134.48196 0
82.797447 113.56479 1.4804555
88.369339 128.49158 0
82.730194 113.56802 1.479875
88.291397 128.521 0
82.670288 113.59062 1.479875
88.202454 128.52106 0
82.610352 113.61314 1.479875
88.128113 128.56 0
82.575867 113.70375 1.4819072
88.09005 128.69643 0
82.503098 113.69206 1.4808911
90.233093 134.71295 0
88.064301 128.86682 1.9322517
90.125977 134.686 0
82.685631 114.55553 1.5052735
90.053139 134.75172 0
82.683792 114.739 1.5100629
89.976593 134.80759 0
82.642151 114.81519 1.511659
64 64 0
82.595009 114.87673 1.5128201
64 64 0
82.565521 114.98705 1.5154324
82.470512 115.10997 1.5177546
82.384102 115.0638 1.5157229
83.470917 118.18523 1.6080266
83.435204 118.29189 1.6104938
83.336426 118.22235 1.6077366
83.277847 118.26526 1.6083171
83.208801 118.27871 1.6080266
83.153564 118.3313 1.6088977
83.094795 118.37401 1.6094782
83.023926 118.38232 1.6090426
92.68119 146.30779 2.434263
64 64 0
92.569786 146.30801 2.4332471
92.438049 146.24918 2.4304898
64 64 0
92.301414 146.17535 2.4272964
64 64 0
64 64 0
64 64 0
64 64 0
64 64 0
64 64 0
64 64 0
64 64 0
64 64 0
64 64 0
64 64 0
64 64 0
64 64 0
64 64 0
64 64 0
64 64 0
64 64 0
64 64 0
64 64 0
64 64 0
64 64 0
64 64 0
64 64 0
64 64 0
64 64 0
64 64 0
64 64 0
64 64 0
64 64 0
64 64 0
64 64 0
64 64 0
64 64 0
64 64 0
64 64 0
64 64 0
64 64 0
64 64 0
64 64 0
64 64 0
64 64 0
64 64 0
64 64 0
64 64 0
64 64 0
64 64 0
64 64 0
64 64 0
64 64 0
64 64 0
64 64 0
64 64 0
64 64 0
64 64 0
64 64 0
64 64 0
64 64 0
95.228584 167.28371 3.0134847
64 64 0
95.091782 167.28156 3.0123236
64 64 0
95.011719 167.46838 3.0166776
64 64 0
64 64 0
64 64 0
64 64 0
101.27666 189.75089 0
64 64 0
101.12027 189.78085 0
64 64 0
100.95212 189.77069 0
64 64 0
100.80012 189.81525 0
64 64 0
100.64224 189.83963 0
64 64 0
64 64 0
64 64 0
64 64 0
64 64 0
64 64 0
64 64 0
64 64 0
64 64 0
64 64 0
64 64 0
64 64 0
64 64 0
64 64 0
64 64 0
97.782486 184.34007 0
64 64 0
97.480423 184.38126 0
64 64 0
64 64 0
64 64 0
64 64 0
91.076279 162.27405 2.846873
64 64 -0
97.155319 184.90842 0
90.994621 162.44202 2.8507919
71.85743 92.790253 -0.83346421
97.000977 184.91824 0
90.867447 162.44447 2.8499207
71.791306 92.684372 -0.83012587
96.838478 184.89775 0
90.778442 162.58719 2.8531137
71.740364 92.63356 -0.82838416
96.696449 184.95242 0
90.644379 162.5643 2.8515174
71.685516 92.567635 -0.82620752
96.551628 184.99686 0
90.577919 162.79213 2.8571775
71.654778 92.522072 -0.82475585
96.510902 185.13716 0
64 64 0
71.606903 92.481094 -0.82330471
96.361824 185.16631 0
90.854736 164.54715 2.906522
71.5578 92.435036 -0.82170862
96.244812 185.31598 0
90.729225 164.56447 2.9060872
71.510147 92.393898 -0.82025695
96.107513 185.39006 0
90.602379 164.5766 2.9055066
71.459961 92.342644 -0.81851524
95.962143 185.43381 0
64 64 0
71.411224 92.296349 -0.81691915
90.591957 165.52911 0
64 64 0
71.374405 92.295212 -0.81662858
90.401009 165.29927 0
64 64 0
71.333694 92.278961 -0.81590301
90.236778 165.16986 0
64 64 0
71.29303 92.262642 -0.81517744
90.118416 165.21661 0
90.855118 168.07156 3.0017292
71.249825 92.236191 -0.81416136
89.993507 165.23801 0
64 64 0
71.211838 92.22982 -0.81372577
89.88147 165.30969 0
64 64 0
71.173889 92.223419 -0.81329077
89.778267 165.41656 0
64 64 0
71.124489 92.171608 -0.81154913
89.67485 165.52332 0
71.374153 93.158821 0.83998811
71.08918 92.175163 -0.81140411
89.592796 165.71579 0
71.322426 93.102196 0.83810139
71.045029 92.143379 -0.81024301
64 64 0
71.309975 93.201782 0.84071422
71.005997 92.131699 -0.80966246
64 64 0
71.244545 93.089561 0.83723086
70.975754 92.155281 -0.81009799
64 64 0
64 64 0
70.940475 92.15863 -0.80995244
64 64 0
64 64 0
70.899025 92.136719 -0.80908185
64 64 0
64 64 0
70.861328 92.129883 -0.80864632
64 64 0
64 64 0
70.824883 92.128059 -0.80835634
64 64 0
64 64 0
70.786018 92.116081 -0.8077758
64 64 0
71.057846 93.242355 0.84013367
70.749611 92.114143 -0.80748522
64 64 0
71.03949 93.321594 0.84216529
70.715637 92.122276 -0.80748522
70.988762 93.266029 0
70.998024 93.30481 0.84143978
70.693825 92.10611 -0.80690467
70.950577 93.184174 0
71.006805 93.420242 0.84463257
70.645493 92.053513 -0.80516356
70.91291 93.182411 0
70.964066 93.398361 0.84376198
70.59848 92.005875 -0.80356687
70.871674 93.165413 0
70.91066 93.330872 0.84158474
70.558708 91.988533 -0.80284131
70.826927 93.133156 0
70.850319 93.232948 0.83853698
70.529602 92.016678 -0.80342185
70.775185 93.070419 0
70.820885 93.26651 0.83926255
70.502777 92.054916 -0.80429244
70.76944 93.205345 0
70.804291 93.355728 0.84158474
70.473549 92.083008 -0.80487299
88.747749 171.35866 0
70.810844 93.546234 0.8468098
70.452385 92.146538 -0.80646968
64 64 0
70.775139 93.554443 0.8468098
70.428764 92.199913 -0.8077758
64 64 0
64 64 0
70.387787 92.177238 -0.80690467
64 64 0
64 64 0
70.36174 92.220428 -0.80792075
64 64 0
64 64 0
70.328773 92.233162 -0.80806577
64 64 0
64 64 0
70.302567 92.276299 -0.80908185
87.309769 168.57864 0
64 64 0
70.266144 92.273735 -0.80879134
87.120323 168.32217 0
64 64 0
70.235336 92.296516 -0.80922687
87.028976 168.50761 0
64 64 0
70.214485 92.364952 -0.81096858
86.914932 168.59128 0
64 64 0
70.181313 92.37751 -0.81111354
86.767494 168.52228 0
64 64 0
70.144821 92.374809 -0.81082356
86.668724 168.67688 0
64 64 0
70.113808 92.397446 -0.81125855
64 64 0
64 64 0
70.083839 92.425133 -0.8118391
64 64 0
64 64 0
70.051659 92.442642 -0.81212968
64 64 0
64 64 0
70.022659 92.475349 -0.81285524
64 64 0
88.992355 182.16473 3.3731217
70.015106 92.524742 -0.81416136
64 64 0
64 64 0
69.984901 92.552338 -0.81474191
64 64 0
64 64 0
69.956757 92.590088 -0.81561303
64 64 0
88.741295 182.74841 3.3876345
69.924316 92.60743 -0.81590301
64 64 0
88.604111 182.80878 3.3885057
69.898125 92.655289 -0.81706411
84.659622 164.37216 0
88.441681 182.7468 3.3858933
69.87912 92.738754 -0.81924081
84.536247 164.38687 0
88.314842 182.8577 3.3882151
69.851639 92.781487 -0.82025695
84.426338 164.4677 0
64 64 0
69.833321 92.870041 -0.82257915
84.303894 164.48721 0
64 64 0
69.811737 92.943298 -0.82446581
84.176315 164.48106 0
87.129852 179.19009 3.2812531
69.764008 93.069397 -0.82765859
83.955704 164.64185 0
86.876678 179.37308 3.2848814
69.740936 93.137527 -0.8294003
83.837105 164.68121 0
86.753334 179.48222 3.2872036
69.715706 93.195435 -0.83085144
83.744438 164.85323 0
86.631744 179.60143 3.2898159
83.636475 164.94853 0
86.484116 179.58788 3.2886548
83.535217 165.0795 0
86.381897 179.80884 3.2941697
83.41111 165.0928 0
86.234116 179.79498 3.2930086
83.295769 165.15198 0
86.109764 179.90343 3.2953308
83.16481 165.1292 0
85.981308 179.99133 3.2970724
69.4366 92.878632 -0.82069248
83.076309 165.3313 0
85.834412 179.98206 3.2960565
69.418892 92.977119 -0.82330471
82.94429 165.30312 0
85.719086 180.14116 3.2998297
82.830421 165.37198 0
64 64 0
82.698479 165.34348 0
64 64 0
77.011673 135.00238 0
64 64 0
76.943573 135.11534 0
64 64 0
76.885742 135.0412 0
64 64 0
76.798973 135.05161 0
64 64 0
76.712196 135.06189 0
64 64 0
76.621773 135.05159 0
64 64 0
76.535004 135.06168 0
64 64 0
76.453621 135.10239 0
64 64 0
76.365913 135.10712 0
64 64 0
76.295044 135.2092 0
64 64 0
76.212509 135.24452 0
64 64 0
64 64 -0
76.149994 135.39777 0
64 64 0
78.593483 150.38763 0
64 64 0
78.475311 150.32306 0
64 64 0
78.362457 150.28915 0
64 64 0
78.254784 150.28592 0
64 64 0
64 64 -0
64 64 0
75.972343 137.01854 2.0664983
75.617844 135.39665 0
75.852394 136.83804 2.0609834
75.536545 135.44147 0
75.766861 136.86771 2.0614188
75.446098 135.42966 0
75.659897 136.76387 2.0580812
75.348335 135.37146 0
75.566254 136.74197 2.057065
75.259659 135.36971 0
75.486443 136.80722 2.058516
75.180656 135.42953 0
75.380783 136.7081 2.0553234
75.08316 135.371 0
75.30648 136.80908 2.0577905
65.888466 76.258629 0
75.228783 136.88947 2.0596771
65.881065 76.259773 0
75.199715 136.99384 2.0624349
65.8592 76.215729 0
75.134964 137.16144 2.0667889
65.84832 76.24369 0
75.060516 137.26733 2.069401
64 64 -0
65.833527 76.245918 0
74.977371 137.31662 2.0704172
65.818726 76.248123 0
74.890297 137.3401 2.0707073
64 64 -0
65.803925 76.250313 0
74.788803 137.26581 2.0682399
65.786118 76.23188 0
74.69426 137.23766 2.0670788
65.77581 76.264946 0
74.608734 137.27109 2.0676594
65.757294 76.24131 0
74.52684 137.33015 2.0689657
65.460068 74.258987 -0.86377692
64 64 -0
65.744698 76.258888 0
74.433105 137.30682 2.06795
65.452698 74.296333 -0.86677313
65.727699 76.245522 0
74.33799 137.27307 2.066644
64 64 -0
65.650887 75.804146 -0.66425455
65.712906 76.247597 0
74.269592 137.4296 2.0707073
64 64 -0
65.632355 75.775375 -0.66252422
65.687386 76.17234 0
64 64 0
64 64 -0
65.621651 75.802963 -0.6639654
65.636543 75.9114 0
64 64 0
64 64 -0
65.608086 75.810051 -0.66425455
64 64 -0
64 64 0
64 64 0
65.380852 74.233696 -0.86078238
65.591049 75.791481 -0.66310138
64 64 0
75.236267 147.27359 2.3467484
65.367805 74.230278 -0.86035484
65.577484 75.798515 -0.66338938
64 64 0
75.097069 146.99867 2.3386211
65.356789 74.242088 -0.86120993
65.567299 75.831177 -0.66511858
64 64 0
74.966064 146.78018 2.3320899
65.348419 74.274254 -0.86377692
65.545601 75.776657 -0.6619482
64 64 -0
64 64 0
64 64 0
65.332039 74.245338 -0.86120993
65.527367 75.747726 -0.66021788
65.432983 75.02179 -0.31040829
64 64 0
74.717743 146.43542 2.3216405
65.320969 74.257118 -0.86206508
65.512512 75.744438 -0.65992987
65.407059 74.925598 -0.30765107
64 64 0
74.610168 146.38644 2.3198988
65.307274 74.248528 -0.86120993
65.497665 75.741127 -0.65964186
65.398453 74.963364 -0.30866662
65.453499 75.394875 0
74.45932 145.99715 2.3085787
65.294891 74.250099 -0.86120993
65.478935 75.707001 -0.65762353
65.386513 74.975365 -0.30895719
65.437775 75.381142 0
74.312042 145.6282 2.2978387
65.281868 74.246567 -0.86078238
65.465431 75.713905 -0.65791154
64 64 -0
65.421432 75.362213 0
73.149017 137.13248 2.0583711
65.272636 74.273582 -0.86292183
65.453819 75.736206 -0.65906471
64 64 -0
65.406425 75.353584 0
73.064476 137.17441 2.0592415
65.268318 74.289642 -0.86420614
65.355606 74.99781 -0.61755282
64 64 -0
65.397018 75.333763 0
73.018997 137.16957 2.0589516
65.261917 74.44558 -0.87704432
64 64 -0
65.318092 74.910522 -0.30692551
65.366501 75.311279 0
64 64 0
65.267586 74.600021 -0.8898825
64 64 -0
65.301819 74.886292 -0.3061994
65.349129 75.281921 0
64 64 0
65.270462 74.734093 -0.90100884
64 64 -0
65.287445 74.877541 -0.3059094
65.332436 75.257706 0
64 64 0
65.273018 74.868195 -0.91213518
64 64 -0
65.270065 74.842957 -0.30489329
65.318832 75.259308 0
64 64 0
65.272896 74.981918 -0.92154962
64 64 -0
65.253967 74.818672 -0.30416772
65.298637 75.20401 0
64 64 0
65.268982 75.065056 -0.92839712
64 64 -0
65.241493 74.82534 -0.30431274
65.28569 75.210739 0
72.349472 136.80441 2.0466156
65.26487 75.148201 -0.93524456
65.149521 74.131516 -0.56825787
65.21669 74.723572 -0.3014105
65.266273 75.160576 0
72.255646 136.76282 2.0451643
65.257698 75.205849 -0.93995261
65.134392 74.107193 -0.56681669
65.203156 74.719856 -0.30126494
65.247566 75.115547 0
72.159019 136.69525 2.0429871
65.247559 75.237968 -0.94251961
65.125031 74.134262 -0.56825787
65.191345 74.731644 -0.30155548
65.232979 75.106689 0
72.06028 136.60693 2.0402293
65.209328 75.014938 -0.92369068
65.111656 74.12532 -0.56768072
65.180084 74.748581 -0.30199105
65.215019 75.06678 0
71.969711 136.59079 2.0395038
65.145592 74.551926 -0.88474691
65.098862 74.121521 -0.56739271
65.169899 74.775826 -0.30271661
65.205574 75.104469 0
71.879189 136.57452 2.0387783
65.099411 74.241936 -0.85864294
65.086632 74.122841 -0.56739271
65.152435 74.735893 -0.30155548
65.192162 75.105919 0
65.232285 75.479691 0.32244778
65.074577 74.125824 -0.84879929
65.074402 74.124146 -0.56739271
65.136726 74.711441 -0.30082995
65.178741 75.107346 0
65.217865 75.476013 0.32230276
65.05645 74.070961 -0.84409291
65.064865 74.151154 -0.56883389
65.119446 74.671463 -0.29966882
65.16803 75.134644 0
65.200737 75.446457 0.32143167
65.044281 74.072235 -0.84409291
65.048866 74.116432 -0.56681669
65.108688 74.693481 -0.30024937
65.153503 75.125702 0
65.179405 75.375534 0.31939998
65.030014 74.053055 -0.842381
65.03611 74.112526 -0.56652755
65.09259 74.663788 -0.29937825
65.143242 75.158142 0
65.165131 75.371788 0.31925496
65.01683 74.044067 -0.84152424
65.024414 74.118935 -0.56681669
65.080231 74.67028 -0.29952383
65.128708 75.14917 0
65.162384 75.481766 0.32230276
65.007248 74.070831 -0.84366369
65.013725 74.13559 -0.56768072
65.064232 74.640541 -0.29865271
65.11731 75.171242 0
65.140747 75.405586 0.32012555
64.992561 74.046494 -0.84152424
65.003006 74.15226 -0.56854588
65.048309 74.610802 -0.29778215
65.102783 75.162216 0
65.127991 75.417313 0.32041609
64.981415 74.057915 -0.842381
64.990234 74.148315 -0.56825787
65.03347 74.59137 -0.29720157
65.090309 75.173912 0
65.107635 75.351433 0.31852943
64.967293 74.038651 -0.84066916
64.97599 74.128914 -0.5671047
65.015686 74.540871 -0.2957499
65.076805 75.175217 0
65.097404 75.388954 0.31954497
64.964165 74.069893 -0.84323615
64.969872 74.129501 -0.5671047
64 64 -0
65.069557 75.17067 0
65.088043 75.363754 0.31881943
64.953445 74.086388 -0.84452045
64.958603 74.140953 -0.56768072
64.987289 74.444412 -0.29299268
65.055084 75.161606 0
65.074318 75.365067 0.31881943
64.943642 74.113091 -0.8466599
64.947311 74.15242 -0.56825787
64 64 -0
65.043526 75.183601 0
65.062515 75.387047 0.31939998
64.935654 74.160225 -0.85051119
64.93409 74.143242 -0.56768072
64 64 -0
65.028107 75.164124 0
65.048279 75.383156 0.31925496
64.934067 74.278954 -0.86035484
64.921837 74.144363 -0.56768072
64 64 -0
65.015083 75.170532 0
65.032639 75.363708 0.31867442
64.931274 74.387436 -0.86934006
64.909576 74.14547 -0.56768072
64.924728 74.314491 -0.28921932
64.999268 75.145836 0
65.016121 75.333885 0.31780329
64.924599 74.455055 -0.87490487
64.898232 74.156876 -0.56825787
64.918678 74.388062 -0.291251
64.985794 75.147034 0
65.002426 75.335106 0.31780329
64.912415 74.461273 -0.87533247
64.887306 74.173401 -0.5691219
64.90522 74.378822 -0.290961
64.972328 75.148216 0
64.985573 75.300079 0.31678775
64.898888 74.452133 -0.87447572
64.874565 74.169312 -0.56883389
64.906479 74.540405 -0.29545993
64.957069 75.128639 0
64.977707 75.368568 0.31867442
64.886261 74.453209 -0.87447572
64.861847 74.165215 -0.56854588
64.904724 74.670944 -0.29908827
64.938789 75.072739 0
64.964844 75.380089 0.31896442
64.874062 74.459404 -0.87490487
64.847839 74.14563 -0.56739271
64.899185 74.760063 -0.30155548
64.919769 75.006439 0
64.950661 75.376076 0.31881943
64.862686 74.475784 -0.87618756
64 64 -0
64.895142 74.869904 -0.30460328
64.90818 75.02829 0
64.939476 75.408302 0.31969053
64.852516 74.507538 -0.87875617
64.822479 74.137344 -0.56681669
64.879906 74.845085 -0.30387771
64.901588 75.112389 0
64.926949 75.42495 0.32012555
64.849228 74.626251 -0.8885982
64.813118 74.174416 -0.56883389
64.870934 74.897934 -0.30532885
64.886086 75.087532 0
64.912315 75.41571 0.31983554
64.841217 74.68869 -0.8937338
64.800819 74.175385 -0.56883389
64.858177 74.904152 -0.30547383
64.875549 75.124901 0
64.896889 75.39608 0.31925496
64.836632 74.797188 -0.90272069
64.794121 74.248566 -0.57287055
64.846207 74.920731 -0.3059094
64.867332 75.193428 0
64.884727 75.417885 0.31983554
64.834122 74.936401 -0.91427457
64.790001 74.357826 -0.57892442
64.832611 74.916565 -0.30576441
64.854599 75.204834 0
64.869347 75.398216 0.31925496
64.834747 75.121712 -0.92968142
64.791801 74.549614 -0.58958983
64.820587 74.933098 -0.3061994
64 64 0
64.850128 75.326714 0.31722331
64.830757 75.25071 -0.94038022
64.78363 74.612473 -0.59304935
64.810059 74.970367 -0.30721551
64.8302 75.24321 0
64.842567 75.410637 0.31954497
64.823112 75.333633 -0.94722766
64.775673 74.680473 -0.59679687
64.797173 74.976517 -0.3073605
64.81662 75.244202 0
69.572762 140.73274 2.148643
64.810875 75.355087 -0.94893789
64.764984 74.712372 -0.59852719
64.787613 75.02932 -0.30881217
64.803398 75.250374 0
69.467827 140.56836 2.1438537
64.793922 75.309967 -0.9450866
64.752396 74.718445 -0.5988152
64.777199 75.071732 -0.3099733
64.790535 75.261703 0
69.368385 140.47644 2.1410964
64.775307 75.23922 -0.93909585
64.745857 74.812233 -0.60400391
64.768829 75.145241 -0.31200498
64.778 75.278236 0
69.270256 140.3999 2.1387742
64.763618 75.167992 -0.93310517
64.740379 74.828163 -0.60486907
64.764572 75.181999 -0.31302109
64.771896 75.289101 0
69.217361 140.30458 2.1360168
64.748055 75.138161 -0.93053651
64.720711 74.73098 -0.59939122
64.752808 75.208839 -0.31374666
64.757561 75.279633 0
69.116455 140.18121 2.1323886
64.733925 75.128815 -0.92968142
64.738914 75.204536 -0.31360108
64.74427 75.285721 0
69.01722 140.07843 2.1293409
64.726051 75.215805 -0.31389165
64.730972 75.291824 0
68.911858 139.877 2.1235352
64.741486 75.673065 -0.65185767
64.715134 75.258163 -0.31505278
64.717659 75.29789 0
68.816223 139.82065 2.1217935
64.733498 75.772049 -0.65733552
64.700882 75.248642 -0.3147622
64.70562 75.324722 0
68.70974 139.58784 2.115118
64.720535 75.793579 -0.65848869
64.689194 75.280609 -0.31563333
64.692574 75.335945 0
68.612381 139.49492 2.1123602
64.704735 75.768631 -0.65704751
64.675873 75.286621 -0.31577832
64.678871 75.336769 0
68.512146 139.35001 2.1081512
64.689911 75.759132 -0.65647036
64.663147 75.302994 -0.31621388
64.667923 75.384361 0
68.415314 139.25684 2.1053941
64.675697 75.759956 -0.65647036
64.650085 75.314156 -0.31650388
64.652672 75.359161 0
68.314545 139.09091 2.1006045
64.661201 75.755608 -0.65618235
64.638161 75.346077 -0.317375
64.641281 75.40152 0
68.21476 138.93524 2.0961056
64.648132 75.777054 -0.65733552
64.620743 75.279381 -0.31548831
64.629791 75.443863 0
68.117928 138.82611 2.0929124
64.632507 75.752014 -0.65589434
64 64 -0
64.615685 75.439423 0
68.026398 138.81027 2.0923319
64.618309 75.752762 -0.65589434
64 64 -0
64.602684 75.455757 0
67.923988 138.58675 2.0859461
64.603844 75.748322 -0.6556052
64 64 -0
64.58831 75.446068 0
67.826126 138.44093 2.0817373
64.593536 75.826546 -0.65992987
64 64 -0
64.575783 75.472763 0
67.72966 138.31573 2.078109
64.580254 75.847923 -0.66108304
64.562683 75.489052 0
67.635033 138.22159 2.0753517
64.563965 75.807281 -0.6587767
64.548798 75.489723 0
67.537666 138.065 2.0708523
64.552345 75.864799 -0.6619482
64 64 -0
64.536613 75.526779 0
67.443581 137.97061 2.068095
64.525726 75.912605 -0.66454256
64.502632 75.389282 -0.31839055
64.509903 75.554031 0
67.252899 137.70876 2.0605483
64.485527 75.312019 -0.31621388
64.496384 75.565033 0
67.157593 137.56726 2.0564845
64.474457 75.374901 -0.31795555
64.481758 75.550034 0
67.065018 137.48274 2.0540173
64.46566 75.328438 -0.31664887
64.475639 75.571129 0
67.014221 137.32883 2.0496633
64.453011 75.354973 -0.317375
64.461861 75.576889 0
66.919395 137.17664 2.0453093
64.435066 75.246468 -0.31432721
64.449486 75.619049 0
66.826157 137.05548 2.041826
64.422646 75.27813 -0.31519777
64.434662 75.598778 0
66.73204 136.90305 2.037472
64.412598 75.377319 -0.31795555
66.51609 133.38065 0
66.642822 136.87515 2.0366015
66.422043 133.09236 0
66.550392 136.75363 2.0331182
66.330811 132.86636 0
66.460899 136.70993 2.0318122
66.235886 132.51019 0
66.230492 132.3448 1.9097561
66.149178 132.388 0
66.144478 132.23837 1.9067082
66.060097 132.17725 0
66.059196 132.14743 1.904096
65.974701 132.07562 0
65.972633 132.00441 1.9000322
65.888535 131.9375 0
65.885696 131.83533 1.8952427
65.806313 131.93454 0
65.801109 131.73886 1.8924855
65.723564 131.91063 0
65.717148 131.65787 1.8901632
65.643265 131.98553 0
65.442894 123.69577 1.6676757
65.561592 132.00827 0
65.371239 123.71825 1.6682563
65.4758 131.8436 0
65.29863 123.69908 1.6676757
65.391998 131.75687 0
65.225853 123.66944 1.6668051
65.306206 131.55554 0
65.152946 123.62931 1.665644
65.221748 131.40097 0
65.080612 123.61507 1.6652085
65.139427 131.35034 0
65.00753 123.554 1.6634674
65.056572 131.258 0
64.93483 123.50839 1.6621606
64.861732 123.42693 0
64.862251 123.46271 1.6608546
64.825752 123.42224 0
64.82589 123.43205 1.659984
64.753822 123.4128 0
64.754013 123.42782 1.659839
64.681976 123.40845 0
64.681908 123.40269 1.6591129
64.609871 123.37801 0
64.609703 123.36192 1.6579523
64.580193 128.02113 0
64.537506 123.31063 1.6565007
64.502388 127.96452 0
64.465393 123.25409 1.6549046
64.413094 126.15909 0
64.393791 123.25461 1.6549046
64.338188 126.19598 0
64.321938 123.20825 1.6535978
64.262772 126.13388 0
64.250221 123.16705 1.6524373
64.187424 126.04568 0
64.178696 123.1569 1.6521467
64.112312 125.96777 0
64.107132 123.11031 1.6508406
64.037415 125.92625 0
64.035698 123.0896 1.6502601
63.962616 125.87939 0
63.964333 123.03764 1.648809
63.887867 125.8689 0
63.893024 123.02196 1.6483734
63.813171 125.8479 0
63.821865 122.96983 1.6469223
63.738552 125.82161 0
63.750744 122.93839 1.6460512
63.651627 128.06966 0
63.679668 122.91206 1.6453257
63.574108 128.08481 0
63.608799 122.86487 1.6440195
63.496674 128.08424 0
63.537754 122.85394 1.643729
63.419334 128.07317 0
63.467159 122.79619 1.6421329
63.342129 128.05161 0
63.396381 122.76953 1.6414073
63.264439 128.07678 0
63.325428 122.76355 1.6412617
63.186947 128.08105 0
63.254955 122.72112 1.6401006
63.107857 128.19972 0
63.18465 122.67341 1.6387945
63.029495 128.25064 0
63.114227 122.64121 1.637924
62.990353 128.27084 0
63.0788 122.64067 1.637924
62.911373 128.34766 0
63.009262 122.56157 1.6357467
62.832302 128.41913 0
62.938786 122.54475 1.6353117
62.75346 128.46973 0
62.868248 122.53302 1.6350211
62.674599 128.51501 0
62.798485 122.48486 1.633715
62.593025 128.67986 0
62.728722 122.4418 1.6325539
62.513081 128.75616 0
62.658463 122.42462 1.6321183
62.42905 128.99368 0
62.588623 122.3918 1.6312478
62.347748 129.101 0
62.518993 122.35368 1.6302316
62.268673 129.11455 0
62.449589 122.31029 1.6290705
62.296585 125.27801 0
62.379135 122.30837 1.6290705
62.222996 125.26029 0
62.31049 122.24406 1.6273295
62.080845 125.06855 0
62.171535 122.18266 1.6257328
62.010281 124.96735 0
62.101574 122.17003 1.6254427
61.940842 124.84007 0
62.033047 122.11575 1.6239911
61.869698 124.76991 0
61.9641 122.07698 1.6229756
61.797592 124.73088 0
61.895245 122.03812 1.6219594
61.724018 124.73337 0
61.825119 122.03554 1.6219594
61.650436 124.73577 0
61.756805 121.98613 1.6206533
61.577465 124.7225 0
61.687363 121.9678 1.6202178
61.507729 124.63112 0
61.61903 121.92342 1.6190566
61.437988 124.54486 0
61.549919 121.89973 1.618476
61.37117 124.39613 0
61.481544 121.8604 1.6174605
61.337898 124.32173 0
61.44865 121.81213 1.6161538
61.269962 124.20927 0
61.380211 121.77786 1.6152833
61.201328 124.11755 0
61.310883 121.76428 1.6149933
61.133408 124.01536 0
61.241085 121.76099 1.6149933
61.065987 123.90788 0
61.173836 121.7057 1.6135416
60.997776 123.82111 0
61.106197 121.66072 1.6123805
60.929501 123.73949 0
61.037327 121.64162 1.6119455
63.163742 79.895523 -0.88709211
60.863609 123.61618 0
60.969864 121.59648 1.6107844
63.145924 79.868683 -0.88565093
60.797173 123.50841 0
60.900833 121.5824 1.6104938
63.130161 79.805656 -0.88219142
60.730133 123.41615 0
60.834114 121.52673 1.6090426
63.112228 79.783936 -0.88103825
60.663311 123.32382 0
60.764896 121.51767 1.6088977
63.095528 79.741554 -0.87873298
60.597603 123.21581 0
60.697189 121.48259 1.6080266
63.077419 79.724953 -0.87786788
60.53154 123.11814 0
60.630474 121.43187 1.6067204
64 64 -0
64 64 -0
60.464779 123.03596 0
60.561394 121.42257 1.6065755
63.042259 79.676208 -0.87527347
63.02243 80.00074 -0.44770327
60.395668 122.99528 0
60.493912 121.38724 1.6057043
63.023315 79.675041 -0.87527347
63.005684 79.958054 -0.44654214
60.329891 122.90257 0
60.425865 121.36221 1.6051238
63.005363 79.658356 -0.87440836
62.98772 79.936089 -0.44596159
60.26268 122.83575 0
60.359524 121.31118 1.6038177
62.986443 79.65715 -0.87440836
62.968128 79.940041 -0.44610661
60.19529 122.77408 0
60.291954 121.28082 1.6030921
62.97229 79.583656 -0.87037277
62.948185 79.949158 -0.44639716
60.125301 122.75385 0
60.224796 121.24519 1.6022216
62.953808 79.577225 -0.87008369
62.925434 79.999718 -0.44784826
60.054661 122.74394 0
60.157372 121.21466 1.601496
62.935692 79.565636 -0.86950767
64 64 -0
59.982262 122.7599 0
60.088596 121.20477 1.6013504
62.918678 79.538544 -0.86806649
62.887852 79.981537 -0.44741327
59.913071 122.72905 0
60.022724 121.15335 1.6000444
62.91074 79.51725 -0.86691332
62.881836 79.929016 -0.44596159
59.877594 122.72656 0
59.990746 121.11465 1.5990282
62.891991 79.515923 -0.86691332
62.863701 79.912094 -0.44552603
59.804783 122.7475 0
59.923214 121.08905 1.5984483
62.873619 79.509415 -0.86662525
62.846359 79.884796 -0.4448005
59.734177 122.7372 0
59.856495 121.05297 1.5975771
62.857929 79.466774 -0.86431897
62.825634 79.904121 -0.44538105
59.661293 122.75795 0
59.789474 121.02202 1.5968516
62.840401 79.449898 -0.86345381
64 64 -0
59.586014 122.80975 0
59.721355 121.00651 1.596561
62.822128 79.443336 -0.8631658
64 64 -0
59.511391 122.85109 0
59.654453 120.9754 1.5958354
62.803467 79.441902 -0.8631658
62.769997 79.873863 -0.44465548
59.437069 122.88712 0
59.588421 120.93385 1.5948199
62.787247 79.409492 -0.86143547
62.750816 79.87236 -0.44465548
59.361427 122.93864 0
59.522896 120.88702 1.5936588
62.768627 79.408012 -0.86143547
62.733295 79.850121 -0.44407493
59.285652 122.99008 0
59.454159 120.88158 1.5936588
62.750847 79.39621 -0.86085945
62.713726 79.853752 -0.44421992
59.210171 123.03621 0
59.388374 120.83978 1.5926427
62.733944 79.374069 -0.85970628
62.696701 79.826294 -0.44349438
59.136276 123.06149 0
59.320553 120.82381 1.5923526
62.714508 79.382828 -0.8602823
62.680176 79.793648 -0.44262382
59.058849 123.1282 0
59.256222 120.76633 1.590901
62.698544 79.350349 -0.85855311
62.664604 79.75061 -0.4414627
58.979492 123.21553 0
59.189392 120.73984 1.5903203
62.679996 79.348763 -0.85855311
62.653591 79.6558 -0.43885046
58.907055 123.21979 0
59.123062 120.7081 1.5895948
62.66235 79.336838 -0.85797596
62.640545 79.586838 -0.43696323
58.833694 123.23433 0
59.055901 120.68663 1.5891593
62.64473 79.324921 -0.85739994
62.624458 79.554138 -0.43609267
62.564419 80.233025 0
58.990154 120.64956 1.5882888
62.627136 79.312973 -0.85682386
62.605202 79.557632 -0.43623766
62.546204 80.215721 0
58.924492 120.61242 1.5874182
62.608166 79.316452 -0.85711193
62.586876 79.550766 -0.43609267
62.524254 80.239868 0
58.857971 120.58554 1.5868376
62.592033 79.289009 -0.85567069
62.569992 79.528351 -0.43551213
62.50893 80.191429 0
58.792465 120.54823 1.5859665
62.57452 79.276985 -0.8550936
62.550262 79.536964 -0.43580267
62.495167 80.127426 0
58.727036 120.51086 1.585096
62.556065 79.275253 -0.8550936
62.530514 79.54554 -0.43609267
62.478622 80.094513 0
58.661694 120.47339 1.5842248
62.538101 79.268349 -0.85480559
62.514206 79.517891 -0.43536711
62.453716 80.149658 0
58.594448 120.45656 1.5839348
62.520653 79.256264 -0.85422844
62.496964 79.500565 -0.43493155
62.436214 80.12706 0
58.528244 120.42931 1.5833542
62.503227 79.244179 -0.85365242
62.479759 79.483215 -0.43449599
62.423851 80.052628 0
58.463619 120.38644 1.5823382
62.496056 79.222679 -0.85249925
62.468872 79.497818 -0.43493155
62.407501 80.119003 0
58.431599 120.3624 1.5817575
62.478691 79.210571 -0.85192317
62.452732 79.4701 -0.43420601
62.384914 80.148155 0
58.365566 120.33495 1.581177
62.458752 79.224144 -0.85278726
62.434563 79.463058 -0.43406099
62.365406 80.146194 0
58.30064 120.29708 1.5803065
62.442993 79.196548 -0.85134608
62.416409 79.455986 -0.433916
62.347488 80.128662 0
58.236858 120.24879 1.5791453
62.424099 79.199791 -0.85163409
62.398273 79.448883 -0.43377045
62.330147 80.105949 0
58.168896 120.24179 1.5791453
64 64 -0
62.379608 79.44693 -0.43377045
62.312862 80.083214 0
58.105282 120.19336 1.5779842
62.366802 79.214554 -0.85278726
62.345055 79.417137 -0.43304488
62.089016 81.802368 0
57.973381 120.14279 1.5769687
62.350651 79.192001 -0.85163409
62.325306 79.425476 -0.43333545
62.051212 81.950104 0
57.910038 120.09413 1.5758076
62.33004 79.210564 -0.85278726
62.307804 79.413094 -0.43304488
62.017597 82.056381 0
57.843964 120.07123 1.575372
64 64 -0
62.315655 79.172562 -0.85077
62.292622 79.380058 -0.43217432
61.986591 82.136749 0
57.778511 120.04309 1.5747914
62.297901 79.165359 -0.85048091
62.276356 79.35733 -0.43159378
61.942039 82.336014 0
57.71254 120.02003 1.574356
62.278996 79.168442 -0.85077
62.257217 79.36039 -0.43173876
62.195076 79.908051 0
57.651886 119.95043 1.5726142
62.261257 79.161201 -0.85048091
62.241024 79.337624 -0.43115821
62.177044 79.895508 0
57.583099 119.95306 1.5729048
64 64 -0
62.242344 79.164246 -0.85077
62.220699 79.350975 -0.43159378
62.135666 80.084595 0
57.520283 119.90396 1.5717437
62.223419 79.167236 -0.85105807
62.202759 79.343643 -0.43144822
62.102306 80.201233 0
57.453945 119.88578 1.5714537
62.207527 79.144531 -0.84990489
62.18605 79.325989 -0.4310132
62.077835 80.24028 0
57.390091 119.84686 1.5705825
62.189842 79.137222 -0.84961683
62.168148 79.318634 -0.43086821
62.057598 80.243111 0
57.326317 119.80788 1.569712
62.172176 79.129875 -0.84932774
62.148396 79.326714 -0.43115821
62.039223 80.230408 0
57.260757 119.78429 1.5692765
62.153267 79.132805 -0.84961683
62.131767 79.30899 -0.43072265
62.027176 80.166031 0
57.193985 119.77095 1.5691315
62.136883 79.115158 -0.84875172
62.113907 79.301567 -0.43057767
62.008919 80.153313 0
57.127876 119.75237 1.5688409
62.116703 79.128296 -0.84961683
62.096058 79.294121 -0.43043265
61.986828 80.171555 0
57.050243 119.82653 1.5711631
62.099072 79.120865 -0.84932774
62.080173 79.271187 -0.4298521
61.96859 80.158768 0
56.978256 119.85419 1.5721792
64 64 -0
62.090584 79.114586 -0.84903973
62.070297 79.275177 -0.42999709
61.961433 80.136902 0
56.949722 119.80869 1.5710181
62.07494 79.091743 -0.84788656
62.053154 79.262527 -0.42970708
61.934036 80.196365 0
56.890842 119.73312 1.5691315
62.055382 79.099678 -0.84846371
62.032726 79.27562 -0.4301421
61.91713 80.17321 0
56.818195 119.76572 1.5702926
62.039143 79.081924 -0.84759855
62.015606 79.262932 -0.4298521
61.891544 80.217148 0
56.751488 119.75184 1.570147
62.021591 79.074417 -0.84731054
61.995815 79.270813 -0.4301421
61.876694 80.178459 0
56.673985 119.82034 1.5723243
62.00066 79.092529 -0.84846371
61.977364 79.268387 -0.4301421
61.861248 80.144913 0
56.594257 119.90416 1.5749365
61.983799 79.079834 -0.84788656
61.959606 79.26078 -0.42999709
61.845879 80.111374 0
56.511566 120.00848 1.5781293
61.966961 79.067146 -0.84731054
61.943947 79.237701 -0.42941654
61.83268 80.06234 0
56.436943 120.05091 1.5795809
61.952248 79.039055 -0.8458693
61.927643 79.219757 -0.42898098
61.818188 80.023605 0
54.591896 133.09473 1.9474901
61.932671 79.046814 -0.84644538
61.907131 79.232689 -0.42941654
61.803078 79.990021 0
54.500633 133.13995 1.9490868
61.912357 79.059677 -0.84731054
61.889439 79.225006 -0.42927155
61.795193 79.904869 0
54.408535 133.19019 1.9508284
64 64 -0
61.894882 79.05201 -0.8470214
61.871044 79.22245 -0.42927155
61.779583 79.876419 0
54.312702 133.26605 1.9532957
61.875969 79.054588 -0.84731054
61.849747 79.240448 -0.4298521
61.769852 79.806732 0
54.222481 133.3006 1.9546018
64 64 -0
61.85778 79.05201 -0.84731054
61.834263 79.217255 -0.42927155
61.758091 79.752487 0
54.124107 133.39163 1.9575046
61.840332 79.044281 -0.8470214
61.817356 79.20433 -0.42898098
61.760502 79.600372 0
54.032887 133.43109 1.9589558
61.824379 79.026314 -0.84615737
61.799728 79.196548 -0.42883599
61.347126 82.32254 0
53.934849 133.51672 1.9617136
61.80772 79.013428 -0.84558022
61.781368 79.193878 -0.42883599
61.717548 79.630959 0
53.836594 133.6022 1.9644707
61.791084 79.000542 -0.8450042
61.763767 79.18605 -0.42869097
61.689564 79.68998 0
53.744171 133.64642 1.9660674
61.77372 78.992752 -0.84471613
61.747711 79.167908 -0.42825541
61.669842 79.692322 0
53.649342 133.70593 1.9680991
61.751015 79.020737 -0.84644538
61.727077 79.180603 -0.42869097
61.655506 79.658615 0
53.551273 133.78589 1.9707114
64 64 -0
61.737495 78.987328 -0.84471613
61.710285 79.167572 -0.42840096
61.63348 79.676361 0
53.45377 133.86057 1.9731785
61.717056 78.999908 -0.84558022
61.697433 79.12883 -0.42738485
61.616108 79.663185 0
53.357635 133.92484 1.9753557
61.696579 79.012482 -0.84644538
61.676792 79.141449 -0.42782041
61.59008 79.706596 0
53.262909 133.9787 1.9772425
61.69381 78.970184 -0.84413904
61.668438 79.134895 -0.42767486
61.588512 79.653702 0
53.20797 134.05438 1.9795647
61.674931 78.972496 -0.84442705
61.650948 79.12693 -0.42752987
61.561615 79.702202 0
53.108185 134.13885 1.9823219
61.654442 78.985016 -0.84529221
61.635082 79.108673 -0.42709431
61.546669 79.673538 0
53.008171 134.22319 1.9850796
61.636337 78.98217 -0.84529221
61.611969 79.13662 -0.42796543
61.522053 79.706558 0
52.9128 134.27658 1.9869664
61.619045 78.974197 -0.8450042
61.596947 79.11319 -0.42738485
61.51125 79.652153 0
52.814838 134.34525 1.9892881
61.603409 78.955978 -0.84413904
61.577042 79.120529 -0.42767486
61.485752 79.690231 0
52.714226 134.42917 1.9920459
61.585342 78.953072 -0.84413904
61.562088 79.097069 -0.42709431
61.460155 79.728287 0
52.618362 134.48218 1.9939325
61.566444 78.955246 -0.84442705
61.540508 79.114632 -0.42767486
61.446167 79.694397 0
52.51902 134.55557 1.9963998
61.5467 78.962517 -0.8450042
64 64 -0
61.422997 79.716972 0
52.41864 134.63394 1.999012
61.532837 78.934021 -0.84356302
61.50145 79.124031 -0.42811042
61.411644 79.667633 0
52.318901 134.70706 2.0014791
61.516495 78.920815 -0.84298587
64 64 -0
61.387589 79.69529 0
52.218971 134.78004 2.0039465
61.497612 78.922905 -0.84327388
61.476936 79.046204 -0.42607874
61.370346 79.68187 0
52.117126 134.86314 2.0067043
61.479584 78.919868 -0.84327388
61.458759 79.043144 -0.42607874
61.348797 79.694084 0
52.018528 134.92558 2.0088809
61.465031 78.896416 -0.84212071
61.439713 79.045181 -0.42622375
61.33857 79.639542 0
51.917141 135.00328 2.0114937
61.444408 78.908638 -0.84298587
61.419781 79.052307 -0.42651376
61.30912 79.697876 0
51.82082 135.05009 2.0132353
61.422874 78.925934 -0.84413904
61.404247 79.033829 -0.42607874
61.293697 79.674103 0
51.731445 135.05579 2.0138154
61.407501 78.907516 -0.84327388
61.386082 79.030685 -0.42607874
61.283676 79.619545 0
51.656281 134.97949 2.0120742
61.391273 78.894188 -0.84269786
61.368816 79.0224 -0.42593375
61.268394 79.595749 0
51.583076 134.89285 2.010042
61.371483 78.901199 -0.84327388
61.347061 79.039665 -0.42651376
61.246841 79.607819 0
51.512772 134.7908 2.0075748
61.354385 78.892929 -0.84298587
61.334343 79.005753 -0.42564318
61.220703 79.645454 0
51.435425 134.72961 2.0062687
61.338211 78.879547 -0.84240985
61.3153 79.007637 -0.42578819
61.202717 79.636971 0
51.348137 134.72461 2.0065591
61.320236 78.87632 -0.84240985
61.295322 79.014618 -0.42607874
61.190281 79.597733 0
51.256245 134.74507 2.0075748
61.314011 78.859421 -0.84154469
61.288101 79.002747 -0.42578819
61.16605 79.677963 0
51.196865 134.82942 2.0101876
61.28957 78.891792 -0.84356302
61.269978 78.999458 -0.42578819
61.149902 79.65918 0
51.097336 134.89058 2.0123641
61.258286 78.859749 -0.84212071
61.230907 79.008148 -0.42622375
61.120567 79.606186 0
50.885513 135.07893 2.0186048
61.237499 78.871689 -0.84298587
61.215622 78.989464 -0.42578819
61.105515 79.58223 0
50.78825 135.12434 2.0203464
61.220482 78.863266 -0.84269786
61.194645 79.001419 -0.42622375
61.068512 79.675911 0
50.687035 135.19006 2.0226688
61.204441 78.849716 -0.84212071
61.180367 78.977585 -0.42564318
61.054386 79.64679 0
50.57795 135.29651 2.0261521
61.182648 78.866653 -0.84327388
61.163239 78.96907 -0.42549819
61.023853 79.704582 0
50.474396 135.37213 2.0287642
64 64 -0
61.166622 78.853088 -0.84269786
61.140285 78.99115 -0.42622375
61.020485 79.619171 0
50.375507 135.42209 2.0306511
61.148678 78.849655 -0.84269786
61.120216 78.997879 -0.42651376
61.003578 79.605331 0
50.275501 135.47702 2.0326827
