# .PCD v0.7 - Point Cloud Data file format
VERSION 0.7
FIELDS x y z
SIZE 4 4 4
TYPE F F F
COUNT 1 1 1
WIDTH 1939
HEIGHT 1
VIEWPOINT 0 0 0 1 0 0 0
POINTS 1939
DATA ascii
66.180908 119.50789 1.5514252
66.103134 119.22937 0
66.109291 119.39103 1.5480869
66.031799 119.10704 0
66.037766 119.26892 1.5446041
65.961685 119.01064 0
65.967461 119.17265 1.5418463
65.894852 119.00255 0
65.897934 119.09191 1.5395247
65.827873 118.98921 0
65.828949 119.02144 1.5374924
65.761597 118.99657 0
65.762466 119.02361 1.5374924
65.695465 119.00906 0
65.695015 118.99454 1.5366219
65.631302 119.08911 0
65.629639 119.0329 1.5376375
65.565331 119.11185 0
65.564178 119.0712 1.5386535
65.500153 119.16573 0
65.498199 119.09383 1.539234
65.434845 119.21954 0
65.432571 119.13197 1.5402502
65.367348 119.19 0
65.367371 119.19079 1.5418463
65.302628 119.27487 0
65.301659 119.23396 1.5430075
65.170692 119.35593 0
65.169716 119.3097 1.5450397
65.104637 119.39891 0
65.103508 119.34224 1.5459102
65.038963 119.46785 0
65.037514 119.39029 1.5472163
65.006393 119.52052 0
65.004799 119.43248 1.5483775
64.940979 119.62056 0
64.938347 119.46481 1.549248
64.875328 119.72055 0
64.87149 119.47631 1.5495386
64.810112 119.86726 0
64.804306 119.46692 1.549248
64.744408 120.00353 0
64.737076 119.45228 1.548813
64.632591 116.35094 0
64.669319 119.39077 1.5470713
64.568596 116.28401 0
64.60183 119.33956 1.5456197
64.504868 116.2274 0
64.534409 119.2831 1.5440235
64.441147 116.15511 0
64.467033 119.21616 1.5421369
64.377335 116.04631 0
64.399979 119.16991 1.5408307
64.313972 115.96865 0
64.332939 119.10799 1.5390891
64.250679 115.8649 0
64.266151 119.06678 1.537928
64.187798 115.80792 0
64.199409 119.00989 1.5363313
64.125122 115.77687 0
64.132904 118.99452 1.5358963
64.062515 115.73534 0
64.066391 118.94266 1.5344447
64 115.7562 0
64 118.90112 1.5332835
63.937469 115.75096 0
63.933727 118.84912 1.5318325
63.874924 115.75605 0
63.867489 118.8334 1.5313969
63.812538 115.71422 0
63.801384 118.79163 1.5302358
63.750683 115.58386 0
63.735329 118.76018 1.5293652
63.719971 115.50042 0
63.702415 118.72884 1.5284946
63.65826 115.42197 0
63.636322 118.72323 1.528349
63.596661 115.35385 0
63.570526 118.68118 1.5271879
63.535412 115.26485 0
63.504406 118.68583 1.5273335
63.474537 115.16016 0
63.438599 118.65919 1.5266074
63.413555 115.08664 0
63.372612 118.65328 1.5264624
63.352886 115.00261 0
63.306839 118.6317 1.5258819
63.292416 114.91855 0
63.241333 118.59447 1.5248662
63.23254 114.80836 0
63.175365 118.59351 1.5248662
63.172253 114.73973 0
63.109486 118.58726 1.5247207
63.112221 114.66585 0
63.043167 118.60693 1.5253012
63.053146 114.55025 0
62.977867 118.56937 1.5242857
62.993416 114.48143 0
62.912033 118.56289 1.5241401
62.934292 114.39171 0
62.846214 118.55634 1.5239952
62.875614 114.29151 0
62.780296 118.55491 1.5239952
62.816441 114.22247 0
62.714378 118.55339 1.5239952
62.75679 114.17938 0
62.64846 118.5518 1.5239952
62.697781 114.11543 0
62.582684 118.54494 1.5238502
62.640198 114.00455 0
62.516495 118.55357 1.5241401
62.611 113.9673 0
62.483101 118.56825 1.5245757
62.550476 113.97078 0
62.416866 118.57678 1.5248662
62.492298 113.89616 0
62.350609 118.58521 1.5251563
62.432335 113.8839 0
62.284328 118.59357 1.5254468
62.373081 113.85075 0
62.217518 118.61742 1.5261724
62.313728 113.82275 0
62.151524 118.61523 1.5261724
62.254436 113.79468 0
62.084621 118.63892 1.5268979
62.194084 113.79773 0
62.018791 118.63138 1.5267529
64 64 0
61.951614 118.6601 1.5276235
62.073345 113.8036 0
61.885166 118.66797 1.527914
62.012547 113.81685 0
61.818493 118.68094 1.528349
61.952354 113.81441 0
61.750717 118.7198 1.5295101
61.891502 113.82751 0
61.684818 118.71186 1.5293652
61.829262 113.87172 0
61.616905 118.75056 1.5305263
61.767609 113.90025 0
61.549358 118.77878 1.5313969
61.704685 113.95471 0
61.481499 118.81212 1.532413
61.641876 114.00389 0
61.414291 118.8298 1.5329936
61.579948 114.0322 0
61.346287 118.86298 1.5340097
61.517433 114.07083 0
61.278969 118.88048 1.5345896
61.484837 114.1161 0
61.243206 118.93074 1.5360413
61.423481 114.12861 0
61.17577 118.94812 1.5366219
61.294518 114.26776 0
61.038242 119.02936 1.5390891
61.230633 114.32163 0
60.970322 119.05167 1.5398147
61.168079 114.34943 0
60.901764 119.0843 1.5408307
61.104855 114.38754 0
60.834015 119.10127 1.5414113
61.040314 114.44635 0
60.764393 119.14928 1.5428624
60.975941 114.49988 0
60.695896 119.17644 1.543733
60.912067 114.54295 0
60.631447 119.13611 1.5427175
60.846466 114.61191 0
60.404537 121.70453 1.6147027
60.783993 114.62885 0
60.333828 121.71571 1.6151383
60.719124 114.68204 0
60.262077 121.74235 1.6160089
60.655148 114.71959 0
60.188889 121.78966 1.6174605
60.59177 114.74667 0
60.113842 121.86277 1.6196371
60.525841 114.81003 0
60.039677 121.92025 1.6213789
60.45903 114.88367 0
59.966446 121.96208 1.622685
60.395344 114.91051 0
59.89201 122.01936 1.6244266
60.359398 114.981 0
59.852146 122.08426 1.6263133
60.295536 115.0077 0
59.778576 122.12585 1.6276194
60.229691 115.06029 0
59.703754 122.1829 1.6293612
60.16605 115.08164 0
59.628788 122.23985 1.6311028
60.103935 115.08215 0
59.55328 122.30189 1.6329894
60.032562 115.20196 0
59.478825 122.34827 1.6344405
59.963348 115.29052 0
59.401802 122.42566 1.6367629
59.900547 115.29599 0
59.326653 122.47705 1.6383594
59.832676 115.36362 0
59.251377 122.52833 1.6399556
59.768909 115.3793 0
59.174263 122.60024 1.6421329
59.702492 115.42603 0
59.101295 122.62025 1.6428584
59.636402 115.46747 0
59.0252 122.67644 1.6446
59.563515 115.5866 0
58.952969 122.6859 1.645035
59.501637 115.57602 0
60.087635 108.85724 1.2575331
59.438404 115.58093 0
60.035271 108.83177 1.2569524
60.025349 108.3334 0
59.988525 108.74413 1.2546302
59.974609 108.29748 0
59.938698 108.69268 1.2533242
59.224731 115.85429 0
59.891846 108.61013 1.2511474
59.155792 115.91585 0
59.840363 108.57925 1.2504213
59.091595 115.92551 0
59.792366 108.51212 1.2486802
59.054802 115.97952 0
58.361801 123.26373 1.6625962
58.988007 116.01495 0
58.284714 123.31378 1.6641929
58.918591 116.07619 0
58.206993 123.3689 1.6659346
58.853111 116.09591 0
58.130154 123.41356 1.6673857
58.783432 116.15698 0
58.053196 123.45813 1.6688368
58.714123 116.21278 0
57.97612 123.50261 1.6702884
58.649979 116.21672 0
57.897343 123.5625 1.6721752
59.081764 111.43704 0
57.821629 123.59125 1.6731907
59.029884 111.37929 0
59.046463 111.22124 1.3260355
58.979778 111.30597 0
58.992149 111.18938 1.3253094
58.925953 111.26883 0
58.941235 111.12646 1.3237133
58.872215 111.2316 0
58.887661 111.08931 1.3228421
58.814579 111.23056 0
58.834736 111.04695 1.3218266
58.755215 111.24495 0
58.783054 110.99419 1.3205205
58.078148 116.76254 0
58.728012 110.97235 1.3200849
58.013813 116.76051 0
58.671261 110.96595 1.3200849
57.942356 116.82046 0
58.611557 110.98529 1.3208104
57.876141 116.83379 0
58.5494 111.0252 1.3221166
57.834583 116.9128 0
56.967461 124.35459 1.6969925
57.763958 116.96217 0
56.891502 124.37185 1.697718
57.694435 117.00111 0
56.81242 124.41483 1.6991698
57.6217 117.0658 0
56.728264 124.49897 1.701782
57.551941 117.10455 0
56.6464 124.56236 1.7038137
57.485245 117.11738 0
56.566265 124.61017 1.7054102
57.422348 117.09915 0
56.484093 124.67334 1.7074419
56.381958 124.89467 0
56.402401 124.73125 1.7093287
64 64 -0
56.283592 125.08165 0
56.318604 124.80452 1.7116508
55.800827 128.27844 0
56.235935 124.86736 1.7136825
55.968956 125.77069 0
56.071445 124.98239 1.7174559
55.88958 125.79707 0
55.989651 125.0346 1.7191975
55.803299 125.87494 0
55.90226 125.12791 1.7221004
55.727161 125.87531 0
55.825645 125.13869 1.7226809
55.64196 125.94264 0
55.735798 125.24721 1.7260187
55.553078 126.03564 0
55.655487 125.28354 1.7273253
55.451916 126.21616 0
55.57296 125.33517 1.7290665
55.373886 126.22641 0
55.483868 125.43304 1.7321143
55.316196 126.36554 0
55.436005 125.5051 1.7342916
55.243019 126.33952 0
55.355186 125.54102 1.7355976
55.160397 126.38042 0
55.268436 125.618 1.7380649
55.07914 126.41092 0
55.177814 125.72057 1.7412577
55.00893 126.36404 0
55.097313 125.75102 1.7424188
54.938076 126.32222 0
55.012985 125.80707 1.7443055
54.866554 126.28548 0
54.922474 125.90414 1.7473532
54.794346 126.25381 0
54.839317 125.94968 1.7489499
54.729877 126.17058 0
54.751442 126.02594 1.7514172
56.93438 110.9966 0
54.667233 126.07639 1.7531588
56.889297 110.91084 0
54.579773 126.14726 1.7554805
64 64 -0
56.827904 110.93307 0
54.493694 126.20776 1.7575127
56.764065 110.97067 0
54.40667 126.27326 1.7596893
56.673775 111.1779 0
54.318672 126.3438 1.7620116
56.560429 111.52898 0
54.236919 126.37312 1.7631727
56.49165 111.59192 0
54.162369 126.35616 1.7630278
54.12772 126.08833 0
54.095192 126.29288 1.7615761
54.053528 126.07123 0
54.029797 126.21931 1.759835
54.02264 126.02409 0
54.002113 126.15171 1.7580932
56.412876 110.8045 0
53.938667 126.06775 1.7560611
56.348778 110.84152 0
53.868702 126.02479 1.7551905
56.297253 110.80144 0
53.786171 126.05865 1.7564965
56.239857 110.79723 0
53.700989 126.10779 1.7582383
56.180744 110.80322 0
53.611393 126.18243 1.7607055
56.119881 110.8194 0
53.524193 126.24157 1.7627372
56.067661 110.78419 0
53.433353 126.32111 1.76535
56.020779 110.71813 0
53.340565 126.41072 1.7682523
55.963455 110.71358 0
53.253708 126.46437 1.7701389
55.919456 110.63205 0
53.167591 126.51279 1.7718805
55.875641 110.55048 0
53.080448 126.56621 1.7737672
55.820301 110.53551 0
52.985065 126.66556 1.77696
55.758636 110.55633 0
52.894863 126.73409 1.7792822
55.709694 110.50534 0
52.804474 126.80247 1.7816045
55.661785 110.44919 0
52.715744 126.8605 1.7836361
55.609367 110.41859 0
52.621311 126.94911 1.786539
55.546761 110.44427 0
52.53223 127.00688 1.7885706
55.489712 110.43913 0
52.442993 127.06456 1.7906028
55.404243 110.74623 0
52.390797 127.13422 1.7927796
55.208488 111.48813 0
52.294655 127.22745 1.7958273
55.174004 111.35466 0
52.214455 127.2337 1.7964078
55.140781 111.21609 0
52.135185 127.23474 1.7968434
55.099194 111.12352 0
52.064575 127.1897 1.7959723
55.074345 110.944 0
51.988232 127.17523 1.7959723
55.056763 110.72869 0
51.892368 127.26276 1.7988751
55.02787 110.57476 0
51.759903 127.53896 1.8071479
54.975567 110.54344 0
51.666321 127.61085 1.8096151
54.918339 110.53761 0
51.571556 127.6877 1.8122274
54.872143 110.47554 0
51.501621 127.63693 1.8112112
54.833149 110.37767 0
51.498295 127.24963 1.8006167
54.456257 111.97964 0
51.493858 126.87261 1.7903123
54.448341 111.71802 0
51.43932 126.75044 1.7872645
54.415359 111.58398 0
51.381977 126.64353 1.7846522
54.419903 111.26631 0
51.334164 126.49074 1.7807339
54.419998 110.97421 0
51.303322 126.25642 1.7744927
54.386265 110.85043 0
51.234371 126.21049 1.7736223
54.309807 110.79216 0
54.313629 110.77372 1.3340178
54.228863 110.8976 0
54.253941 110.77723 1.3344527
54.157249 110.95709 0
54.197426 110.76542 1.3344527
54.103745 110.92989 0
54.138783 110.76372 1.3347433
54.050285 110.9026 0
54.075813 110.78226 1.3356138
53.95126 111.08907 0
54.022545 110.755 1.3351789
53.835381 111.35168 0
53.960606 110.76831 1.3359045
53.763889 111.4055 0
53.900818 110.77138 1.3363395
53.70993 111.37785 0
53.838791 110.78455 1.3370656
64 64 -0
53.657131 111.34505 0
53.784489 110.76207 1.3367749
64 64 -0
53.627857 111.20543 0
53.725761 110.75986 1.3370656
53.611259 111.0099 0
53.66254 110.77784 1.3379362
53.569145 110.93126 0
53.6049 110.77039 1.3380811
53.52039 110.88308 0
53.546127 110.76794 1.3383716
53.463749 110.87038 0
53.480507 110.79584 1.3395327
53.408272 110.85252 0
53.425117 110.77802 1.3393872
53.35051 110.84479 0
53.366299 110.77534 1.3396778
53.298557 110.81158 0
53.303997 110.78779 1.3404033
53.232677 110.83919 0
53.240486 110.80521 1.3412739
53.181 110.93411 0
53.21104 110.80378 1.3414195
53.099617 111.02748 0
53.152153 110.80083 1.3417095
53.046345 110.99906 0
53.092072 110.80287 1.342145
53.00975 110.89964 0
53.03434 110.79471 1.34229
53.002026 110.67863 0
52.974228 110.79661 1.3427255
52.963631 110.58934 0
52.914101 110.79843 1.3431611
48.129784 130.63605 0
52.852749 110.8052 1.3437412
48.039581 130.65732 0
52.793777 110.80182 1.3440317
47.955399 130.65317 0
52.732372 110.80845 1.3446122
47.880989 130.60843 0
52.670933 110.815 1.3451928
47.816513 130.52316 0
52.610687 110.81644 1.3456284
47.748512 130.453 0
52.551659 110.81273 1.3459184
47.680649 130.38278 0
52.493866 110.8039 1.3460634
47.617931 130.29227 0
52.44355 110.76474 1.3453377
47.551647 130.21686 0
44.742607 141.52534 2.230933
47.47921 130.16666 0
44.657753 141.46674 2.2299173
47.415749 130.08099 0
44.569221 141.42316 2.2293367
47.351189 130.00037 0
51.133453 115.00644 1.4691355
47.325356 129.93478 0
51.117931 114.93819 1.4673939
47.262367 129.849 0
51.071754 114.86215 1.4656521
47.193119 129.78839 0
51.025745 114.78607 1.4639105
47.127876 129.71259 0
50.97731 114.72003 1.4624593
51.010971 114.33635 0
50.926422 114.664 1.4612982
50.963226 114.27023 0
50.878258 114.59787 1.4598471
50.909058 114.22926 0
50.810577 114.60712 1.4605727
64 64 -0
50.860241 114.16809 0
50.75602 114.56601 1.4598471
50.807579 114.12199 0
50.686996 114.58012 1.4607177
50.751022 114.09091 0
50.624565 114.56902 1.4608626
50.690506 114.07486 0
50.564804 114.5478 1.4607177
50.627327 114.06879 0
50.498371 114.55161 1.4612982
50.566837 114.0526 0
50.430565 114.56035 1.4620239
50.505009 114.04137 0
50.366776 114.55396 1.4623144
50.43639 114.05516 0
50.293468 114.5826 1.4636204
50.362244 114.08894 0
50.225533 114.59106 1.4643461
58.361691 84.610191 -0.59675384
50.283875 114.13771 0
50.153446 114.61449 1.4655071
64 64 -0
50.192955 114.23151 0
43.218163 139.60654 2.1898606
64 64 -0
46.211468 128.56393 0
43.184914 139.54889 2.1885543
64 64 -0
46.143188 128.50726 0
43.09919 139.50365 2.1879737
64 64 -0
46.073624 128.45557 0
43.027466 139.40826 2.1859422
58.279076 84.474129 -0.59370607
46.012566 128.3737 0
42.971325 139.25772 2.1823137
58.281029 84.372131 -0.59094828
45.954491 128.28175 0
44.862202 132.17271 1.9775325
58.257828 84.360207 -0.59080327
45.883896 128.23486 0
42.827602 139.07166 2.1783955
58.245979 84.308258 -0.58949715
45.826157 128.14282 0
45.93705 127.75143 1.8505419
58.224289 84.291306 -0.58920717
45.760063 128.08076 0
45.850075 127.76454 1.8515581
64 64 -0
58.195358 84.207352 -0.58717489
45.638306 127.92145 0
45.698898 127.71052 1.8512681
64 64 -0
58.173824 84.190346 -0.58688492
45.601494 127.75919 0
45.607525 127.73828 1.8527192
58.15522 84.163322 -0.58630437
45.546204 127.66193 0
44.103981 132.6373 1.9958192
64 64 -0
58.135223 84.141273 -0.58586878
45.501305 127.52965 0
44.000725 132.68304 1.9978509
58.116726 84.11422 -0.58528823
45.469849 127.35239 0
43.89732 132.72867 1.9998831
58.096821 84.092133 -0.5848527
45.421188 127.23507 0
43.789387 132.78909 2.0023503
64 64 -0
58.074017 84.080002 -0.58470768
45.359528 127.16266 0
42.136829 138.08267 2.1572058
64 64 -0
58.055668 84.052902 -0.58412713
45.292091 127.11016 0
42.036991 138.09108 2.158222
64 64 -0
58.035889 84.030777 -0.58369213
45.233673 127.02765 0
41.953415 138.04456 2.1576414
64 64 -0
58.02676 84.017197 -0.58340156
45.213463 126.95644 0
41.922058 137.98642 2.1563354
58.010036 83.985077 -0.58267599
45.146366 126.90379 0
41.869972 137.83524 2.1527071
57.982899 83.98777 -0.58296603
45.070374 126.88097 0
41.819725 137.67908 2.1489336
57.964771 83.960587 -0.58238548
44.968803 126.94274 0
41.756279 137.56766 2.1464665
64 64 -0
57.94669 83.933411 -0.58180547
44.857979 127.03423 0
41.670425 137.53076 2.1461759
57.921093 83.931046 -0.58195043
44.749943 127.1156 0
41.613434 137.39935 2.1431282
64 64 -0
57.906151 83.89386 -0.58107936
44.643204 127.19183 0
41.526279 137.36728 2.1429832
64 64 -0
64 64 -0
57.883644 83.881523 -0.58093435
44.539318 127.25793 0
41.454456 137.28543 2.1413865
57.856556 83.884056 -0.58122492
44.429096 127.34377 0
41.373589 137.23331 2.1406608
57.835617 83.866684 -0.58093435
44.315552 127.43939 0
41.309761 137.12651 2.1383386
64 64 -0
57.820889 83.82946 -0.58006376
44.214134 127.49507 0
41.236877 137.04944 2.1368876
57.798492 83.817009 -0.57991821
44.106346 127.57044 0
41.165703 136.96732 2.1352909
57.774551 83.809502 -0.57991821
43.97805 127.71022 0
41.100918 136.86531 2.1331141
64 64 -0
57.755306 83.787109 -0.57948321
43.818062 127.94905 0
41.026966 136.793 2.131808
64 64 -0
57.734547 83.76963 -0.57919264
43.688919 128.08835 0
40.95787 136.70573 2.1300664
57.71381 83.752151 -0.57890266
43.572037 128.18774 0
40.887371 136.62335 2.1284697
57.691528 83.739594 -0.57875764
43.470726 128.23738 0
40.824944 136.5162 2.126148
64 64 -0
57.667683 83.731956 -0.57875764
43.340637 128.37607 0
40.753223 136.43864 2.1246963
57.652584 83.738014 -0.57904768
43.273071 128.45276 0
40.726959 136.37018 2.1231003
57.638317 83.700668 -0.57817709
43.156818 128.54654 0
40.657097 136.2876 2.1215036
57.612915 83.697906 -0.57832211
43.048344 128.61537 0
40.582596 136.21979 2.1203425
64 64 -0
57.595558 83.67041 -0.57774156
42.928391 128.71869 0
40.517868 136.12228 2.1183107
64 64 -0
57.570179 83.667587 -0.57788652
42.845352 128.70801 0
40.450119 136.03458 2.116569
57.546421 83.659805 -0.57788652
42.715233 128.84067 0
40.384167 135.94188 2.1146824
64 64 -0
57.525921 83.642136 -0.57759655
42.59454 128.94342 0
40.315155 135.85899 2.1130857
57.505459 83.62442 -0.57730597
42.509544 128.93727 0
40.243034 135.78592 2.1117797
57.489944 83.591904 -0.57658041
42.467201 128.8026 0
40.169426 135.71771 2.1106186
64 64 -0
57.46299 83.593872 -0.57687044
42.308205 129.01843 0
40.102524 135.6297 2.1088769
57.437664 83.590897 -0.577016
42.122208 129.31296 0
40.039093 135.5318 2.1068451
57.418968 83.568176 -0.57658041
42.054916 129.25195 0
39.969242 135.45355 2.1053941
57.400318 83.545433 -0.57614487
41.984413 129.20074 0
39.9062 135.35551 2.1033618
57.373367 83.547295 -0.57643545
45.040482 119.92693 0
45.045486 119.91217 1.648809
57.353104 83.529427 -0.57614487
44.976276 119.89412 0
44.971245 119.90891 1.6493895
57.327827 83.526314 -0.57629043
44.933994 119.79723 0
44.876823 119.96454 1.6517112
57.304237 83.518234 -0.57629043
41.671234 129.08865 0
44.826073 119.89224 1.6502601
57.282356 83.505203 -0.57614487
41.604462 129.02719 0
40.287796 132.85023 2.0336988
57.263882 83.482353 -0.57570988
40.360878 132.3696 0
40.194435 132.85098 2.0345693
57.233528 83.493835 -0.57629043
40.310715 132.24754 0
40.14193 132.73383 2.0319571
57.226875 83.475014 -0.5758549
40.281452 132.19882 0
40.103821 132.70958 2.031667
57.198208 83.481537 -0.57629043
40.247105 132.03252 0
40.013969 132.70026 2.0322471
57.183273 83.448776 -0.57556432
41.122101 129.27283 0
39.910347 132.73007 2.0339887
57.161503 83.435623 -0.57541931
40.357441 131.19427 0
40.891521 129.67636 1.9444423
57.141479 83.417557 -0.57512933
40.281464 131.15094 0
40.862366 129.50632 1.9402339
57.111076 83.428848 -0.57570988
40.215996 131.07809 0
40.790176 129.45871 1.9396534
57.085865 83.4254 -0.5758549
40.164627 130.96594 0
40.698906 129.46487 1.9406689
57.07114 83.392563 -0.57512933
40.088989 130.92239 0
40.586601 129.52966 1.9434267
57.045959 83.389069 -0.57527435
40.025719 130.84445 0
39.375862 132.65636 2.0370367
57.01902 83.390419 -0.57556432
39.916756 130.89378 0
37.801949 136.76788 2.1599636
57.000889 83.367325 -0.57512933
39.80941 130.93806 0
37.72464 136.70685 2.1590927
56.972179 83.373489 -0.57556432
39.696602 130.99686 0
37.61908 136.72391 2.1605442
56.959442 83.335693 -0.57469374
39.567581 131.09947 0
39.871094 130.26595 1.9695503
56.934303 83.332054 -0.57483876
39.443642 131.18723 0
39.787468 130.24652 1.9698408
56.910946 83.323502 -0.57483876
39.324837 131.26013 0
39.718185 130.18793 1.9689696
56.880421 83.334427 -0.57541931
39.238182 131.24492 0
39.614883 130.22192 1.9708563
56.842754 83.292809 -0.57469374
37.759666 134.73247 0
39.745926 129.37839 1.9474901
56.829292 83.29335 -0.57483876
37.657104 134.87759 0
39.789711 129.13965 1.940814
56.8078 83.2798 -0.57469374
37.536919 134.93835 0
39.75824 128.98376 1.9370406
56.782688 83.275963 -0.57483876
37.409252 135.01843 0
39.716179 128.85712 1.9341384
56.764889 83.252625 -0.57440323
37.279514 135.10318 0
39.626862 128.8569 1.935009
56.736126 83.258469 -0.57483876
37.16423 135.14877 0
39.557682 128.8031 1.9342834
56.709179 83.259399 -0.57512933
37.71032 133.44672 0
39.451805 128.84641 1.93646
56.685913 83.25058 -0.57512933
37.626427 133.41489 0
39.331017 128.92844 1.9397985
56.668213 83.227158 -0.57469374
37.562973 133.32947 0
39.239624 128.93256 1.940814
56.643131 83.223129 -0.57483876
36.532318 135.7717 0
39.164894 128.89288 1.940524
56.627361 83.194824 -0.57425821
36.430691 135.7773 0
39.108864 128.80463 1.9387823
56.596699 83.205299 -0.57483876
36.314026 135.82164 0
38.996933 128.86177 1.9413946
56.567871 83.210884 -0.57527435
36.142754 136.00658 0
38.89045 128.90422 1.9435718
56.539017 83.216431 -0.57570988
36.018093 136.06992 0
38.791351 128.92712 1.9451685
56.52335 83.188026 -0.57512933
35.902687 136.10878 0
38.64312 129.07576 1.9505379
56.50396 83.169296 -0.57483876
35.703743 136.36076 0
38.566395 129.04024 1.9503928
56.473209 83.179573 -0.57541931
35.540276 136.52032 0
38.510605 128.95142 1.9486512
56.453846 83.160797 -0.57512933
35.412617 136.58759 0
38.493076 128.76584 1.9440073
56.424973 83.166153 -0.57556432
35.286674 136.64978 0
38.445404 128.65765 1.9416851
56.403736 83.152161 -0.57541931
35.135586 136.7747 0
38.350052 128.6702 1.9429913
56.394081 83.142746 -0.57527435
35.055107 136.84915 0
38.316742 128.6402 1.9425557
56.363258 83.152847 -0.5758549
64 64 0
38.192463 128.72498 1.946039
56.340122 83.143608 -0.5758549
64 64 0
38.06794 128.80954 1.9495224
56.313126 83.143974 -0.57614487
64 64 0
37.999336 128.75403 1.9487963
56.29388 83.125038 -0.5758549
64 64 0
37.938591 128.6792 1.9474901
56.272724 83.110901 -0.57570988
64 64 0
37.860458 128.64764 1.9474901
56.245735 83.111176 -0.57599986
64 64 0
32.823601 140.8374 2.3158355
56.216766 83.116234 -0.57643545
36.63818 131.20279 0
32.695507 140.88629 2.3184476
56.191711 83.111618 -0.57658041
64 64 0
32.557426 140.95905 2.3217854
56.164684 83.111778 -0.57687044
64 64 0
32.405327 141.06525 2.3261395
56.13369 83.121521 -0.57745099
35.961105 132.15729 0
32.262802 141.14716 2.3297677
56.106621 83.12162 -0.57774156
35.819191 132.26768 0
32.09227 141.29611 2.3354282
56.081535 83.116867 -0.57788652
35.730755 132.248 0
31.897476 141.50235 2.3428299
56.052456 83.121689 -0.57832211
35.64032 132.23302 0
31.783909 141.51147 2.3442812
56.027359 83.116859 -0.57846713
31.723423 141.39302 0
31.670277 141.52045 2.3457322
56.02232 83.064072 -0.57716101
31.557606 141.52679 0
31.560581 141.51968 2.3468933
55.973137 83.116707 -0.57904768
31.377304 141.69391 0
31.454865 141.50919 2.3477645
55.954075 83.09742 -0.57875764
31.146038 141.98059 0
31.322903 141.56079 2.3505216
55.920891 83.111618 -0.57948321
31.021442 142.01273 0
31.10173 141.82281 2.3596649
55.885632 83.130539 -0.5803538
36.603592 128.59012 0
30.687103 142.53889 2.3825963
55.851719 83.178253 -0.58195043
30.729488 142.30733 0
30.519768 142.80093 2.3911591
55.816326 83.197067 -0.58282101
30.569588 142.42026 0
30.369556 142.8895 2.3950775
55.799271 83.172821 -0.58238548
30.456429 142.4229 0
30.145508 143.14981 2.4042208
55.722816 83.287079 -0.58615935
30.277542 142.5784 0
29.953575 143.33328 2.411042
55.703636 83.267502 -0.58586878
30.094109 142.74315 0
29.884457 143.23004 2.4091551
55.62059 83.395813 -0.5900777
29.947384 142.82156 0
29.766083 143.24123 2.4107513
55.551697 83.49057 -0.59327048
29.816978 142.86154 0
36.401634 127.67049 1.9380567
55.472191 83.609024 -0.59718943
29.694733 142.88223 0
36.310211 127.67046 1.9390728
55.406944 83.693954 -0.60009164
32.122177 137.05902 0
36.260315 127.57504 1.9371862
55.320633 83.82637 -0.60444552
32.090282 136.89169 0
36.139755 127.64145 1.9402339
55.215179 84.001434 -0.61010611
31.993858 136.87215 0
36.056614 127.62199 1.9406689
55.09882 84.200043 -0.61649168
31.876442 136.90012 0
35.983948 127.57869 1.940379
54.998772 84.360382 -0.62171674
29.210373 142.69258 0
35.909241 127.54004 1.9402339
54.887794 84.544243 -0.62766671
29.092098 142.70282 0
35.748215 127.69605 1.946039
54.721424 84.851318 -0.63739067
28.992798 142.6701 0
35.671272 127.66187 1.946039
54.59243 85.072617 -0.64450234
28.944443 142.52319 0
35.581661 127.65606 1.9469095
54.486256 85.241455 -0.65001738
28.881496 142.40953 0
35.443161 127.75922 1.9511185
54.437263 85.316307 -0.6524846
35.992119 126.43242 0
64 64 0
54.257957 85.645935 -0.66293412
28.797119 142.21759 0
64 64 0
54.054321 86.027237 -0.67497969
28.704777 142.17026 0
35.759651 126.54544 1.9165772
53.83902 86.43177 -0.68775141
28.638264 142.06592 0
35.752716 126.35979 1.9119327
53.74527 86.566147 -0.69225091
28.535351 142.04208 0
35.567741 126.56689 1.9193344
53.629635 86.747597 -0.69820088
28.464828 141.94708 0
35.494316 126.52777 1.9191895
28.322147 141.76163 0
26.690205 145.31853 2.4987016
28.271729 141.62393 0
26.572422 145.31587 2.5000079
28.182331 141.57123 0
26.445877 145.33191 2.5018945
28.117065 141.46651 0
26.349812 145.28177 2.5017495
53.348927 86.9216 -0.70589316
28.023487 141.4231 0
32.326317 132.16321 2.0991535
53.343201 86.861595 -0.70444149
27.905769 141.43146 0
32.241779 132.12961 2.0992985
53.322182 86.834595 -0.70400649
27.807831 141.39722 0
32.181499 132.0441 2.0978467
53.283562 86.8452 -0.70473206
27.698864 141.38641 0
32.125782 131.94916 2.0961056
53.286942 86.766411 -0.70270038
27.432533 141.70982 0
32.037071 131.92468 2.0965407
53.228386 86.819229 -0.70473206
27.320889 141.70325 0
64 64 0
53.25198 86.698166 -0.70139366
27.051056 142.03049 0
64 64 0
53.217869 86.699249 -0.70182925
26.947865 142.00458 0
64 64 0
53.204155 86.692734 -0.70182925
26.822487 142.14668 0
64 64 0
53.15884 86.717194 -0.70299035
26.573421 142.42581 0
32.485134 130.03806 2.0435677
26.429237 142.48383 0
64 64 0
26.219532 142.67764 0
64 64 0
26.08836 142.70695 0
64 64 0
25.914028 142.82513 0
64 64 0
25.689426 143.04601 0
64 64 0
25.484707 143.22435 0
64 64 0
25.286354 143.38826 0
64 64 0
25.192741 143.33676 0
64 64 0
25.030422 143.42531 0
64 64 0
24.778202 143.69571 0
64 64 0
64 64 0
27.005035 138.94226 2.3341217
64 64 0
26.889141 138.94873 2.3357182
20.938137 150.70372 0
26.805546 138.88986 2.3352828
20.63382 151.05226 0
26.70813 138.85883 2.3357182
20.517036 151.02307 0
26.599121 138.85091 2.3368795
20.444561 150.90533 0
31.244667 129.35609 2.0416811
20.250755 151.02936 0
31.224072 129.20038 2.0380528
20.088184 151.22141 0
31.257126 129.03668 2.0335538
19.056129 153.00342 0
31.129372 129.0945 2.0366015
18.903934 153.03729 0
31.031967 129.0918 2.0377622
18.697376 153.17763 0
30.922733 129.11217 2.0396492
18.502224 153.2944 0
30.931377 128.90082 2.0342793
18.266472 153.48962 0
64 64 0
18.068157 153.61031 0
30.923969 128.52939 2.025136
17.769539 153.92505 0
30.815136 128.54944 2.0270226
17.510643 154.16055 0
30.763367 128.4585 2.0254259
17.337177 154.22916 0
30.63776 128.5106 2.0283287
17.132332 154.35751 0
30.583759 128.42412 2.0268776
16.953526 154.43472 0
30.438793 128.51277 2.030941
16.651676 154.74695 0
30.310383 128.56892 2.0339887
16.544472 154.68507 0
64 64 0
64 64 -0
16.231766 155.01477 0
64 64 0
15.932724 155.31622 0
64 64 0
15.783543 155.33173 0
29.862835 128.6627 2.0421166
55.022797 80.954987 -0.53579861
15.468639 155.65979 0
29.787167 128.61679 2.041971
55.00769 80.958733 -0.53608859
15.427906 155.60284 0
29.830902 128.44002 2.0370367
54.977448 80.966209 -0.53666919
15.151081 155.85657 0
29.87262 128.17387 2.0299253
54.961845 80.946114 -0.53637862
14.863777 156.12814 0
29.856239 128.01796 2.0262971
64 64 -0
14.580647 156.38995 0
29.84264 127.85752 2.0225236
64 64 -0
14.392776 156.47235 0
29.819557 127.71544 2.0193305
64 64 -0
14.179974 156.60028 0
29.754902 127.65121 2.0186048
64 64 -0
14.00386 156.6591 0
29.54723 127.85219 2.0262971
54.963497 80.699265 -0.53028357
18.120235 148.78482 0
29.415691 127.91106 2.0294898
64 64 -0
18.037685 148.69272 0
64 64 0
54.928143 80.668236 -0.52999306
17.917961 148.66913 0
29.335873 127.69037 2.025136
54.905521 80.661819 -0.53013802
15.097656 153.59305 0
64 64 0
54.885395 80.650818 -0.53013802
15.036922 153.44714 0
27.824646 130.08617 2.1040878
54.870277 80.630692 -0.52984804
16.995209 149.6239 0
64 64 0
54.857712 80.605988 -0.52941245
16.635746 150.0321 0
64 64 0
54.812569 80.592949 -0.52970302
16.501087 149.78535 0
64 64 0
54.779915 80.604546 -0.53042859
16.437893 149.65509 0
64 64 0
54.744694 80.620628 -0.53129917
16.539536 149.22923 0
26.137997 131.99237 2.173461
54.727058 80.628654 -0.5317347
16.612267 148.9778 0
26.021 132.10564 2.177815
54.69936 80.63105 -0.53217024
16.629021 148.70697 0
25.992001 131.96445 2.174767
54.658936 80.656059 -0.53333139
15.640739 150.22943 0
25.848907 132.02725 2.1782498
54.618446 80.680984 -0.53449196
15.470249 150.28888 0
25.751446 132.00827 2.179121
54.567661 80.723953 -0.5362336
15.192154 150.53845 0
25.666748 131.96654 2.179266
54.511635 80.775879 -0.53826582
14.946697 150.72858 0
25.612801 131.87041 2.1776693
54.481117 80.782486 -0.53884637
14.818821 150.71001 0
25.497478 131.88275 2.1795566
54.424881 80.834206 -0.54087806
14.503078 151.02148 0
25.420628 131.82713 2.179266
54.378799 80.867752 -0.54232919
14.294823 151.14246 0
25.261459 131.91589 2.18362
54.345528 80.87867 -0.54305476
13.951817 151.49799 0
25.231033 131.77881 2.1807172
64 64 -0
54.301861 80.907578 -0.54436141
13.719234 151.65866 0
25.081928 131.84912 2.1844909
64 64 -0
54.255531 80.940887 -0.54581255
13.455055 151.87305 0
24.989609 131.82007 2.1850715
64 64 -0
54.196129 80.996613 -0.54798919
13.185078 152.09595 0
24.912888 131.76389 2.1847811
64 64 -0
53.829533 81.583038 -0.56729209
12.982243 152.20119 0
24.867462 131.65363 2.1827493
64 64 -0
53.672714 81.804482 -0.57483876
12.766026 152.32857 0
24.801395 131.57932 2.1818783
64 64 -0
53.695625 81.715622 -0.57237154
12.434288 152.6535 0
24.657055 131.63971 2.1853616
53.723969 81.617882 -0.56961429
12.190849 152.82492 0
24.509899 131.70435 2.1889899
53.734177 81.55162 -0.56787264
11.986328 152.92848 0
24.302189 131.87189 2.195956
53.741962 81.514023 -0.5668565
11.711655 153.27429 0
24.200779 131.95105 2.1992943
53.731335 81.483688 -0.56627595
11.458847 153.45789 0
24.066074 131.99251 2.2021966
53.707581 81.475739 -0.56642097
11.20816 153.63651 0
24.115799 131.72034 2.1949406
53.694393 81.449883 -0.56598598
10.975498 153.78329 0
23.952084 131.81079 2.1994395
53.675961 81.432953 -0.56584096
10.649578 154.08636 0
23.695404 132.05746 2.2090182
53.652252 81.424927 -0.56598598
10.442436 154.18744 0
23.631779 131.97745 2.2080023
53.633865 81.407951 -0.56584096
10.061882 154.57878 0
23.45396 132.08934 2.2132268
53.610176 81.399872 -0.56598598
9.829731 154.7191 0
23.286457 132.18307 2.2178712
53.583824 81.39621 -0.56627595
9.6212196 154.81882 0
23.294865 131.98224 2.2129366
53.525356 81.445999 -0.56830817
9.2837982 155.13232 0
23.175304 131.99539 2.2149684
53.485527 81.464478 -0.56932372
8.9616432 155.4184 0
-2.9330139 175.17535 3.6241999
53.459053 81.46067 -0.56961429
8.603756 155.76175 0
-3.0297012 175.03214 3.6221683
53.419136 81.479027 -0.57062984
64 64 0
64 64 0
53.395317 81.470688 -0.57077539
64 64 0
-4.6730194 177.13538 3.6961851
53.368816 81.466728 -0.57106543
64 64 0
-4.7880554 177.01682 3.695024
53.328766 81.484924 -0.57208151
64 64 0
-4.9164505 176.92032 3.6945891
53.291374 81.498611 -0.57295209
64 64 0
-5.0094376 176.76602 3.6922667
53.248497 81.521095 -0.57411319
64 64 0
-5.118454 176.63826 3.6908152
53.208267 81.539078 -0.57512933
64 64 0
15.926987 142.12982 2.5619791
53.189499 81.545815 -0.57556432
-10.717041 185.26834 0
15.956123 141.97687 2.5579152
53.157383 81.550423 -0.57614487
-10.817009 185.10269 0
15.870125 141.90552 2.5574803
53.125237 81.554977 -0.57672542
-10.911217 184.92815 0
15.762344 141.86938 2.5582058
53.095802 81.555077 -0.57716101
-11.040794 184.811 0
15.657322 141.8287 2.5587864
53.055367 81.572769 -0.57817709
-11.205978 184.75117 0
15.568817 141.7614 2.5584958
53.003868 81.608009 -0.57977325
15.197136 142.14758 0
-11.360313 184.6738 3.9733872
52.941227 81.660782 -0.58195043
15.138653 142.03122 0
-11.450905 184.49457 3.9704845
64 64 -0
52.88121 81.709015 -0.58398211
15.066544 141.93686 0
-11.629608 184.45612 3.9722261
52.843216 81.721947 -0.5848527
14.941902 141.92613 0
36.483856 107.70791 1.442431
52.813484 81.721642 -0.58528823
14.825554 141.90201 0
36.453255 107.63947 1.4412699
52.814316 81.672981 -0.58412713
14.806622 141.72379 0
36.381088 107.6369 1.4422859
64 64 -0
-11.800705 183.44281 0
36.333946 107.59473 1.441996
64 64 -0
-11.877907 183.24573 0
36.261768 107.59195 1.4430115
64 64 -0
-12.00515 183.12764 0
36.195145 107.5803 1.443737
48.609669 88.058075 -0.7976163
-12.123795 182.99626 0
36.131302 107.56418 1.4443176
48.462772 88.223175 -0.80371183
-12.28157 182.92609 0
36.050621 107.57423 1.4457693
48.3801 88.287437 -0.80646968
-12.346382 182.71126 0
35.995182 107.54479 1.4459143
48.528191 87.993401 -0.79732627
-12.455925 182.56644 0
35.962303 107.48035 1.4448981
48.60672 87.839981 -0.7925368
13.872784 141.63335 0
35.972687 107.40665 1.4430115
48.597698 87.790817 -0.79152071
13.810131 141.52466 0
34.756706 109.17 1.5028062
48.563301 87.780914 -0.79181129
13.758999 141.39848 0
34.764404 109.03873 1.4996128
48.548748 87.740479 -0.79108572
13.66835 141.33336 0
34.718498 108.99031 1.4991778
48.522919 87.717422 -0.79094017
13.555042 141.30298 0
34.661324 108.95924 1.4993229
48.502705 87.623466 -0.7890535
13.308422 141.27225 0
34.549911 108.89256 1.4994678
48.465603 87.617752 -0.78948903
64 64 0
34.478546 108.883 1.5003389
48.359833 87.716095 -0.79340738
64 64 0
34.418621 108.85596 1.5006289
48.265263 87.796883 -0.79674572
64 64 0
34.338646 108.8592 1.5019351
48.17622 87.868813 -0.79979354
64 64 0
34.293076 108.81035 1.5015
48.16753 87.819374 -0.7987774
-3.9515839 166.23068 0
34.236076 108.77874 1.5016451
48.161819 87.765633 -0.7976163
64 64 0
34.219452 108.68652 1.4997584
48.138882 87.737839 -0.79732627
64 64 0
34.220345 108.56841 1.4970006
48.11021 87.718658 -0.79732627
64 64 0
34.207001 108.47195 1.4949689
48.072876 87.712372 -0.79776126
64 64 0
34.190956 108.37984 1.4930823
48.096485 87.615524 -0.79514903
-14.161926 180.06459 0
34.122837 108.36534 1.4938078
48.067696 87.627457 -0.7958746
-14.121452 179.85336 0
34.09314 108.35159 1.4939529
64 64 -0
48.065353 87.569443 -0.79456848
-14.258469 179.75458 0
34.027927 108.33264 1.4945334
48.031044 87.558784 -0.79485905
-14.354469 179.59531 0
33.962715 108.3136 1.495114
48.008438 87.530869 -0.79456848
-14.450211 179.43597 0
33.903351 108.28587 1.4954045
48.018059 87.455704 -0.79268181
64 64 0
33.893757 108.18506 1.4932272
48.048355 87.350548 -0.78977901
64 64 0
33.907806 108.04996 1.4898895
48.114117 87.194069 -0.78513515
64 64 0
64 64 0
48.09787 87.157722 -0.78455454
64 64 0
64 64 0
64 64 -0
-16.131973 180.39177 0
11.785442 139.84171 2.5715575
64 64 -0
64 64 0
11.670223 139.81277 2.5727186
64 64 -0
64 64 0
11.625961 139.68112 2.5703969
48.036488 87.008011 -0.78208733
64 64 0
11.525677 139.63058 2.570832
48.011665 86.984444 -0.78194231
64 64 0
11.386845 139.63538 2.5731542
47.903648 87.080185 -0.78586066
64 64 0
11.363861 139.47372 2.5698164
47.726875 87.273666 -0.7931174
64 64 0
11.174446 139.5506 2.5746052
47.75843 87.168869 -0.7902146
64 64 0
64 64 0
47.697571 87.196007 -0.79181129
64 64 0
64 64 0
47.699497 87.133804 -0.79035962
64 64 0
12.182026 137.54047 2.5124888
47.694504 87.111221 -0.78992456
64 64 0
33.854088 106.72847 1.4604276
47.684601 87.06604 -0.7890535
64 64 0
33.79948 106.69625 1.4605727
47.635696 87.075981 -0.79006958
-0.92357635 155.55144 0
33.717857 106.70211 1.4620239
47.598789 87.068909 -0.79050517
-0.90748596 155.29477 0
33.690369 106.63161 1.4608626
47.628242 86.968658 -0.78774738
-1.0993118 155.33069 0
33.608711 106.63728 1.4623144
47.597481 86.953087 -0.78789234
-1.1551514 155.17575 0
33.572319 106.57939 1.4615889
47.557655 86.95015 -0.78847289
-1.2410202 155.06311 0
33.502739 106.56793 1.4624593
47.554188 86.8965 -0.78731179
-1.3904724 155.03915 0
33.457397 106.5226 1.4621688
52.20911 80.37394 -0.5635187
64 64 0
33.427284 106.45615 1.4611533
52.192387 80.355453 -0.56337315
52.206665 80.335678 0
33.400345 106.38548 1.4599922
52.148254 80.374855 -0.56453425
52.113693 80.422607 0
33.349152 106.34846 1.4599922
52.128479 80.360527 -0.56453425
52.078575 80.429298 0
33.365147 106.21887 1.4567994
64 64 -0
52.086288 80.376999 0
33.360016 106.11879 1.4546221
52.137962 80.264626 -0.56221259
64 64 0
33.364262 106.00616 1.4520099
52.148994 80.208321 -0.56076092
64 64 0
33.310463 105.9733 1.4521549
52.09869 80.235909 -0.56221259
64 64 0
51.988235 80.386589 0.56743038
64 64 -0
64 64 0
51.989979 80.342766 0.56641483
47.498791 86.425789 -0.77758843
64 64 0
51.983196 80.331306 0.56626928
47.453201 86.430923 -0.77845901
52.005524 80.259773 0
51.960377 80.320969 0.56641483
64 64 -0
47.38903 86.461052 -0.78020066
52.016838 80.203407 0
51.94994 80.293869 0.56597924
47.383568 86.411736 -0.77918452
52.003464 80.180565 0
51.914787 80.300171 0.56670481
47.356503 86.39164 -0.77918452
64 64 0
51.904404 80.273041 0.56626928
47.32946 86.371513 -0.77918452
64 64 0
32.785416 105.88931 1.458976
47.289997 86.368011 -0.77976513
64 64 0
32.778362 105.79329 1.4569443
47.269207 86.339493 -0.77947509
64 64 0
32.768379 105.70146 1.4550576
47.226627 86.340034 -0.78020066
64 64 0
30.228123 108.97992 1.5708731
64 64 -0
47.1684 86.361267 -0.78165179
64 64 0
30.164433 108.95152 1.5713081
47.053741 86.457062 -0.7857157
-12.496048 165.37202 0
30.188396 108.8069 1.5676798
47.036026 86.424133 -0.78528011
64 64 0
30.146824 108.74944 1.5670992
46.958702 86.469872 -0.78760237
-12.655876 165.07489 0
30.014271 108.81201 1.5707276
46.893818 86.498909 -0.78934401
-12.677155 164.84962 0
29.416027 109.48657 1.5958354
46.791046 86.5774 -0.79282683
64 64 0
29.209873 109.64314 1.6028022
46.640717 86.717636 -0.79848742
-12.241211 163.77487 0
29.110577 109.65887 1.6048338
46.576485 86.77317 -0.80080909
-12.254036 163.66678 0
29.092476 109.6254 1.6043983
46.369446 86.928749 -0.8077758
64 64 0
29.004486 109.51208 1.6033827
46.357613 86.886856 -0.80705023
-10.384155 160.49597 0
28.94318 109.47799 1.6036726
46.256889 86.960083 -0.81038797
-10.608902 160.54604 0
28.878716 109.44794 1.6041082
64 64 -0
64 64 0
28.801559 109.43421 1.6051238
64 64 -0
64 64 0
28.711617 109.4368 1.6067204
64 64 -0
-11.565903 161.05524 0
28.66312 109.38593 1.6064305
45.676102 87.47625 -0.8317225
-11.66391 160.93924 0
28.640289 109.30223 1.6049788
45.593307 87.523666 -0.83418977
-11.684769 160.72479 0
28.601585 109.23901 1.6042533
45.526405 87.550476 -0.83593142
-11.750183 160.56773 0
28.607883 109.11853 1.601496
45.520454 87.499542 -0.83491534
-11.667343 160.22247 0
28.569462 109.05529 1.6007699
45.492073 87.477188 -0.83491534
-11.63855 159.94704 0
30.81213 106.09861 1.4971457
45.444393 87.479263 -0.83578587
-11.583389 159.63916 0
30.722622 106.10741 1.4988873
64 64 -0
45.416039 87.456833 -0.83578587
64 64 0
30.610447 106.14456 1.5016451
64 64 -0
45.17762 87.698875 -0.84521979
64 64 0
30.540161 106.1286 1.5025157
64 64 -0
64 64 -0
-11.608635 158.96146 0
30.537827 106.02717 1.5003389
64 64 -0
-15.406769 163.6082 0
30.593426 105.90535 1.4967107
44.72979 88.112808 -0.86205488
64 64 0
30.659615 105.71881 1.4914856
64 64 -0
64 64 0
30.739193 105.51628 1.4856806
44.54792 88.220131 -0.86756986
64 64 0
30.715084 105.44364 1.4845195
44.50563 88.212799 -0.86815041
64 64 0
30.753021 105.29411 1.4806011
44.381737 88.306503 -0.87235934
64 64 0
30.709682 105.24581 1.4803106
44.296814 88.351456 -0.87482655
64 64 0
30.551998 105.33887 1.4851
64 64 -0
64 64 0
30.236916 105.62534 1.4968556
64 64 -0
64 64 0
30.062061 105.73772 1.5023706
64 64 -0
64 64 0
30.001801 105.70877 1.5028062
64 64 0
33.555313 101.25733 1.3437412
64 64 0
33.490547 101.24464 1.3446122
64 64 -0
64 64 0
28.891136 106.75394 1.5450397
-15.413452 160.46808 0
27.079124 108.84991 1.6223949
-15.619392 160.48044 0
26.988583 108.84935 1.6239911
64 64 0
26.954288 108.78057 1.6231205
64 64 -0
64 64 0
27.006802 108.66212 1.6196371
64 64 -0
64 64 0
26.979424 108.58541 1.618476
64 64 -0
64 64 -0
64 64 0
27.031956 108.41284 1.6138321
64 64 -0
64 64 0
27.088188 108.23647 1.6090426
64 64 -0
64 64 0
27.281502 107.89687 1.5983026
64 64 -0
64 64 0
27.298607 107.76884 1.5952549
64 64 -0
64 64 0
27.239052 107.73243 1.5955454
46.320026 84.981346 -0.76626784
64 64 0
27.092484 107.79924 1.5996088
46.321518 84.928207 -0.76510674
46.219154 85.049385 0
26.979218 107.82608 1.6022216
46.306305 84.894943 -0.76467168
46.247551 84.964333 0
31.89307 101.91592 1.3875713
64 64 -0
64 64 -0
46.299713 84.851593 0
31.86409 101.85728 1.3868457
46.269333 84.836296 -0.76409113
46.227295 84.885696 0
46.181931 84.939011 0.76785779
46.254292 84.802994 -0.7636556
46.222347 84.840439 0
46.1735 84.897697 0.76713222
46.21566 84.797333 -0.76423615
46.203941 84.811035 0
46.161774 84.860344 0.76655167
46.207451 84.756104 -0.76351058
46.19574 84.76976 0
46.133202 84.84272 0.76669669
46.219643 84.691231 -0.7619139
46.177448 84.740334 0
46.10125 84.829002 0.76698726
64 64 -0
31.653324 101.59627 0
46.092072 84.81424 0.76684171
64 64 -0
31.621517 101.5414 0
46.070324 84.788651 0.76669669
64 64 -0
31.572765 101.5062 0
46.069016 84.739449 0.76568055
64 64 -0
31.558159 101.43156 0
46.054169 84.705994 0.76524556
64 64 -0
31.567562 101.32949 0
26.854397 106.75431 1.5817575
31.594265 101.20786 0
26.843708 106.66238 1.5800165
64 64 -0
31.563023 101.15298 0
26.788773 106.62137 1.5801615
64 64 -0
31.569576 101.05501 0
26.75441 106.55682 1.5794359
64 64 -0
31.559147 100.97668 0
26.727009 106.48444 1.5784198
31.507626 100.94527 0
26.69286 106.41986 1.5776943
31.459568 100.90987 0
12.410702 122.51657 2.1786854
64 64 -0
31.414993 100.87053 0
12.432945 122.34906 2.174767
64 64 -0
31.391171 100.80776 0
15.112392 119.1827 2.0589516
64 64 -0
31.353622 100.76056 0
26.726379 105.97094 1.5676798
64 64 -0
20.681183 112.65942 0
26.796627 105.79002 1.5626003
20.677868 112.54491 0
26.791138 105.69464 1.5607136
20.624672 112.42754 0
26.795368 105.53811 1.5573758
20.604443 112.33249 0
26.77298 105.46219 1.5562147
20.539104 112.28777 0
26.726395 105.4133 1.5560691
64 64 -0
20.494736 112.21976 0
26.683338 105.36052 1.5557792
64 64 -0
64 64 0
26.595039 105.3578 1.5573758
64 64 0
26.520672 105.33952 1.5583915
64 64 0
26.456768 105.30959 1.558972
31.520813 99.650864 0
26.399872 105.27188 1.5592625
31.379478 99.719215 0
30.867149 100.28021 1.3721874
31.311749 99.706635 0
30.89352 100.16348 1.3692845
31.289738 99.644112 0
30.853359 100.11963 1.3691396
31.264309 99.585411 0
30.85899 100.02602 1.3671079
31.210758 99.557297 0
30.801407 100.00121 1.3676879
31.157215 99.529121 0
30.764977 99.953445 1.3673979
31.107227 99.497055 0
30.696831 99.939949 1.368414
31.053745 99.468719 0
30.649895 99.903488 1.368559
19.416985 111.93831 0
30.638828 99.87191 1.3681234
64 64 -0
19.327152 111.91866 0
30.584877 99.842979 1.368559
64 64 -0
19.251503 111.88367 0
21.270214 109.72353 1.7477888
64 64 -0
18.951717 112.08786 0
21.193687 109.69461 1.7486594
64 64 -0
18.548042 112.40141 0
7.6953201 123.95839 2.2971132
64 64 -0
18.450359 112.38814 0
7.5944176 123.92059 2.2982743
18.391926 112.33307 0
7.5327606 123.84105 2.2978387
18.401505 112.20609 0
20.519814 109.96664 1.767091
26.938126 103.08658 0
20.55011 109.82358 1.7636083
26.930359 103.00028 0
31.041924 98.674583 1.3360494
26.951485 102.88387 0
31.014389 98.619682 1.3354689
26.832626 102.91435 0
30.972584 98.579803 1.3354689
26.648857 103.01227 0
30.938004 98.532364 1.3351789
26.86483 102.69299 0
20.227283 109.60898 1.7654949
26.976883 102.48305 0
20.035297 109.69836 1.77101
27.205002 102.15356 0
19.594124 110.04544 1.786539
27.173397 102.0941 0
19.657715 109.86845 1.7817495
27.085236 102.13916 0
19.738434 109.72964 1.7773956
64 64 -0
26.923195 102.21407 0
19.846043 109.5083 1.770865
64 64 -0
26.75367 102.2961 0
19.975883 109.26492 1.7634628
26.70015 102.25853 0
19.957493 109.17448 1.7620116
26.668503 102.19854 0
19.844822 109.1807 1.7643338
26.677013 102.09763 0
19.622974 109.29807 1.77101
26.689358 101.99309 0
30.80114 97.806091 1.3232777
26.654423 101.93686 0
30.658234 97.869659 1.3273417
26.564754 101.93614 0
19.331318 109.26637 1.7760894
26.500629 101.9094 0
19.338779 109.14956 1.7736223
26.425545 101.89362 0
19.361099 109.01807 1.7705745
26.416473 101.81128 0
19.2994 108.97148 1.770865
16.683464 111.48837 0
16.934315 111.2366 1.8622981
16.696007 111.36118 0
19.278996 108.77507 1.7673817
16.697739 111.24514 0
19.27272 108.67326 1.7654949
15.206459 112.61699 0
19.318176 108.52015 1.7615761
16.671204 111.1006 0
19.328117 108.4565 1.7601249
16.654961 111.00304 0
19.274433 108.40248 1.7601249
16.627789 110.91649 0
19.191273 108.37767 1.761286
16.648884 110.78239 0
19.230103 108.23218 1.7576578
16.685066 110.6338 0
19.187798 108.16711 1.7572222
16.669567 110.53647 0
19.178932 108.0692 1.7554805
14.70351 112.35254 0
19.155384 107.98592 1.7543199
14.641388 112.29659 0
19.161701 107.87354 1.7519977
14.460171 112.35688 0
44.905365 82.63868 0.74521714
14.360756 112.33693 0
44.771168 82.72435 0.74957108
14.21278 112.36396 0
44.70755 82.740936 0.75116777
14.105793 112.35085 0
44.68119 82.72123 0.75131273
10.619717 115.60417 0
44.714634 82.643684 0.74913549
13.704365 112.50472 0
44.729523 82.584305 0.74768442
13.437096 112.52719 0
44.590935 82.62764 0.75131273
13.404819 112.44086 0
44.741108 82.438858 0.7446366
13.349228 112.43547 0
45.052963 82.118347 0.73215544
13.347221 112.32034 0
45.083736 82.045219 0.73012322
13.398212 112.15505 0
64 64 0
13.204185 112.22287 0
44.991177 82.045975 0.73201042
13.006126 112.29388 0
44.939213 82.051567 0.73317099
12.978081 112.20364 0
44.936302 82.010681 0.73244548
12.866848 112.19193 0
44.895645 82.005455 0.73317099
12.740391 112.19429 0
45.771194 81.138725 0.69877476
9.1516953 115.44366 0
45.833881 81.038483 0.69558197
9.2035904 115.27068 0
45.794334 81.034271 0.69630754
9.1112518 115.23283 0
45.72818 81.05481 0.69804919
8.9770088 115.23386 0
45.570663 81.16021 0.70327425
8.8198051 115.2559 0
45.553757 81.134384 0.7031287
8.6930122 115.24933 0
64 64 0
8.5852623 115.22485 0
64 64 0
8.4736671 115.20373 0
45.61401 80.954681 0.69848478
9.8559265 113.80815 0
45.631775 80.897278 0.69703364
12.88044 110.96886 0
45.552696 80.949463 0.69964588
12.850586 110.88244 0
45.417305 81.032494 0.70399976
12.786285 110.82763 0
45.339218 81.062622 0.70617646
9.3919868 113.81022 0
45.310928 81.047073 0.70646703
64 64 -0
64 64 -0
9.8900223 113.23629 0
45.474831 80.856606 0.69950086
64 64 -0
10.023266 112.99596 0
45.627632 80.677032 0.69296974
64 64 -0
9.9718094 112.92372 0
45.630615 80.633881 0.69209862
64 64 -0
9.1364288 113.55966 0
45.683792 80.545502 0.68934143
9.7764206 112.86269 0
45.663811 80.523354 0.68934143
9.7599869 112.75887 0
43.379173 82.537018 0.77438897
64 64 -0
9.7553711 112.64464 0
43.356789 82.512093 0.77438897
9.6500816 112.6207 0
43.357681 82.466339 0.77351785
9.6651459 112.48916 0
43.393532 82.389488 0.77134115
8.5336647 113.37865 0
29.153786 95.021683 1.3029593
8.3962059 113.38071 0
29.147415 94.951942 1.3017982
8.3365784 113.31349 0
29.145046 94.878799 1.300492
8.2653465 113.25652 0
43.398354 82.207085 0.76785779
8.2605209 113.14096 0
43.36467 82.19249 0.76829338
-13.069695 131.86337 0
43.400486 82.138809 0.76655167
-13.190735 131.80453 0
43.476192 82.028168 0.76292336
-13.174744 131.62546 0
43.325443 82.116371 0.76771283
64 64 0
43.205753 82.17688 0.77134115
-26.334129 142.77145 0
43.164223 82.168816 0.77206671
64 64 0
46.129936 79.544746 0.66147631
-26.71685 142.72008 0
46.134724 79.502701 0.66060519
64 64 -0
-26.831581 142.62744 0
28.824329 94.449463 1.2993309
64 64 -0
-26.973793 142.55844 0
28.767899 94.42392 1.3000565
64 64 -0
-27.052872 142.43488 0
28.723282 94.388115 1.3003471
64 64 0
42.954224 82.085022 0.77496952
64 64 -0
64 64 0
42.93634 82.05619 0.77482396
64 64 -0
64 64 0
42.906631 82.037491 0.77511448
64 64 -0
64 64 0
45.347946 79.910881 0.68469691
64 64 -0
64 64 0
45.522652 79.723312 0.67758578
64 64 -0
-27.047737 141.28769 0
45.62252 79.60009 0.6732319
64 64 0
45.607658 79.574509 0.67308635
64 64 0
45.584873 79.555634 0.6732319
64 64 -0
14.126808 106.0773 0
45.615204 79.510986 0.67178023
14.115833 105.98348 0
64 64 0
14.069126 105.91983 0
45.665329 79.393005 0.66858745
13.994576 105.87952 0
45.666664 79.354156 0.66786188
64 64 -0
13.924023 105.83575 0
45.660091 79.321999 0.66742629
