# .PCD v0.7 - Point Cloud Data file format
VERSION 0.7
FIELDS x y z
SIZE 4 4 4
TYPE F F F
COUNT 1 1 1
WIDTH 1787
HEIGHT 1
VIEWPOINT 0 0 0 1 0 0 0
POINTS 1787
DATA ascii
59.562004 63.100491 -0.50156981
59.419113 63.071529 -0.38961384
59.106716 63.008213 -0.27825063
57.150841 62.61179 -0.19517341
50.022884 61.167068 0
49.990211 61.160446 0.39922249
59.439636 63.06995 -0.76732314
59.614552 63.105625 -0.61741894
59.563091 63.095131 -0.50156981
59.364899 63.05471 -0.39432189
59.13834 63.008503 -0.27652034
57.177979 62.608704 -0.19444786
50.021202 61.149139 0
49.993652 61.14352 0.39922249
59.745815 63.127037 -0.71598268
59.635296 63.104359 -0.61465031
64 64 -0
59.355995 63.047047 -0.39517701
59.11927 62.99847 -0.27767351
57.322189 62.629707 -0.19038451
50.02977 61.133301 0
49.986923 61.124508 0.39951307
64 64 -0
59.616726 63.095028 -0.61741894
64 64 -0
59.382286 63.046627 -0.39303759
59.115406 62.991528 -0.27796263
57.461273 62.650013 -0.18646561
50.023041 61.114315 0
49.970047 61.103374 0.40009362
64 64 -0
59.617821 63.089733 -0.61741894
64 64 -0
59.393486 63.043133 -0.39218247
59.096367 62.981415 -0.2791158
57.361141 62.620975 -0.1893684
50.011246 61.094254 0
49.983746 61.088539 0.39980307
59.710297 63.103535 -0.72250241
59.638573 63.088543 -0.61465031
64 64 -0
59.369522 63.032318 -0.39432189
59.183678 62.993481 -0.2742151
57.500149 62.641655 -0.18545005
50.019875 61.078419 0
49.966927 61.067356 0.40038362
59.716236 63.099373 -0.72168505
59.639675 63.083275 -0.61465031
64 64 -0
59.365673 63.025669 -0.39474946
59.149475 62.980213 -0.27623233
57.364494 62.604935 -0.1893684
50.028503 61.062599 0
49.98064 61.052536 0.40009362
64 64 -0
59.621151 63.073853 -0.61741894
64 64 -0
59.3568 63.017944 -0.39560622
59.140579 62.97221 -0.27680945
57.564461 62.638855 -0.18370837
50.011696 61.041412 0
49.974052 61.033451 0.40038362
64 64 -0
59.632099 63.070656 -0.61603326
64 64 -0
59.383114 63.017677 -0.39346513
59.1469 62.967419 -0.27652034
57.611855 62.640812 -0.18240225
50 61.021263 0
49.972569 61.015427 0.40052861
64 64 -0
59.6185 63.062225 -0.61811042
59.522362 63.041649 -0.50719756
59.374252 63.009949 -0.39432189
59.138023 62.959389 -0.27709746
57.55254 62.620049 -0.18414338
49.978165 60.998901 0
49.960938 60.995213 0.40096417
64 64 -0
59.634357 63.060101 -0.61603326
59.518543 63.035168 -0.50776207
59.390514 63.007603 -0.39303759
59.164566 62.958958 -0.27565628
57.681198 62.639599 -0.18051559
50.002159 60.986343 0
49.949329 60.974972 0.40139973
64 64 -0
59.617031 63.045284 -0.61880195
64 64 -0
59.382885 62.994278 -0.39389434
64 64 -0
50.174801 60.988537 -0.39516529
49.994217 60.9492 0
49.961777 60.942135 0.40125418
59.801247 63.080093 -0.70864874
59.603477 63.036766 -0.62087905
64 64 -0
59.394142 62.990902 -0.39303759
59.183537 62.944759 -0.27479112
50.081989 60.950699 -0.39792308
49.972496 60.926712 0
49.970551 60.926285 0.40110919
59.56102 63.021839 -0.74939233
59.643845 63.040092 -0.61534178
64 64 -0
59.380318 62.982021 -0.39432189
59.169655 62.9356 -0.27565628
57.784283 62.630322 -0.1777578
49.996555 60.914246 0
49.948906 60.903744 0.40183473
64 64 -0
59.625412 63.030487 -0.61811042
64 64 -0
59.356495 62.970886 -0.39646131
59.1861 62.933125 -0.27479112
57.867123 62.640804 -0.17543556
49.979965 60.892822 0
49.952656 60.886768 0.40183473
64 64 -0
59.611301 63.024574 -0.62018758
64 64 -0
59.362122 62.969193 -0.39603376
59.161503 62.924603 -0.27623233
50.147072 60.921074 -0.39632642
49.976768 60.883224 0
49.944382 60.876026 0.4021253
59.703873 63.0397 -0.72576225
59.622288 63.021465 -0.61880195
64 64 -0
59.373402 62.965832 -0.39517701
59.208237 62.928913 -0.27363798
50.100075 60.892998 -0.39777809
49.985619 60.867416 0
49.94817 60.859043 0.4021253
64 64 -0
59.62347 63.016174 -0.61880195
64 64 -0
59.359623 62.956863 -0.39646131
59.17926 62.916321 -0.27536717
50.119057 60.879627 -0.39734253
49.989418 60.850483 0
49.931694 60.837509 0.40270585
64 64 -0
59.624664 63.010887 -0.61880195
64 64 -0
59.370895 62.953522 -0.39560622
59.185616 62.911636 -0.27507916
50.092434 60.855984 -0.39821309
49.983086 60.831264 0
49.935524 60.820511 0.40270585
64 64 -0
59.635639 63.007824 -0.61741894
64 64 -0
59.382183 62.950207 -0.39474946
59.176834 62.903522 -0.27565628
49.944225 60.804623 -0.402567
49.99707 60.816635 0
49.929253 60.801216 0.40299585
64 64 -0
59.622181 62.999203 -0.61949342
64 64 -0
59.398476 62.948059 -0.39346513
59.178162 62.897697 -0.27565628
49.993687 60.798061 -0.40126088
49.975559 60.793919 0
49.928047 60.783058 0.40314141
64 64 -0
59.584274 62.984921 -0.6250307
64 64 -0
59.394733 62.941349 -0.39389434
59.169426 62.889553 -0.27623233
49.946907 60.769497 -0.40271255
49.979443 60.776974 0
49.921822 60.763729 0.40343142
59.744663 63.016376 -0.72005671
59.619709 62.987492 -0.62018758
59.51384 62.96302 -0.51001143
59.376007 62.93116 -0.39560622
59.201 62.890705 -0.27450311
64 64 -0
49.968128 60.756519 0
49.925743 60.746719 0.40343142
64 64 -0
59.620934 62.982201 -0.62018758
59.524986 62.9599 -0.50888675
59.36731 62.923248 -0.39646131
59.157001 62.874371 -0.27709746
64 64 -0
49.961929 60.737213 0
49.924629 60.728542 0.4035764
64 64 -0
59.63195 62.979195 -0.61880195
59.531189 62.955647 -0.50832444
59.403614 62.925835 -0.39346513
59.183548 62.874405 -0.27565628
64 64 -0
49.970943 60.721436 0
49.918461 60.709171 0.40386698
64 64 -0
59.594109 62.964737 -0.62433922
59.537399 62.951408 -0.50776207
59.384922 62.915581 -0.39517701
59.159737 62.862671 -0.27709746
64 64 -0
49.954651 60.699722 0
49.927521 60.693348 0.40372142
64 64 -0
59.644188 62.970947 -0.61741894
59.548569 62.948357 -0.50663525
59.371243 62.906464 -0.39646131
59.176224 62.86039 -0.27623233
64 64 -0
49.953587 60.681561 0
49.911293 60.67157 0.40430197
59.462139 62.922146 -0.76895148
59.630802 62.962208 -0.61949342
59.559723 62.945324 -0.50551057
59.412529 62.910362 -0.39303759
59.177601 62.854565 -0.27623233
56.492889 62.216877 -0.21549238
49.937347 60.659779 0
49.935551 60.659351 0.40372142
64 64 -0
59.622288 62.954597 -0.62087905
64 64 -0
59.408859 62.903629 -0.39346513
59.214195 62.857143 -0.2742151
64 64 -0
49.946453 60.643997 0
49.91938 60.637531 0.40430197
64 64 -0
59.608913 62.945793 -0.62295622
64 64 -0
59.390217 62.893288 -0.39517701
59.170315 62.840496 -0.27680945
64 64 -0
49.95052 60.627018 0
49.913338 60.618092 0.40459251
59.91774 63.014717 -0.69234943
59.610191 62.940487 -0.62295622
64 64 -0
59.366589 62.881695 -0.39731807
59.232063 62.849224 -0.27334994
64 64 -0
49.934364 60.60516 0
49.917435 60.601074 0.40459251
59.630722 62.939854 -0.74124426
59.616364 62.936371 -0.62226206
64 64 -0
59.377934 62.878521 -0.39646131
59.193237 62.833706 -0.27565628
64 64 -0
49.923298 60.584484 0
49.916504 60.582836 0.40473753
64 64 -0
59.597507 62.928978 -0.6250307
64 64 -0
59.378613 62.875729 -0.39646131
59.158775 62.822247 -0.27767351
64 64 -0
49.940544 60.579674 0
49.89333 60.568188 0.4054631
64 64 -0
59.598804 62.92366 -0.6250307
64 64 -0
59.384956 62.871361 -0.39603376
59.250641 62.838516 -0.27248481
64 64 -0
49.929512 60.558975 0
49.912617 60.554844 0.40502807
59.653145 62.931381 -0.73798436
59.624466 62.924332 -0.62157059
64 64 -0
59.391304 62.867012 -0.39560622
59.20182 62.820431 -0.27536717
64 64 -0
49.933681 60.541977 0
49.901665 60.534107 0.4054631
59.673634 62.930874 -0.73472452
59.616016 62.916634 -0.62295622
64 64 -0
59.407635 62.865139 -0.39432189
59.173111 62.807186 -0.27709746
64 64 -0
49.932819 60.523735 0
49.900803 60.515823 0.40560865
59.574188 62.900623 -0.75183803
59.627075 62.913761 -0.62157059
64 64 -0
59.364166 62.848454 -0.39817318
59.194637 62.806343 -0.27594429
64 64 -0
49.926937 60.504234 0
49.889908 60.495033 0.40604365
59.685814 62.922813 -0.73309618
59.594311 62.899967 -0.62641639
64 64 -0
59.360588 62.84161 -0.39860076
59.181023 62.796776 -0.27680945
64 64 -0
49.910973 60.482189 0
49.909264 60.481762 0.40560865
59.648762 62.907978 -0.73961586
59.619972 62.900749 -0.62295622
64 64 -0
59.396835 62.844749 -0.39560622
59.192524 62.793476 -0.27623233
64 64 -0
49.930363 60.468964 0
49.893364 60.459679 0.4061892
59.559032 62.879749 -0.75509787
59.606724 62.891781 -0.6250307
64 64 -0
59.413174 62.842957 -0.39432189
59.209038 62.791462 -0.27536717
64 64 -0
49.924557 60.449421 0
49.882545 60.438824 0.4066242
59.584343 62.880459 -0.75102383
59.598328 62.884007 -0.62641639
59.53183 62.867146 -0.51057595
59.364815 62.824799 -0.39860076
59.200462 62.783131 -0.27594429
64 64 -0
49.903633 60.426022 0
49.896927 60.42432 0.40633419
59.614449 62.88245 -0.74613249
59.623985 62.88488 -0.62295622
64 64 -0
59.366241 62.819199 -0.39860076
59.196926 62.776054 -0.27623233
64 64 -0
49.907963 60.408993 0
49.891193 60.40472 0.4066242
59.630154 62.880829 -0.74368989
59.596184 62.872128 -0.62710786
64 64 -0
59.382576 62.817421 -0.39731807
59.228466 62.77795 -0.27450311
64 64 -0
49.917351 60.393257 0
49.88044 60.383804 0.40705976
59.693737 62.891567 -0.73309618
59.631565 62.875565 -0.62226206
59.550732 62.854755 -0.50888675
59.39893 62.815681 -0.39603376
59.229946 62.772186 -0.27450311
64 64 -0
49.911648 60.373653 0
49.884819 60.366745 0.40705976
59.551517 62.849224 -0.75754356
59.608646 62.864002 -0.62572223
59.537354 62.845562 -0.51057595
59.395397 62.808838 -0.39646131
59.246464 62.770313 -0.27363798
64 64 -0
49.905952 60.354023 0
49.889221 60.349693 0.40705976
59.610321 62.858776 -0.74776399
59.605152 62.857433 -0.62641639
59.519081 62.835056 -0.51282752
59.372002 62.796818 -0.39860076
59.232929 62.760662 -0.27450311
64 64 -0
49.910366 60.336994 0
49.883591 60.330032 0.40734977
64 64 -0
59.587116 62.84705 -0.62918502
64 64 -0
59.378422 62.792522 -0.39817318
59.199409 62.745754 -0.27652034
64 64 -0
49.894661 60.314709 0
49.888039 60.312981 0.40734977
59.723064 62.877045 -0.72901899
59.627335 62.851913 -0.62364775
59.536659 62.828102 -0.51113832
59.384842 62.788242 -0.39774564
59.225941 62.746521 -0.27507916
64 64 -0
49.904152 60.298988 0
49.887463 60.294605 0.40749532
59.57077 62.834198 -0.75509787
59.603775 62.842888 -0.62710786
59.507889 62.81765 -0.51451457
59.375656 62.782845 -0.39860076
59.211685 62.739685 -0.27594429
64 64 -0
49.896332 60.287827 0
49.869598 60.280792 0.40807587
59.615189 62.840221 -0.74776399
59.60033 62.836292 -0.62779939
59.524048 62.816116 -0.51282752
59.377129 62.777256 -0.39860076
59.213211 62.733902 -0.27594429
64 64 -0
49.880699 60.265465 0
49.864067 60.261063 0.40836588
59.544945 62.815884 -0.7599861
59.616291 62.834846 -0.62572223
59.510761 62.806797 -0.51451457
59.36372 62.767715 -0.39988506
59.219742 62.729446 -0.27565628
64 64 -0
49.880199 60.24707 0
49.873611 60.245319 0.40822089
59.560692 62.814323 -0.75754356
59.598312 62.824371 -0.62849087
59.517113 62.802685 -0.5139522
59.370171 62.763435 -0.39945751
59.226292 62.72501 -0.27536717
64 64 -0
49.884743 60.230011 0
49.863091 60.224228 0.40865642
59.643288 62.830742 -0.74368989
59.609417 62.821651 -0.62710786
59.533291 62.80122 -0.512263
59.386547 62.761837 -0.39817318
59.232826 62.720581 -0.27507916
64 64 -0
49.88427 60.211605 0
49.872696 60.2085 0.40851086
59.549267 62.79974 -0.7599861
59.615685 62.817654 -0.62641639
64 64 -0
59.383095 62.754929 -0.39860076
59.204399 62.706738 -0.27680945
64 64 -0
49.888855 60.194553 0
49.847176 60.183311 0.40938199
59.574574 62.800827 -0.75591207
59.607441 62.809734 -0.62779939
64 64 -0
64 64 -0
59.220947 62.705006 -0.27594429
64 64 -0
49.863331 60.169342 0
49.871861 60.17165 0.40880144
59.494946 62.773407 -0.76976568
59.604046 62.803108 -0.62849087
64 64 -0
59.396015 62.746468 -0.39774564
59.237495 62.703308 -0.27507916
64 64 -0
49.888058 60.15773 0
49.851429 60.147758 0.409527
59.682369 62.818829 -0.73798436
59.610329 62.799122 -0.62779939
59.509716 62.771599 -0.51564139
59.357914 62.730068 -0.40116936
59.229076 62.694824 -0.27565628
64 64 -0
49.872627 60.135189 0
49.836044 60.125179 0.41010755
59.369225 62.727146 -0.79177052
59.602097 62.791157 -0.62918502
59.491604 62.760784 -0.51789296
59.379257 62.729904 -0.39945751
59.225674 62.687691 -0.27594429
64 64 -0
49.862247 60.113983 0
49.845741 60.109444 0.40996253
59.528 62.764977 -0.76487744
59.598732 62.784508 -0.62987649
64 64 -0
59.385738 62.725689 -0.39902994
59.212299 62.677788 -0.27680945
64 64 -0
49.876999 60.099674 0
49.845448 60.090961 0.41010755
64 64 -0
59.600204 62.77919 -0.62987649
64 64 -0
59.367512 62.714626 -0.40074018
59.208923 62.670624 -0.27709746
64 64 -0
49.866669 60.078438 0
49.835152 60.069691 0.41054311
64 64 -0
59.60651 62.775223 -0.62918502
64 64 -0
59.354225 62.704895 -0.40202448
59.260353 62.678722 -0.2742151
64 64 -0
49.866409 60.059967 0
49.844933 60.053978 0.41039756
59.289761 62.680786 -0.80643833
59.588665 62.764503 -0.63195366
64 64 -0
59.385448 62.707584 -0.39945751
59.222122 62.661842 -0.27652034
64 64 -0
49.851131 60.037277 0
49.844692 60.035473 0.41054311
59.191433 62.64698 -0.82355183
59.580513 62.756458 -0.63333666
64 64 -0
59.401844 62.706184 -0.39817318
59.22374 62.656071 -0.27652034
64 64 -0
49.85593 60.020184 0
49.834499 60.014153 0.41097811
59.388096 62.696301 -0.79013902
59.582016 62.751118 -0.63333666
64 64 -0
59.388584 62.696438 -0.39945751
59.235313 62.653111 -0.27594429
64 64 -0
49.840714 59.997433 0
49.824318 59.992798 0.41141367
59.027451 62.591106 -0.85207325
59.592419 62.751183 -0.63195366
64 64 -0
59.374569 62.689457 -0.40074018
64 64 -0
64 64 -0
49.848137 59.990295 0
49.836731 59.987064 0.41112366
58.972103 62.568859 -0.86185282
59.59877 62.747234 -0.6312595
64 64 -0
59.376156 62.683868 -0.40074018
59.20792 62.635983 -0.27767351
64 64 -0
49.847992 59.971775 0
49.821598 59.964264 0.41170421
59.206715 62.629375 -0.82192034
59.609924 62.744675 -0.62987649
64 64 -0
59.387611 62.681103 -0.39988506
59.199615 62.627346 -0.27825063
64 64 -0
49.84787 59.953247 0
49.806519 59.941425 0.41228423
58.856804 62.522594 -0.88222623
59.592155 62.733829 -0.63264519
64 64 -0
59.394138 62.676949 -0.39945751
59.236084 62.631546 -0.27623233
64 64 -0
49.837757 59.931839 0
49.826401 59.928577 0.41184923
59.039062 62.568459 -0.85125911
59.588875 62.727116 -0.63333666
64 64 -0
59.390812 62.66996 -0.39988506
59.282471 62.638699 -0.27363798
64 64 -0
49.837688 59.913288 0
49.826344 59.910015 0.41199422
59.017059 62.555588 -0.85533315
59.590416 62.721786 -0.63333666
64 64 -0
59.382568 62.661537 -0.40074018
59.204624 62.609955 -0.27825063
64 64 -0
49.842636 59.896179 0
49.826309 59.891445 0.41213924
58.933388 62.524693 -0.87000096
59.596775 62.717861 -0.63264519
59.491318 62.687153 -0.52014446
59.38419 62.65596 -0.40074018
59.231133 62.611393 -0.27680945
64 64 -0
49.847603 59.879074 0
49.801338 59.865604 0.41301033
59.034801 62.547714 -0.85288745
59.574253 62.705498 -0.6361053
59.512417 62.687412 -0.51789296
59.356243 62.641731 -0.40330881
59.217934 62.601276 -0.27767351
64 64 -0
49.852592 59.861977 0
49.81633 59.851372 0.41271979
59.083981 62.555645 -0.84473938
59.5662 62.697327 -0.63748831
59.509136 62.680561 -0.51845527
59.417 62.653488 -0.39817318
59.204735 62.591125 -0.27853867
64 64 -0
49.847607 59.841949 0
49.811371 59.831303 0.41301033
59.019363 62.530121 -0.85614729
59.591835 62.69907 -0.63402814
59.510735 62.675133 -0.51845527
59.364456 62.631966 -0.40288123
59.241177 62.595581 -0.27652034
64 64 -0
49.857647 59.826328 0
49.806458 59.811222 0.41330034
59.075031 62.533604 -0.84718502
59.580563 62.684124 -0.6361053
64 64 -0
59.387459 62.626629 -0.40116936
59.224751 62.578182 -0.27767351
64 64 -0
49.887711 59.7981 0
49.7967 59.771004 0.41388088
59.057861 62.521988 -0.85044491
59.591759 62.681656 -0.63472229
64 64 -0
59.394058 62.622532 -0.40074018
59.231422 62.573895 -0.2773855
64 64 -0
49.748207 59.737808 0
49.786877 59.749374 0.41431645
59.012318 62.501801 -0.85859299
59.602974 62.679222 -0.63333666
64 64 -0
64 64 -0
59.188568 62.554741 -0.27997985
64 64 -0
64 64 0
49.772114 59.726223 0.41489702
59.037788 62.502911 -0.85451895
59.570946 62.663761 -0.63818246
64 64 -0
59.367897 62.602505 -0.40330881
59.259644 62.569843 -0.27594429
64 64 -0
49.878124 59.739456 0
49.78228 59.710541 0.41475144
59.034878 62.495483 -0.85533315
59.601383 62.667145 -0.63402814
64 64 -0
64 64 -0
59.221767 62.552116 -0.27825063
64 64 -0
49.95303 59.74353 0
49.757622 59.684319 0.41562256
59.083076 62.506844 -0.84718502
59.57819 62.6572 -0.63748831
64 64 -0
59.340973 62.585163 -0.40587577
64 64 -0
64 64 -0
49.890862 59.715385 0
49.760231 59.675716 0.41562256
59.132175 62.515327 -0.83903384
59.579815 62.651859 -0.63748831
64 64 -0
59.352497 62.582527 -0.40502065
64 64 -0
58.886253 62.440323 -0.14931212
57.592537 62.045742 0
49.755535 59.655483 0.41591257
59.167046 62.519577 -0.83333141
59.562256 62.64064 -0.64025694
59.500286 62.621658 -0.52126914
59.349308 62.575409 -0.40544823
59.211319 62.533142 -0.2791158
59.022308 62.475243 -0.14539322
49.946045 59.695023 0
49.740921 59.632187 0.41649312
59.145218 62.506474 -0.83740544
59.578278 62.639702 -0.63818246
59.501957 62.616222 -0.52126914
59.385387 62.58036 -0.40245205
59.198277 62.522797 -0.27997985
58.969513 62.452419 -0.1469899
49.946266 59.676506 0
49.736263 59.6119 0.41678369
59.11396 62.490395 -0.84311098
59.565556 62.629921 -0.64025694
59.493912 62.607784 -0.52239603
59.392006 62.576298 -0.40202448
59.229713 62.526157 -0.27825063
59.011108 62.458614 -0.14582878
49.827202 59.621124 0
49.721714 59.588531 0.41736424
58.993046 62.446404 -0.86429852
59.552834 62.620098 -0.6423341
59.524727 62.611378 -0.51901764
59.423141 62.579857 -0.39945751
59.201862 62.511196 -0.27997985
59.008015 62.45105 -0.14597379
57.781017 62.070328 0
49.722095 59.569744 0.41750926
59.197849 62.50359 -0.82925737
59.568878 62.619205 -0.64025694
59.507 62.599926 -0.52126914
59.405254 62.568218 -0.40116936
59.19873 62.503864 -0.28026786
59.014847 62.446564 -0.14582878
57.793282 62.06591 0
49.702656 59.544769 0.4182348
59.06287 62.454983 -0.85288745
59.570549 62.613853 -0.64025694
59.498985 62.591457 -0.52239603
59.397198 62.559605 -0.40202448
59.200542 62.498062 -0.28026786
59.011772 62.438992 -0.14597379
57.785698 62.055305 0
64 64 0
59.111893 62.463833 -0.84473938
59.553082 62.602486 -0.64302558
59.520084 62.592117 -0.52014446
59.379349 62.547886 -0.40373635
59.241821 62.504665 -0.27796263
59.008709 62.431408 -0.14611878
57.788055 62.047798 0
49.723373 59.513344 0.41794479
58.958191 62.408836 -0.87163246
59.554771 62.597115 -0.64302558
59.507263 62.582119 -0.52183151
59.376217 62.54076 -0.4041639
59.238701 62.497364 -0.27825063
58.985817 62.417553 -0.14684489
64 64 0
64 64 0
59.09206 62.444561 -0.84881341
59.589939 62.602348 -0.63818246
59.499283 62.57362 -0.52295834
59.39756 62.541382 -0.40245205
59.196144 62.477547 -0.28084499
58.98278 62.409927 -0.1469899
57.862244 62.054802 0
64 64 0
59.060966 62.428135 -0.85451895
59.577301 62.592461 -0.64025694
59.501011 62.56818 -0.52295834
59.399326 62.53582 -0.40245205
59.266991 62.493702 -0.27680945
64 64 -0
57.854691 62.044235 0
49.705078 59.450592 0.41896036
59.124077 62.44173 -0.84392518
59.559887 62.581009 -0.64302558
59.526939 62.57048 -0.52014446
59.4011 62.530262 -0.40245205
59.199837 62.465942 -0.28084499
64 64 -0
57.881844 62.044731 0
64 64 0
59.201271 62.460007 -0.83088571
59.571152 62.578709 -0.64164263
59.494816 62.554211 -0.52408302
59.368652 62.513721 -0.40544823
59.216476 62.464886 -0.27997985
64 64 -0
57.874287 62.034157 0
49.706207 59.41288 0.41925091
59.221954 62.460274 -0.82762587
59.5681 62.571819 -0.6423341
59.486881 62.545647 -0.5252099
59.399765 62.517574 -0.40288123
59.213417 62.457523 -0.28026786
59.020214 62.395264 -0.14611878
57.931168 62.044319 0
49.711761 59.395615 0.41925091
59.26992 62.472576 -0.8194778
59.559406 62.566055 -0.64371973
59.482929 62.541363 -0.52577221
59.395779 62.513218 -0.40330881
59.253712 62.467342 -0.27796263
59.011284 62.389057 -0.14640933
64 64 0
64 64 0
59.25296 62.460762 -0.82273763
59.565929 62.562244 -0.64302558
59.489525 62.537472 -0.5252099
59.412235 62.512409 -0.40202448
59.235886 62.455227 -0.2791158
59.028069 62.38784 -0.14597379
58.04364 62.068638 0
49.690475 59.360111 0.42012146
59.513329 62.539196 -0.77791691
59.558117 62.553776 -0.64441127
59.46714 62.524155 -0.52802378
59.42379 62.51004 -0.40116936
59.247601 62.452679 -0.27853867
59.039894 62.385052 -0.14568378
58.041031 62.059834 0
49.676331 59.336388 0.42070204
59.383556 62.490772 -0.80073279
59.578945 62.554649 -0.64164263
59.488247 62.524998 -0.52577221
59.371929 62.486969 -0.40587577
59.249474 62.446938 -0.27853867
59.056671 62.383904 -0.14524822
64 64 0
49.686909 59.320698 0.42055702
59.371288 62.480568 -0.80317849
59.566387 62.544609 -0.64371973
59.504524 62.524303 -0.52408302
59.398144 62.489384 -0.40373635
59.216946 62.429901 -0.28055698
59.068497 62.381172 -0.14495823
58.035839 62.042187 0
49.677757 59.298542 0.42099258
59.499874 62.51675 -0.78117675
59.587212 62.545536 -0.6409511
59.482162 62.510914 -0.5268991
59.390213 62.480606 -0.40459311
59.238499 62.430599 -0.27940381
59.060593 62.371964 -0.14524822
58.028332 62.031727 0
49.673584 59.277988 0.42128259
59.389057 62.474045 -0.80073279
59.546104 62.52602 -0.6471799
59.503265 62.511841 -0.52464753
59.38718 62.473427 -0.40502065
59.240398 62.42485 -0.27940381
59.062565 62.365997 -0.14524822
64 64 0
64 64 0
59.475334 62.496529 -0.78606498
59.56218 62.525387 -0.64510274
59.500248 62.50481 -0.5252099
59.359806 62.458141 -0.40758765
59.242306 62.419098 -0.27940381
59.079342 62.364948 -0.14481267
64 64 0
64 64 0
59.547478 62.514526 -0.77384287
59.563965 62.520027 -0.64510274
59.497242 62.497765 -0.52577221
59.37627 62.457405 -0.40630499
59.214787 62.40353 -0.28113303
59.066528 62.354069 -0.14524822
58.144119 62.046329 0
64 64 0
59.647705 62.542118 -0.75672936
59.537201 62.505104 -0.64925706
59.4846 62.487484 -0.52746141
59.373272 62.450191 -0.40673253
59.260857 62.412537 -0.27853867
59.073441 62.349758 -0.14510323
58.097141 62.022728 0
64 64 0
59.686951 62.549465 -0.75020963
59.553284 62.504509 -0.6471799
59.500885 62.486889 -0.52577221
59.394615 62.451149 -0.40502065
59.228455 62.395267 -0.28055698
59.040974 62.332214 -0.14611878
64 64 0
64 64 0
59.52948 62.49049 -0.77791691
59.555092 62.499138 -0.6471799
59.47382 62.471695 -0.52915061
59.396488 62.445587 -0.40502065
59.235313 62.391163 -0.28026786
59.062668 62.332867 -0.14553878
64 64 0
64 64 0
59.681114 62.535877 -0.75183803
59.552162 62.492161 -0.64787138
59.490112 62.471123 -0.52746141
59.393513 62.438377 -0.40544823
59.242153 62.387066 -0.27997985
59.054852 62.32357 -0.14582878
64 64 0
64 64 0
59.645451 62.517918 -0.7583577
59.563477 62.490017 -0.64648843
59.472717 62.459126 -0.52971298
59.390549 62.43116 -0.40587577
59.195126 62.364647 -0.28286332
59.04705 62.314251 -0.14611878
64 64 0
49.655945 59.117962 0.42316926
59.595787 62.495071 -0.76732314
59.565304 62.484657 -0.64648843
59.484211 62.456947 -0.52858615
59.426441 62.437206 -0.40288123
59.162853 62.347137 -0.28488055
59.063831 62.313301 -0.14568378
64 64 0
49.647099 59.095589 0.42360482
59.578903 62.483337 -0.77058297
59.548157 62.472786 -0.64925706
59.481258 62.449837 -0.52915061
59.404057 62.423355 -0.40502065
59.194202 62.351364 -0.28315133
59.056049 62.30397 -0.14597379
64 64 0
49.653034 59.078251 0.42360482
59.459229 62.436146 -0.79177052
59.55476 62.469048 -0.64856291
59.463932 62.437767 -0.53140002
59.41568 62.42115 -0.4041639
59.196198 62.345558 -0.28315133
59.07283 62.30307 -0.14553878
64 64 0
49.658993 59.060917 0.42360482
59.586346 62.476944 -0.76976568
59.565163 62.469631 -0.6471799
59.508106 62.449944 -0.52633458
59.406921 62.415028 -0.40502065
59.216759 62.349407 -0.28199816
59.054226 62.29332 -0.14611878
64 64 0
49.647236 59.047169 0.42404038
59.597523 62.474842 -0.76813734
59.543316 62.456066 -0.65064007
59.481163 62.434532 -0.52971298
59.403992 62.407799 -0.40544823
59.20409 62.338547 -0.28286332
59.071007 62.292442 -0.14568378
64 64 0
49.658157 59.031536 0.42389482
59.594704 62.467903 -0.76895148
59.549919 62.452328 -0.64994854
59.483059 62.429073 -0.52971298
59.38168 62.393814 -0.40758765
59.254967 62.349747 -0.27997985
59.043633 62.276249 -0.14655434
58.154625 61.967064 0
49.654343 59.010792 0.4241854
59.559223 62.449547 -0.77547121
59.57074 62.453568 -0.6471799
59.480167 62.421944 -0.53027534
59.417538 62.400078 -0.40459311
59.286259 62.354244 -0.27825063
59.055523 62.273685 -0.14626434
64 64 0
49.640755 58.98661 0.42476594
59.645061 62.47361 -0.7608034
59.563152 62.444901 -0.64856291
59.482079 62.416485 -0.53027534
59.424335 62.396244 -0.4041639
59.234566 62.329731 -0.28142104
59.067432 62.271152 -0.14597379
64 64 0
49.641926 58.967545 0.42491093
59.59095 62.448658 -0.77058297
59.560287 62.43787 -0.64925706
59.474415 62.407658 -0.53140002
59.402046 62.382191 -0.40630499
59.231693 62.322254 -0.28171015
59.069523 62.265194 -0.14597379
64 64 0
49.638203 58.946747 0.42520151
59.620804 62.453213 -0.76569164
64 64 -0
59.471539 62.40049 -0.53196454
59.413696 62.380062 -0.40544823
59.184956 62.299267 -0.28459251
59.052021 62.252312 -0.14655434
64 64 0
49.629631 58.92421 0.4256365
59.58075 62.43306 -0.77302557
59.540436 62.418762 -0.65271717
59.497417 62.403511 -0.52915061
59.405968 62.371086 -0.40630499
59.211388 62.302094 -0.28315133
59.054138 62.246338 -0.14655434
64 64 0
49.630882 58.905113 0.42578149
59.615234 62.439316 -0.76732314
59.551811 62.416744 -0.65133154
59.475414 62.389553 -0.53196454
59.412792 62.367264 -0.40587577
59.213444 62.296307 -0.28315133
59.051369 62.238621 -0.14669934
64 64 0
49.617462 58.880783 0.42636207
59.668331 62.452316 -0.7583577
59.563168 62.414745 -0.64994854
59.467804 62.380669 -0.53308922
59.419598 62.363445 -0.40544823
59.244743 62.300972 -0.28142104
59.043705 62.229141 -0.1469899
64 64 0
64 64 0
59.516659 62.392014 -0.78525078
59.498974 62.385674 -0.65963751
59.464985 62.373482 -0.53365153
59.382915 62.344048 -0.40887195
59.222439 62.286491 -0.28286332
59.045845 62.223156 -0.1469899
57.660152 61.726166 0
64 64 0
59.658127 62.436829 -0.7608034
59.524529 62.388733 -0.65617734
59.486076 62.374889 -0.53140002
59.404243 62.345425 -0.4071601
59.278057 62.299995 -0.27969182
59.018669 62.206612 -0.14786045
57.609032 61.699108 0
49.621441 58.823402 0.4267976
59.604233 62.411423 -0.77058297
59.521767 62.381622 -0.65686882
59.468929 62.362526 -0.53365153
59.377285 62.329407 -0.40972707
59.221733 62.273193 -0.28315133
59.079491 62.221786 -0.14611878
57.562874 61.673702 0
49.617924 58.802494 0.42708817
59.564335 62.390942 -0.77791691
59.53788 62.381348 -0.65479171
59.475681 62.358784 -0.53308922
59.403435 62.332577 -0.40758765
59.25787 62.27977 -0.28113303
59.066982 62.210526 -0.14655434
57.585258 61.673027 0
49.619331 58.783348 0.42723316
59.533783 62.373749 -0.78361928
59.553967 62.3811 -0.65271717
59.477669 62.353317 -0.53308922
59.381336 62.318241 -0.40972707
59.211334 62.25634 -0.28401649
59.074024 62.206345 -0.14640933
57.553837 61.652809 0
49.625648 58.765976 0.42723316
59.614674 62.397202 -0.76976568
59.471107 62.34473 -0.66517478
59.493984 62.353092 -0.53140002
59.378532 62.310894 -0.41015628
59.228024 62.255882 -0.28315133
59.06155 62.195038 -0.14684489
57.625111 61.670033 0
49.597828 58.73613 0.42824873
59.583145 62.382652 -0.77547121
59.547497 62.369598 -0.65410018
59.475895 62.34338 -0.53365153
59.340988 62.29398 -0.41358
59.219376 62.249447 -0.28372738
59.057766 62.190269 -0.1469899
57.685169 61.687656 0
64 64 0
59.575832 62.373909 -0.77709961
59.511791 62.350372 -0.65963751
59.449272 62.327393 -0.53702992
59.376789 62.300751 -0.41058382
59.236046 62.24902 -0.28286332
59.074593 62.189678 -0.14655434
57.712391 61.689007 0
49.602501 58.708237 0.42839429
59.549965 62.358295 -0.78199095
59.51379 62.344948 -0.65963751
59.460838 62.325417 -0.5359031
59.383659 62.29694 -0.41015628
59.199337 62.228943 -0.28516966
59.076782 62.183731 -0.14655434
57.646832 61.656193 0
49.599163 58.687252 0.42868429
59.565865 62.35807 -0.77954525
59.501671 62.334301 -0.66171461
59.458088 62.318161 -0.53646761
59.414616 62.302067 -0.40758765
59.25 62.241108 -0.2822862
59.083851 62.179585 -0.14640933
57.703365 61.6684 0
49.586098 58.662636 0.42926484
59.604919 62.366493 -0.77302557
59.498989 62.327122 -0.66240615
59.455364 62.310905 -0.53702992
59.38298 62.284004 -0.41058382
59.252129 62.235371 -0.2822862
59.076321 62.170029 -0.14669934
57.764713 61.682549 0
49.602291 58.648842 0.42897484
59.542049 62.33699 -0.78443664
59.510406 62.325188 -0.66102314
59.452652 62.303642 -0.53759229
59.370621 62.273041 -0.41186816
59.244564 62.226017 -0.28286332
59.063923 62.15863 -0.1471349
57.694382 61.647732 0
49.589291 58.624184 0.42955542
59.576469 62.343742 -0.77873111
64 64 -0
59.478497 62.307056 -0.53477842
59.372711 62.267448 -0.41186816
59.203114 62.203949 -0.28545767
59.080757 62.158134 -0.14669934
57.633865 61.61639 0
49.595798 58.606773 0.42955542
59.569229 62.334923 -0.78035945
59.519176 62.316113 -0.66032898
59.46627 62.29623 -0.53646761
59.394032 62.269081 -0.41015628
59.282764 62.227268 -0.28084499
59.044067 62.137569 -0.14786045
57.651352 61.614185 0
49.578007 58.580235 0.43028095
59.538864 62.317356 -0.78606498
59.525906 62.312469 -0.65963751
59.454079 62.285378 -0.5381546
59.372112 62.254459 -0.4122957
59.246189 62.206966 -0.28315133
59.056038 62.135246 -0.14757046
57.771122 61.650604 0
49.574848 58.559147 0.43057096
59.554775 62.317219 -0.78361928
59.499802 62.29641 -0.66378909
59.460903 62.281685 -0.53759229
59.412636 62.263412 -0.40887195
59.287064 62.215874 -0.28084499
59.07288 62.134796 -0.1471349
57.851852 61.672562 0
49.576576 58.539883 0.43071595
59.558853 62.30648 -0.78361928
64 64 -0
59.446075 62.263477 -0.5398438
59.378471 62.237698 -0.4122957
59.243061 62.186062 -0.28372738
59.06768 62.119186 -0.14742546
64 64 0
49.575241 58.499485 0.43115151
59.607059 62.318783 -0.77547121
64 64 -0
59.438675 62.254341 -0.54097068
59.371021 62.228447 -0.41315082
59.264584 62.187714 -0.28257421
59.079674 62.116947 -0.1471349
57.840885 61.642849 0
49.557636 58.472775 0.43187708
59.572178 62.299297 -0.78199095
64 64 -0
59.43605 62.247009 -0.54153299
59.358784 62.217331 -0.41443512
59.242619 62.172714 -0.28401649
59.077106 62.109142 -0.1472799
58.042946 61.711926 0
49.57402 58.459053 0.43158707
59.592686 62.30106 -0.77873111
64 64 -0
59.438171 62.241497 -0.54153299
59.408836 62.230186 -0.41015628
59.196571 62.148361 -0.28689885
59.093929 62.108795 -0.14684489
58.118553 61.732807 0
49.571037 58.437889 0.43187708
59.561432 62.285931 -0.78443664
64 64 -0
59.439232 62.238739 -0.54153299
59.376396 62.214474 -0.41315082
59.216991 62.152916 -0.28574568
59.051445 62.088985 -0.14815101
58.241306 61.776127 0
49.564693 58.425426 0.43216762
59.517422 62.262707 -0.79258472
64 64 -0
59.446098 62.235065 -0.54097068
59.412052 62.22187 -0.41015628
59.267452 62.165829 -0.28286332
59.053757 62.083008 -0.14815101
58.598263 61.906471 0
49.56176 58.404236 0.43245763
59.570206 62.277004 -0.78361928
64 64 -0
59.43877 62.225883 -0.54209536
59.395065 62.208881 -0.41186816
59.226288 62.143234 -0.28545767
59.046402 62.073269 -0.14844102
58.83849 61.992401 0
49.558834 58.383022 0.4327482
59.563072 62.268055 -0.78525078
64 64 -0
59.445648 62.222218 -0.54153299
59.378101 62.19585 -0.41358
59.194817 62.124306 -0.2874749
59.082607 62.080505 -0.14742546
59.107582 62.090256 0
49.555958 58.361801 0.4330382
59.574383 62.266304 -0.78361928
64 64 -0
59.433617 62.211163 -0.54322004
59.380283 62.190269 -0.41358
59.269321 62.146801 -0.28315133
49.610939 58.363216 -0.43159378
58.954807 62.023594 0
49.55793 58.342449 0.43318376
59.553467 62.251911 -0.78769648
64 64 -0
59.435783 62.205647 -0.54322004
59.372925 62.180935 -0.41443512
59.228237 62.124054 -0.28574568
49.675797 58.368652 -0.4298521
58.908768 61.998459 0
49.555111 58.321205 0.43347374
59.546394 62.242912 -0.78932488
64 64 -0
59.433212 62.198261 -0.54378456
59.389462 62.181 -0.41315082
59.249756 62.125881 -0.28459251
49.682613 58.351349 -0.4298521
58.872456 61.977024 0
49.561985 58.303757 0.43347374
59.539337 62.233898 -0.79095322
64 64 -0
59.435394 62.192745 -0.54378456
59.372566 62.16787 -0.41486269
59.252026 62.120144 -0.28459251
49.679794 58.330231 -0.4301421
58.962006 62.005318 0
49.549549 58.278664 0.43405432
59.601189 62.252235 -0.78035945
64 64 -0
59.432861 62.185356 -0.54434687
59.336613 62.147114 -0.41828641
59.249496 62.112499 -0.28488055
49.691483 58.314846 -0.42999709
58.993454 62.010765 0
49.546822 58.25737 0.43434432
59.488518 62.201153 -0.80073279
64 64 -0
59.444508 62.183605 -0.54322004
59.381771 62.158592 -0.41443512
59.20372 62.087597 -0.28776401
49.703182 58.299484 -0.4298521
58.894333 61.964237 0
49.558594 58.241837 0.4341993
59.554939 62.221409 -0.78932488
64 64 -0
59.446709 62.178104 -0.54322004
59.374458 62.149197 -0.41529188
59.287678 62.114471 -0.28286332
49.690781 58.27449 -0.43043265
64 64 0
49.541443 58.214737 0.43492487
59.538742 62.208672 -0.79258472
64 64 -0
59.439472 62.168812 -0.54434687
59.362419 62.137875 -0.41657454
59.261166 62.097218 -0.28459251
49.697708 58.257206 -0.43043265
64 64 0
49.538788 58.193394 0.43521541
59.591347 62.223606 -0.78361928
64 64 -0
59.436977 62.161407 -0.54490924
59.355141 62.128429 -0.41743129
59.258675 62.089561 -0.28488055
57.248047 61.279411 -0.20330122
64 64 0
49.545815 58.175926 0.43521541
59.556835 62.203457 -0.79013902
64 64 -0
59.458046 62.163513 -0.54265767
59.362175 62.124748 -0.41700211
59.265778 62.08577 -0.28459251
57.251343 61.271255 -0.20330122
58.894569 61.935677 0
49.557678 58.160412 0.43507043
59.531517 62.186935 -0.79503042
64 64 -0
59.4226 62.142742 -0.5471608
59.340645 62.109489 -0.41914317
59.24892 62.072273 -0.28574568
57.240211 61.257248 -0.20373623
58.9212 61.939301 0
49.564743 58.142963 0.43507043
59.501678 62.168495 -0.80073279
64 64 -0
59.415424 62.133377 -0.54828763
59.371471 62.115482 -0.41657454
59.236877 62.06068 -0.28661084
57.24353 61.249081 -0.20373623
64 64 0
49.557404 58.119652 0.43550542
59.557709 62.188179 -0.79095322
64 64 -0
59.454197 62.145958 -0.54378456
59.334579 62.097172 -0.41999829
59.276367 62.073429 -0.2843045
57.264442 61.25285 -0.20315567
58.944221 61.937962 0
49.556137 58.108959 0.43565097
59.527874 62.169704 -0.79665875
64 64 -0
59.42823 62.128922 -0.5471608
59.384392 62.110981 -0.41571945
59.269135 62.063808 -0.28488055
57.238899 61.232899 -0.20402679
58.951527 61.933823 0
49.553654 58.087578 0.43594098
59.502644 62.15303 -0.80155009
64 64 -0
59.421082 62.119534 -0.54828763
59.362934 62.095654 -0.41785887
59.228413 62.040409 -0.2874749
57.251869 61.228683 -0.20373623
58.944389 61.923767 0
49.546379 58.064201 0.43637654
59.53231 62.158901 -0.79665875
64 64 -0
59.42807 62.115944 -0.54772311
59.374741 62.093967 -0.41700211
59.22599 62.032669 -0.28776401
57.255222 61.220535 -0.20373623
58.946903 61.91766 0
49.553566 58.046745 0.43637654
59.493431 62.136505 -0.80399269
64 64 -0
59.430351 62.110424 -0.54772311
59.36755 62.084454 -0.41785887
59.24749 62.034809 -0.28661084
57.27298 61.218338 -0.20330122
58.944618 61.909569 0
49.546375 58.023338 0.43681154
59.477421 62.123486 -0.80725253
64 64 -0
59.437325 62.10685 -0.5471608
59.33667 62.065083 -0.42085505
59.240322 62.025108 -0.28718689
57.247555 61.198265 -0.20417178
64 64 0
49.567993 58.011848 0.43637654
59.525318 62.137016 -0.79910445
64 64 -0
59.425537 62.095474 -0.54885
59.353233 62.065372 -0.41957074
64 64 -0
57.260532 61.194099 -0.20388179
58.916042 61.88335 0
49.565651 57.990425 0.43666655
59.500214 62.120182 -0.80399269
64 64 -0
59.437229 62.093872 -0.54772311
59.360306 62.061737 -0.41914317
64 64 -0
57.259136 61.183956 -0.20402679
58.913803 61.875206 0
49.596897 57.983002 0.43594098
59.53896 62.130035 -0.79747295
64 64 -0
59.416088 62.078529 -0.5505392
59.367401 62.058121 -0.41871399
64 64 -0
57.238583 61.165771 -0.20475234
58.930782 61.875099 0
49.50832 57.925423 0.43884376
59.513874 62.113144 -0.80236429
64 64 -0
59.418415 62.072994 -0.5505392
59.355549 62.046551 -0.41999829
64 64 -0
57.218067 61.14753 -0.20547789
58.918953 61.862923 0
49.472561 57.889786 0.44014987
59.49794 62.100037 -0.80562413
64 64 -0
59.434795 62.073387 -0.54885
59.348442 62.036945 -0.42085505
64 64 -0
57.245453 61.149437 -0.20475234
58.935932 61.862858 0
49.523041 57.890419 0.43884376
59.522995 62.104233 -0.80155009
64 64 -0
59.423084 62.061928 -0.5505392
59.35556 62.033333 -0.42042583
59.211899 61.9725 -0.28978124
57.253685 61.143303 -0.20460734
58.919346 61.848621 0
49.501732 57.860775 0.43971434
59.52985 62.100765 -0.80073279
64 64 -0
59.416084 62.052429 -0.55166388
59.353199 62.025711 -0.42085505
59.223866 61.970757 -0.28920519
57.218876 61.118896 -0.20576845
58.941113 61.850624 0
49.485249 57.833103 0.44043988
59.495773 62.079857 -0.80725253
64 64 -0
59.42778 62.050873 -0.5505392
59.346153 62.016075 -0.42171016
59.235847 61.969051 -0.28862807
57.246262 61.120892 -0.2050429
58.94371 61.844513 0
49.468796 57.805374 0.44116601
59.488998 62.070522 -0.80888402
64 64 -0
59.420803 62.041355 -0.55166388
59.339104 62.006409 -0.42256692
59.271584 61.977528 -0.28661084
57.235424 61.106609 -0.20547789
58.931957 61.832264 0
64 64 0
59.554935 62.092369 -0.79747295
64 64 -0
59.409161 62.029808 -0.55335307
59.36512 62.01091 -0.42042583
59.269279 61.96978 -0.28689885
57.219822 61.09024 -0.20605846
58.915451 61.817928 0
49.464722 57.762085 0.441746
59.519756 62.074066 -0.80399269
64 64 -0
59.424362 62.033058 -0.55166388
59.35688 62.004051 -0.42128259
59.270508 61.966923 -0.28689885
57.212021 61.082035 -0.20634902
58.89764 61.806637 0
49.454166 57.747147 0.44218156
59.508469 62.062778 -0.80643833
64 64 -0
59.398754 62.015461 -0.55504006
59.354584 61.99641 -0.42171016
59.239716 61.946865 -0.28891718
57.225105 61.077957 -0.20605846
58.919411 61.80872 0
49.461731 57.729576 0.44218156
59.501747 62.053432 -0.80806673
64 64 -0
59.415134 62.015949 -0.55335307
59.35701 61.990799 -0.42171016
59.261189 61.949333 -0.28776401
57.238171 61.073895 -0.20576845
58.931625 61.806721 0
49.450241 57.703758 0.44276211
59.481419 62.038147 -0.81214386
64 64 -0
59.431522 62.016487 -0.55166388
59.354736 61.983147 -0.42213771
59.292149 61.955975 -0.28603372
57.21788 61.055382 -0.20649402
58.929493 61.798519 0
49.457859 57.68618 0.44276211
59.538174 62.056381 -0.80236429
64 64 -0
59.429268 62.008938 -0.55222619
59.361877 61.979584 -0.42171016
59.318329 61.960613 -0.28459251
57.211926 61.043041 -0.20678401
58.922623 61.788239 0
49.455963 57.664459 0.44305268
59.526951 62.045059 -0.80480683
64 64 -0
59.422356 61.999344 -0.55335307
59.350204 61.967812 -0.42299446
59.306572 61.948742 -0.28545767
57.205971 61.030674 -0.20707457
58.93961 61.788361 0
49.463627 57.646889 0.44305268
59.511208 62.031715 -0.80806673
64 64 -0
59.44339 62.001976 -0.55110151
59.366776 61.96838 -0.42171016
59.332737 61.953457 -0.28401649
57.214317 61.024551 -0.20692958
58.918438 61.77179 0
49.46656 57.627247 0.44319767
59.513588 62.026291 -0.80806673
64 64 -0
59.417908 61.9842 -0.55447775
59.359825 61.958645 -0.42256692
59.325752 61.943657 -0.28459251
57.232193 61.022636 -0.20649402
58.906857 61.759369 0
49.455242 57.601318 0.44377825
59.506924 62.016876 -0.80969822
64 64 -0
59.429638 61.982765 -0.55335307
59.357601 61.95097 -0.42299446
59.280926 61.917126 -0.2874749
57.221527 61.008163 -0.20692958
58.919083 61.757416 0
49.462982 57.583748 0.44377825
59.495758 62.005444 -0.81214386
64 64 -0
59.41349 61.969013 -0.55560458
59.360081 61.945362 -0.42299446
59.359108 61.944931 -0.28286332
57.210907 60.993668 -0.20736457
58.93132 61.755501 0
49.470749 57.566189 0.44377825
59.534313 62.016056 -0.80562413
64 64 -0
59.429886 61.969666 -0.55391538
59.362568 61.939758 -0.42299446
59.375782 61.945625 -0.28199816
57.228779 60.991791 -0.20692958
58.938789 61.751488 0
49.464298 57.542313 0.44421324
59.509632 61.998592 -0.81051236
64 64 -0
59.427704 61.962074 -0.55447775
59.365059 61.934155 -0.42299446
59.382988 61.942146 -0.28171015
57.203945 60.970921 -0.20780014
58.917744 61.734779 0
49.472111 57.524754 0.44421324
59.521069 61.9972 -0.80888402
64 64 -0
59.420883 61.9524 -0.55560458
59.358192 61.92437 -0.42384958
59.347698 61.919674 -0.28401649
57.236069 60.975437 -0.20692958
58.920486 61.728642 0
49.489426 57.511444 0.44392323
59.514481 61.987747 -0.81051236
64 64 -0
59.418728 61.94479 -0.55616695
59.360706 61.918762 -0.42384958
59.336067 61.907707 -0.28488055
57.211285 60.954506 -0.20780014
58.913727 61.718239 0
49.464081 57.479023 0.44493935
59.503387 61.976238 -0.81295806
64 64 -0
59.411957 61.935089 -0.55729163
59.358547 61.911053 -0.42427713
59.315018 61.89146 -0.28632173
57.196014 60.937775 -0.20838068
58.921246 61.714237 0
49.495678 57.472134 0.44421324
59.510338 61.972839 -0.81214386
64 64 -0
59.428337 61.935814 -0.55560458
59.365749 61.907555 -0.42384958
59.369419 61.90921 -0.28315133
57.204453 60.931694 -0.2082357
58.924011 61.708103 0
49.456203 57.433224 0.44566491
59.507065 61.968094 -0.81295806
64 64 -0
59.415707 61.926777 -0.55729163
59.343628 61.89418 -0.425989
59.332973 61.889362 -0.28545767
57.220516 60.934013 -0.20780014
58.9254 61.705036 0
49.507534 57.445858 0.44421324
59.509521 61.962666 -0.81295806
64 64 -0
59.413574 61.919132 -0.55785614
59.346176 61.888554 -0.425989
59.377922 61.902958 -0.28286332
57.157978 60.895767 -0.2098318
58.937645 61.703205 0
49.501263 57.421906 0.4446488
59.511986 61.957241 -0.81295806
64 64 -0
59.420731 61.915703 -0.55729163
59.367424 61.891441 -0.42427713
59.375755 61.895233 -0.28315133
57.109699 60.863819 -0.21142848
58.91674 61.68631 0
58.008572 61.272949 0.18384668
59.536938 61.962082 -0.80888402
64 64 -0
59.418617 61.908054 -0.55785614
59.360626 61.881577 -0.42513388
59.340656 61.872459 -0.28545767
59.28326 61.846249 -0.14481267
58.905334 61.673683 0
58.087509 61.300247 0.18152446
59.534912 61.954636 -0.80969822
64 64 -0
59.407299 61.896179 -0.55954313
59.358524 61.873837 -0.42556146
59.380856 61.884064 -0.28315133
59.300026 61.847038 -0.14437766
58.93655 61.680538 0
58.038799 61.269295 0.18312111
59.559841 61.95956 -0.80562413
64 64 -0
59.4006 61.886383 -0.56067002
59.347095 61.861794 -0.42684576
59.312923 61.846092 -0.2874749
59.212925 61.800137 -0.1471349
58.910969 61.661377 0
58.060989 61.270775 0.18254057
59.535385 61.941784 -0.81051236
64 64 -0
59.426228 61.891464 -0.55785614
59.363674 61.862625 -0.42556146
59.353092 61.857746 -0.28516966
59.338284 61.850922 -0.14336155
58.927986 61.66177 0
58.116211 61.287537 0.18094389
59.497498 61.917717 -0.8178463
64 64 -0
59.414955 61.879543 -0.55954313
59.352276 61.850555 -0.42684576
59.313431 61.832592 -0.28776401
59.288994 61.821289 -0.14495823
58.940254 61.660007 0
58.124207 61.282608 0.18079889
59.526913 61.924759 -0.81295806
64 64 -0
59.408295 61.869724 -0.56067002
59.350224 61.842785 -0.42727333
59.297283 61.818222 -0.28891718
59.253933 61.798111 -0.14611878
58.919479 61.642944 0
58.221779 61.319252 0.1778961
59.529427 61.919353 -0.81295806
64 64 -0
59.415474 61.866322 -0.56010765
59.371452 61.845833 -0.42556146
59.309311 61.816914 -0.28834006
59.322552 61.823074 -0.14408711
58.922333 61.636806 0
58.173191 61.288151 0.17949277
59.518501 61.907677 -0.81540376
64 64 -0
59.413456 61.858635 -0.56067002
59.3601 61.833725 -0.42684576
59.288521 61.800304 -0.28978124
59.414642 61.859188 -0.14132987
58.929901 61.632874 0
58.237682 61.309689 0.17760611
59.47884 61.875839 -0.82355183
64 64 -0
59.423237 61.849716 -0.56010765
59.351402 61.815964 -0.42813009
59.289158 61.78672 -0.29007035
59.330475 61.806133 -0.14408711
58.912086 61.609562 0
58.295944 61.320084 0.17600943
59.543999 61.899876 -0.81214386
64 64 -0
59.416656 61.839859 -0.56123233
59.354046 61.810349 -0.42813009
59.254417 61.763397 -0.29237559
59.403629 61.833717 -0.14191043
58.952644 61.62117 0
58.299187 61.313194 0.17600943
59.546539 61.894493 -0.81214386
64 64 -0
59.423859 61.836491 -0.56067002
59.356693 61.804737 -0.42813009
59.275829 61.766506 -0.29122242
59.392166 61.82151 -0.14234543
56.278168 60.349274 0
58.33062 61.31963 0.17513888
59.531223 61.880642 -0.81540376
64 64 -0
59.417301 61.826614 -0.5617947
59.359352 61.799129 -0.42813009
59.273846 61.758579 -0.29151154
59.376022 61.807037 -0.14292599
56.33432 60.364483 0
58.32917 61.310558 0.17528386
59.523582 61.873703 -0.8170321
64 64 -0
59.418613 61.823845 -0.5617947
59.36068 61.796326 -0.42813009
59.23782 61.737968 -0.29381788
59.424282 61.826534 -0.14147487
56.284798 60.335281 0
58.349575 61.316051 0.17470331
59.539547 61.87468 -0.8145864
64 64 -0
59.398315 61.807384 -0.56460857
59.358715 61.788517 -0.42855763
59.231224 61.727768 -0.2943939
59.394066 61.805359 -0.142491
56.355026 60.357311 0
58.376274 61.3204 0.17397775
59.506439 61.852238 -0.82110614
64 64 -0
59.414707 61.808392 -0.56292152
59.361393 61.782909 -0.42855763
59.16396 61.688545 -0.29871857
59.410789 61.806519 -0.14205544
56.340649 60.3391 0
58.384201 61.315845 0.17383276
59.540226 61.861763 -0.81540376
64 64 -0
59.421955 61.805058 -0.56235707
59.354824 61.772873 -0.42941275
59.218071 61.707306 -0.29554707
59.418125 61.803223 -0.14191043
56.368538 60.341095 0
58.415573 61.322548 0.17296164
59.520542 61.845665 -0.8194778
64 64 -0
59.420017 61.797318 -0.56292152
59.348255 61.762806 -0.43026951
64 64 -0
59.411427 61.793186 -0.14220044
56.34483 60.318348 0
58.437546 61.32481 0.17238107
59.491997 61.825226 -0.82518017
64 64 -0
59.41811 61.789581 -0.56348389
59.369461 61.766109 -0.42855763
64 64 -0
59.456219 61.807964 -0.14089432
56.368034 60.318146 0
58.440784 61.318092 0.17238107
59.499073 61.82193 -0.82436603
64 64 -0
59.416214 61.781834 -0.56404626
59.376778 61.762749 -0.42813009
59.254345 61.703503 -0.29381788
59.39806 61.773048 -0.14278099
56.37249 60.308926 0
58.439335 61.309105 0.17252664
59.519497 61.825127 -0.82110614
64 64 -0
59.432617 61.782955 -0.56235707
59.361012 61.748199 -0.42984194
64 64 -0
59.414787 61.7743 -0.14234543
56.330124 60.276981 0
58.484665 61.322811 0.17122053
59.535446 61.826202 -0.8186636
64 64 -0
59.412441 61.766308 -0.56517309
59.377586 61.74934 -0.42855763
59.245968 61.685253 -0.29468194
59.422146 61.771034 -0.14220044
56.37674 60.288219 0
58.515945 61.329803 0.1703494
59.538078 61.820808 -0.8186636
64 64 -0
59.419724 61.763004 -0.56460857
59.371094 61.739254 -0.42941275
59.25341 61.681778 -0.2943939
59.457535 61.781471 -0.14118432
56.371887 60.274448 0
58.495834 61.311779 0.17107497
59.527409 61.808899 -0.82110614
64 64 -0
59.408733 61.750763 -0.56629777
59.359993 61.726883 -0.43069705
64 64 -0
59.441551 61.766838 -0.14176488
56.310963 60.233181 0
58.508411 61.3097 0.17078497
59.561104 61.818752 -0.81540376
64 64 -0
59.402325 61.74073 -0.56742465
59.358139 61.719017 -0.43112463
59.180107 61.631531 -0.29929462
59.500206 61.788826 -0.14002377
56.306168 60.219296 0
58.539658 61.316822 0.16991384
59.537148 61.800282 -0.820292
64 64 -0
59.427864 61.746414 -0.56460857
59.374699 61.720211 -0.42984194
59.233997 61.65086 -0.29612422
59.470264 61.767315 -0.14103931
56.310741 60.210003 0
58.538231 61.307922 0.17005941
59.508785 61.779552 -0.82599753
64 64 -0
59.41692 61.734135 -0.56629777
59.359047 61.705524 -0.43155381
59.222942 61.638233 -0.29698828
59.4916 61.771057 -0.14045876
56.32933 60.207638 0
58.569447 61.315147 0.16918829
59.520336 61.778526 -0.82436603
64 64 -0
59.405998 61.721825 -0.56798697
59.366436 61.702206 -0.43112463
59.179443 61.609474 -0.29987174
59.4617 61.749447 -0.14147487
56.329258 60.19606 0
58.582001 61.313202 0.16889828
59.477398 61.753826 -0.83251721
64 64 -0
59.398281 61.714531 -0.56911165
59.349434 61.690269 -0.43283647
59.199425 61.615768 -0.29871857
59.481678 61.755951 -0.14089432
56.326881 60.189106 0
58.611557 61.323803 0.16802718
59.524372 61.770409 -0.82436603
64 64 -0
59.414677 61.715763 -0.56742465
59.366001 61.691513 -0.43155381
59.225471 61.62151 -0.29727629
59.479748 61.74818 -0.14103931
64 64 0
58.596191 61.308025 0.16860773
59.50938 61.756165 -0.82762587
64 64 -0
59.403816 61.703419 -0.56911165
59.368793 61.685917 -0.43155381
59.219086 61.611111 -0.29785341
59.477825 61.740398 -0.14118432
64 64 0
58.599445 61.301498 0.16860773
59.520927 61.755165 -0.82599753
64 64 -0
59.415672 61.702415 -0.56798697
59.357834 61.673428 -0.43283647
59.203476 61.596066 -0.29900658
59.48056 61.734936 -0.14118432
64 64 0
58.611996 61.299625 0.16831774
59.550148 61.763081 -0.82110614
64 64 -0
59.413918 61.694595 -0.56854934
59.346886 61.6609 -0.4341208
59.220253 61.597244 -0.29814145
