# .PCD v0.7 - Point Cloud Data file format
VERSION 0.7
FIELDS x y z
SIZE 4 4 4
TYPE F F F
COUNT 1 1 1
WIDTH 1726
HEIGHT 1
VIEWPOINT 0 0 0 1 0 0 0
POINTS 1726
DATA ascii
67.532372 68.398216 -0.62483561
67.479752 68.332703 -0.46322092
67.485939 68.340408 -0.31024915
67.507217 68.366898 -0.15642327
64 64 0
64 64 0
67.747566 68.677727 -0.98816699
68.332405 69.407722 -0.95586675
67.501633 68.370758 -0.62033254
67.44883 68.304848 -0.4597972
67.470985 68.332497 -0.30938402
67.485695 68.350861 -0.1556977
69.376198 70.710594 0
64 64 0
67.707962 68.639771 -0.97920161
68.307076 69.389442 -0.95171511
67.521736 68.406746 -0.62483561
67.456451 68.32505 -0.46150905
67.459297 68.328613 -0.30880797
67.496658 68.375366 -0.15642327
69.475319 70.851257 0
64 64 0
67.665375 68.597862 -0.96942198
68.3162 69.414261 -0.95517528
67.4879 68.375237 -0.61977023
67.444824 68.321205 -0.46065396
67.457283 68.33683 -0.30909601
67.501091 68.391785 -0.15685883
69.34375 70.703217 0
64 64 0
67.71212 68.66806 -0.98327565
68.275299 69.376266 -0.94756085
67.485771 68.383423 -0.62033254
67.477936 68.373573 -0.46578792
67.46492 68.357201 -0.31024915
67.489319 68.387878 -0.15656883
69.393951 70.782997 0
64 64 0
67.666542 68.6222 -0.97268188
68.334274 69.463974 -0.96209556
67.467834 68.371704 -0.61808103
67.427986 68.321465 -0.4597972
67.453232 68.353287 -0.30967313
67.490463 68.40023 -0.15685883
69.340469 70.732422 0
64 64 0
67.691635 68.665398 -0.98083311
68.287201 69.41806 -0.95309812
67.484627 68.403793 -0.62202173
67.43869 68.345734 -0.46193662
67.444748 68.353386 -0.30938402
67.465805 68.379997 -0.15598826
69.422768 70.853165 0
90.976158 98.091827 1.2141384
67.652298 68.627167 -0.97186768
68.336609 69.494141 -0.96555835
67.482452 68.411987 -0.6225841
67.455704 68.378098 -0.4649328
67.436279 68.353493 -0.30909601
67.463722 68.38826 -0.15613326
69.35965 70.790245 0
64 64 0
67.665047 68.654877 -0.97675592
68.283409 69.440231 -0.95517528
67.467682 68.404205 -0.62089491
67.428177 68.354027 -0.46193662
67.424629 68.349518 -0.30851996
67.455208 68.388359 -0.15598826
69.290276 70.719025 0
64 64 0
67.668587 68.670967 -0.97920161
68.283035 69.453308 -0.95656091
67.465492 68.412384 -0.62145722
67.42926 68.366249 -0.46279338
67.419365 68.353653 -0.30851996
67.459526 68.404785 -0.15642327
69.311081 70.762245 0
64 64 0
67.635506 68.640381 -0.97186768
68.260963 69.438721 -0.95309812
67.466438 68.424576 -0.6225841
67.430313 68.378464 -0.4636485
67.401344 68.341492 -0.30736679
67.447792 68.400787 -0.15613326
69.331795 70.805534 0
91.025803 98.495888 1.2238623
67.684677 68.714867 -0.98653549
68.288376 69.48735 -0.96071255
67.486122 68.460793 -0.62708718
67.399727 68.350243 -0.46022475
67.408836 68.361908 -0.30851996
67.442474 68.404945 -0.15613326
69.342804 70.836586 0
64 64 0
67.654663 68.688126 -0.98001575
68.24781 69.448997 -0.95309812
67.465111 68.444969 -0.6242733
67.407089 68.370544 -0.46193662
67.397194 68.357857 -0.30794284
67.449928 68.425499 -0.15671383
69.286537 70.781456 0
64 64 0
67.6399 68.680847 -0.97757322
68.244308 69.458099 -0.95379227
67.437897 68.421066 -0.62033254
67.395508 68.366562 -0.4610815
67.414162 68.390541 -0.30996114
67.44458 68.429665 -0.15671383
69.323059 70.845352 0
91.005852 98.729004 1.2286518
67.640297 68.693047 -0.97920161
68.234627 69.459251 -0.95309812
67.445007 68.441284 -0.6225841
67.40596 68.390945 -0.46322092
67.399338 68.382401 -0.30909601
67.432846 68.425606 -0.15642327
69.35627 70.905258 0
64 64 0
67.607399 68.662254 -0.97186768
68.240311 69.480232 -0.95586675
67.442749 68.449455 -0.62314641
67.400658 68.39505 -0.46322092
67.394043 68.386505 -0.30909601
67.437042 68.442085 -0.15685883
69.331985 70.891129 0
64 64 0
67.674255 68.760529 -0.99142689
68.276611 69.54097 -0.96555835
67.449791 68.469704 -0.62539798
67.376526 68.374779 -0.46065396
67.391899 68.394691 -0.30938402
67.422142 68.433884 -0.15642327
69.269592 70.827522 0
64 64 0
67.599136 68.674873 -0.97268188
68.242355 69.510338 -0.95932692
67.435081 68.461784 -0.62370878
67.386894 68.399193 -0.46279338
67.389748 68.402901 -0.30967313
67.419968 68.442146 -0.15656883
69.229591 70.792656 0
91.173721 99.295593 1.2440357
67.575806 68.667862 -0.96942198
68.238182 69.532532 -0.96140409
67.418114 68.462013 -0.6225841
67.382492 68.415512 -0.4636485
67.372803 68.402855 -0.30909601
67.415535 68.458641 -0.15685883
69.209999 70.80114 0
64 64 0
67.61219 68.727173 -0.98083311
68.237595 69.545631 -0.96278971
67.431229 68.490356 -0.62596035
67.389626 68.435913 -0.46536034
67.373764 68.415161 -0.30967313
67.40699 68.458641 -0.15671383
69.280785 70.91082 0
64 64 0
67.609329 68.729355 -0.98083311
68.228149 69.540199 -0.96140409
67.406944 68.464165 -0.62202173
67.368263 68.413483 -0.46279338
67.364815 68.408966 -0.30909601
67.404297 68.460701 -0.15671383
69.355553 71.017448 0
64 64 0
67.639534 68.780899 -0.99060953
68.178909 69.489426 -0.95171511
67.420006 68.492531 -0.62539798
67.350487 68.401207 -0.4610815
67.356354 68.408913 -0.30880797
67.398903 68.464806 -0.15671383
69.284012 70.941086 0
64 64 0
67.588921 68.72625 -0.97838742
68.208687 69.542419 -0.96002108
67.402283 68.480469 -0.62314641
67.360687 68.42569 -0.46322092
67.357277 68.421196 -0.30938402
67.393509 68.46891 -0.15671383
64 64 0
64 64 0
67.616028 68.773918 -0.98734969
68.223183 69.575485 -0.96486419
67.399933 68.488625 -0.62370878
67.364639 68.442032 -0.46450526
67.345688 68.417015 -0.30880797
67.397507 68.485428 -0.15714882
69.235786 70.912338 0
64 64 0
67.604301 68.770401 -0.98572129
68.234596 69.604614 -0.96901852
67.394508 68.492729 -0.62370878
67.346893 68.42971 -0.46279338
67.355942 68.441681 -0.31024915
67.385826 68.481239 -0.15685883
69.155273 70.823151 0
91.379044 100.23697 1.2684181
67.565811 68.731323 -0.97675592
68.188568 69.55764 -0.96002108
67.376846 68.480598 -0.62145722
67.353897 68.45015 -0.46450526
67.353683 68.44986 -0.31053719
67.380409 68.485329 -0.15685883
69.168953 70.858475 0
91.382149 100.33226 1.2705947
67.592766 68.779099 -0.98572129
68.181847 69.562698 -0.96002108
67.389755 68.509048 -0.62483561
67.339256 68.441879 -0.46322092
67.332764 68.433243 -0.30909601
67.384361 68.501877 -0.15729438
69.141891 70.839752 0
91.413177 100.46502 1.2740781
67.515816 68.688522 -0.96616215
68.187164 69.583801 -0.96278971
67.387352 68.517204 -0.62539798
67.330811 68.441811 -0.46279338
67.342918 68.457954 -0.31053719
67.382034 68.510117 -0.15743938
69.177345 70.904266 0
91.468864 100.63116 1.2787225
67.613777 68.831314 -0.99468672
68.177399 69.584831 -0.96209556
67.369713 68.50502 -0.62314641
67.331589 68.454048 -0.4636485
67.322037 68.441284 -0.30909601
67.370346 68.505867 -0.15714882
69.144058 70.877167 0
91.49617 100.76003 1.2820604
67.596115 68.819824 -0.99142689
68.149658 69.561729 -0.95725244
67.37339 68.521309 -0.62483561
67.310852 68.4375 -0.46150905
67.316673 68.445297 -0.30909601
67.358696 68.501617 -0.15685883
69.098396 70.833321 0
91.395798 100.71826 1.2794482
67.602089 68.840034 -0.99468672
68.163895 69.59491 -0.96209556
67.36792 68.525383 -0.62483561
67.320816 68.462082 -0.4636485
67.320564 68.461754 -0.30996114
67.359451 68.514 -0.15714882
69.071487 70.814415 0
91.370026 100.77634 1.2803186
67.599182 68.848343 -0.99550092
68.157127 69.599937 -0.96209556
67.356384 68.521278 -0.62370878
67.318474 68.470215 -0.46407604
67.318253 68.46991 -0.31024915
67.350899 68.513885 -0.15700382
68.954666 70.674271 0
91.477348 101.01385 1.2874304
67.546257 68.789131 -0.98246145
68.15036 69.60495 -0.96209556
67.350922 68.52533 -0.62370878
67.294746 68.449471 -0.46150905
67.29438 68.448982 -0.30851996
67.351631 68.526291 -0.15729438
68.921822 70.64679 0
64 64 0
67.555145 68.813286 -0.98653549
68.134651 69.59787 -0.96002108
67.366585 68.557999 -0.62764955
67.301567 68.469971 -0.46322092
67.304367 68.473755 -0.30996114
67.333809 68.513618 -0.15671383
68.944717 70.694611 0
64 64 0
67.543472 68.809631 -0.98490715
68.113007 69.582664 -0.95656091
67.343002 68.537521 -0.6242733
67.293121 68.469826 -0.46279338
67.302025 68.481911 -0.31024915
67.356094 68.555298 -0.15801995
68.911926 70.667053 0
64 64 0
67.502533 68.766106 -0.97512758
68.115158 69.599747 -0.95863539
67.343529 68.549736 -0.62539798
67.281631 68.465515 -0.46193662
67.302742 68.49424 -0.3108263
67.33828 68.542595 -0.15743938
68.854546 70.605881 0
91.701263 101.69478 1.3064426
67.514297 68.79425 -0.98001575
68.102463 69.596634 -0.95725244
67.326012 68.537384 -0.62314641
67.288376 68.486038 -0.4636485
67.288132 68.48571 -0.30996114
67.317429 68.525673 -0.15671383
68.917328 70.708282 0
64 64 0
67.531845 68.830414 -0.98653549
68.116425 69.629929 -0.96209556
67.32653 68.549606 -0.6242733
67.276901 68.481728 -0.46279338
67.276596 68.481316 -0.30938402
67.324226 68.546463 -0.15729438
68.780197 70.53775 0
64 64 0
67.49688 68.794746 -0.97838742
68.085976 69.602478 -0.95656091
67.330002 68.565933 -0.62596035
67.259377 68.469093 -0.4610815
67.265091 68.476921 -0.30880797
67.30648 68.533676 -0.15671383
64 64 0
64 64 0
67.523064 68.842926 -0.98734969
68.079201 69.607414 -0.95656091
67.318512 68.561737 -0.62483561
67.272095 68.497932 -0.4636485
67.250542 68.468307 -0.30794284
67.313232 68.554482 -0.15729438
64 64 0
91.818336 102.24005 1.3206655
67.505608 68.831192 -0.98409295
68.134293 69.697601 -0.971093
67.310013 68.561638 -0.6242733
67.257622 68.489426 -0.46236581
67.263374 68.497368 -0.30967313
67.307724 68.558479 -0.15729438
68.505821 70.209618 0
64 64 0
67.511353 68.851425 -0.98734969
68.103882 69.67009 -0.96555835
67.301514 68.561508 -0.62370878
67.261215 68.505829 -0.4636485
67.251869 68.492912 -0.30909601
67.299156 68.55825 -0.15714882
68.403717 70.084358 0
64 64 0
67.470779 68.807587 -0.97757322
68.094078 69.670967 -0.96486419
67.307899 68.58197 -0.62596035
67.252762 68.505608 -0.46322092
67.273689 68.534584 -0.31169036
67.287567 68.553818 -0.15685883
68.469467 70.190941 0
64 64 0
67.542953 68.920074 -0.99957496
68.066711 69.647415 -0.96002108
67.281578 68.557114 -0.62202173
67.259315 68.526199 -0.4649328
67.241005 68.500763 -0.30909601
67.294212 68.574654 -0.15743938
68.452873 70.183678 0
64 64 0
67.50528 68.880188 -0.99060953
68.065735 69.660469 -0.96140409
67.290894 68.581703 -0.62483561
67.238876 68.509285 -0.46279338
67.232544 68.500473 -0.30880797
67.285652 68.574417 -0.15729438
68.42717 70.163681 0
64 64 0
67.479233 68.8563 -0.98490715
68.044281 69.644989 -0.95794392
67.282394 68.581551 -0.6242733
67.242386 68.525703 -0.46407604
67.245178 68.529602 -0.31053719
67.277092 68.574142 -0.15714882
68.428818 70.181725 0
64 64 0
67.507851 68.90876 -0.99468672
68.060791 69.682526 -0.96348119
67.273895 68.581367 -0.62370878
67.224983 68.512924 -0.46236581
67.218658 68.504066 -0.30851996
67.280624 68.59079 -0.15758438
68.385033 70.136253 0
64 64 0
67.46756 68.858574 -0.98409295
68.031128 69.648232 -0.95725244
67.279984 68.595757 -0.62539798
67.24015 68.53994 -0.4649328
67.242973 68.543907 -0.31111431
67.262764 68.571625 -0.15685883
64 64 0
64 64 0
67.490349 68.903023 -0.99224102
68.082489 69.734833 -0.971093
67.268539 68.591446 -0.6242733
67.246567 68.560585 -0.46664467
67.225487 68.53096 -0.30996114
67.257233 68.575562 -0.15685883
64 64 0
64 64 0
67.47583 68.895142 -0.98979539
68.04361 69.694771 -0.96348119
67.26593 68.599533 -0.62483561
67.223213 68.539375 -0.46407604
67.211021 68.522202 -0.30909601
67.275772 68.613396 -0.15801995
64 64 0
64 64 0
67.492767 68.93161 -0.99631506
68.022232 69.679184 -0.96002108
67.269173 68.615906 -0.62652266
67.229599 68.560028 -0.46578792
67.214523 68.538742 -0.30996114
67.252167 68.591896 -0.15714882
64 64 0
64 64 0
67.426918 68.851044 -0.97920161
68.012459 69.679932 -0.95932692
67.263596 68.61985 -0.62652266
67.21521 68.551361 -0.46450526
67.223961 68.563744 -0.31140232
67.249626 68.600082 -0.15729438
64 64 0
64 64 0
67.440987 68.883476 -0.98490715
67.988258 69.660172 -0.95517528
67.237526 68.594727 -0.6225841
67.212662 68.559433 -0.4649328
67.209503 68.554947 -0.31053719
67.241066 68.599739 -0.15714882
64 64 0
64 64 0
67.43792 68.89167 -0.98572129
67.987198 69.673203 -0.95656091
67.255348 68.631897 -0.62708718
67.195343 68.546509 -0.46322092
67.195084 68.546143 -0.30967313
67.238503 68.607918 -0.15729438
64 64 0
64 64 0
67.403641 68.855347 -0.97757322
67.983215 69.682121 -0.95725244
67.243912 68.627495 -0.62596035
67.20163 68.567184 -0.4649328
67.210358 68.579636 -0.31169036
67.229935 68.607559 -0.15714882
64 64 0
64 64 0
67.394928 68.8554 -0.97675592
67.999344 69.719826 -0.96278971
67.238319 68.631409 -0.62596035
67.207878 68.587883 -0.46664467
67.19001 68.562317 -0.31024915
67.218414 68.602951 -0.15685883
64 64 0
64 64 0
67.445618 68.94059 -0.99305522
67.978073 69.704063 -0.95932692
67.229813 68.631157 -0.62539798
67.208206 68.600166 -0.46749979
67.172653 68.549194 -0.30909601
67.221771 68.619629 -0.15729438
64 64 0
64 64 0
67.428352 68.928513 -0.98979539
67.959724 69.692406 -0.95656091
67.224213 68.635056 -0.62539798
67.193855 68.591408 -0.4662171
67.176018 68.565773 -0.30996114
67.225082 68.636307 -0.15772939
64 64 0
64 64 0
67.402679 68.904236 -0.98409295
67.978584 69.734283 -0.96278971
67.204132 68.618073 -0.6225841
67.188301 68.595261 -0.4662171
67.188187 68.5951 -0.31169036
67.22245 68.644478 -0.15787494
64 64 0
64 64 0
67.402367 68.916466 -0.98572129
67.923119 69.668953 -0.95102364
67.218781 68.651184 -0.62652266
67.179817 68.594879 -0.46578792
67.167923 68.577682 -0.31024915
67.216835 68.648369 -0.15787494
64 64 0
64 64 0
67.348694 68.851418 -0.97186768
67.927666 69.690208 -0.95379227
67.201622 68.638351 -0.6242733
67.165527 68.586052 -0.46450526
67.191765 68.624069 -0.31313154
67.21122 68.652252 -0.15787494
64 64 0
68.876015 71.064133 0.23972245
67.418503 68.965378 -0.99386942
67.858185 69.604019 -0.93856341
67.210426 68.663147 -0.62708718
67.162888 68.594101 -0.4649328
67.156845 68.585327 -0.31024915
67.19381 68.639008 -0.15729438
64 64 0
68.82328 71.005821 0.23754577
67.423691 68.985809 -0.99712926
67.752007 69.463921 -0.91433972
67.213409 68.679573 -0.62877423
67.163139 68.606377 -0.46578792
67.168877 68.614731 -0.31197947
67.194077 68.651421 -0.15758438
64 64 0
68.764809 70.93882 0.23507854
67.412086 68.981789 -0.99550092
67.790771 69.534683 -0.92541432
67.190529 68.65831 -0.62539798
67.169182 68.627136 -0.46749979
67.151611 68.601486 -0.3108263
67.182587 68.646713 -0.15729438
64 64 0
68.771095 70.966003 0.2358041
67.389328 68.961411 -0.99060953
67.614273 69.290695 -0.88388723
67.193497 68.674751 -0.62708718
67.178078 68.652176 -0.46964085
67.148964 68.609558 -0.31111431
67.19455 68.676292 -0.15816493
64 64 0
68.739227 70.937439 0.23464298
67.397255 68.985939 -0.99468672
67.531593 69.183098 -0.86519819
67.170677 68.653404 -0.62370878
67.143539 68.613571 -0.46536034
67.149208 68.621902 -0.31169036
67.183052 68.67157 -0.15787494
64 64 0
68.733765 70.947449 0.23478799
67.388443 68.985947 -0.99386942
67.477386 69.116814 -0.85343212
67.156487 68.64463 -0.62202173
67.135078 68.613129 -0.4649328
67.129089 68.604309 -0.31024915
67.180321 68.679703 -0.15801995
64 64 0
68.728287 70.957458 0.23493299
67.371323 68.973663 -0.99060953
67.327629 68.90921 -0.81813389
67.176537 68.686295 -0.62708718
67.132378 68.621155 -0.46536034
67.129333 68.616661 -0.3108263
67.171753 68.679245 -0.15787494
64 64 0
68.705299 70.941658 0.23420742
67.359779 68.969551 -0.98898119
67.38633 69.008835 -0.83405429
67.170868 68.690132 -0.62708718
67.118164 68.612175 -0.46407604
67.135338 68.637581 -0.31197947
67.154457 68.665855 -0.15729438
64 64 0
68.691086 70.938736 0.23391743
67.374664 69.004593 -0.8326686
67.159508 68.685524 -0.62596035
67.132683 68.645737 -0.46707222
67.100807 68.598473 -0.30909601
67.169144 68.699814 -0.15830994
64 64 0
68.732094 71.017647 0.23638466
67.361549 68.998161 -0.99305522
67.326614 68.946228 -0.82228816
67.159523 68.697784 -0.62708718
67.124207 68.645264 -0.46664467
67.112579 68.627975 -0.3108263
67.157669 68.695023 -0.15801995
64 64 0
68.72361 71.023361 0.23638466
67.325226 68.957077 -0.98409295
67.396103 69.062737 -0.84097457
67.142525 68.684715 -0.62483561
67.121445 68.653297 -0.46707222
67.104095 68.627426 -0.31053719
67.154884 68.703148 -0.15816493
64 64 0
68.680382 70.977272 0.23464298
67.310982 68.948761 -0.98164725
67.334175 68.983429 -0.82713133
67.136856 68.688507 -0.62483561
67.095833 68.62719 -0.46407604
67.107132 68.644073 -0.31140232
67.143425 68.698326 -0.15787494
64 64 0
68.689278 71.008835 0.23551354
67.316238 68.963097 -0.98409295
67.236397 68.843605 -0.80359918
67.142487 68.703064 -0.62652266
67.09304 68.629059 -0.46407604
67.089958 68.624451 -0.30996114
67.140587 68.700218 -0.15787494
64 64 0
68.699486 71.033279 0.23623966
67.323936 68.987663 -0.98816699
67.236107 68.855873 -0.80498481
67.128357 68.694183 -0.62483561
67.10453 68.658432 -0.46664467
67.098709 68.649696 -0.31140232
67.137787 68.708336 -0.15801995
64 64 0
68.696747 71.047592 0.23652966
67.331589 69.012253 -0.99224102
67.283005 68.939163 -0.81813389
67.125496 68.702187 -0.62539798
67.084694 68.640808 -0.46450526
67.078773 68.631905 -0.30996114
67.126335 68.703461 -0.15772939
64 64 0
68.673843 71.031631 0.2358041
67.292755 68.966835 -0.98246145
67.202187 68.830223 -0.79944754
67.119812 68.705963 -0.62539798
67.093262 68.665924 -0.46664467
67.096039 68.670113 -0.31226748
67.112045 68.694252 -0.15729438
64 64 0
68.679703 71.058922 0.23652966
67.324913 69.028534 -0.99386942
67.138237 68.746201 -0.78491277
67.136543 68.743637 -0.62990105
67.107452 68.699638 -0.46964085
67.081833 68.660904 -0.31140232
67.11496 68.710999 -0.15772939
64 64 0
68.64537 71.025566 0.23522355
67.26442 68.950027 -0.97757322
67.240219 68.913338 -0.81190509
67.100029 68.70076 -0.62370878
67.084801 68.677666 -0.46707222
67.090439 68.686211 -0.31284353
67.126434 68.740799 -0.15860049
64 64 0
68.634026 71.02684 0.23507854
67.266579 68.966347 -0.98001575
67.082642 68.686699 -0.77383816
67.111107 68.72998 -0.62708718
67.070686 68.668518 -0.46578792
67.06488 68.659698 -0.3108263
67.109283 68.727203 -0.15801995
64 64 0
68.645508 71.062813 0.2360941
67.325645 69.069489 -0.99957496
67.206322 68.887589 -0.80636781
67.088661 68.708237 -0.62370878
67.076302 68.6894 -0.46749979
67.067757 68.676361 -0.31169036
67.106415 68.735298 -0.15816493
64 64 0
68.628433 71.055397 0.23565911
67.26207 68.998863 -0.98409295
67.147888 68.823891 -0.79460174
67.077278 68.715683 -0.62370878
67.045334 68.666733 -0.46450526
67.053619 68.679436 -0.31140232
67.097801 68.747139 -0.15830994
64 64 0
68.614204 71.070908 0.2358041
67.269501 69.023514 -0.98816699
67.122902 68.798264 -0.78975856
67.068802 68.715149 -0.62314641
67.03688 68.666092 -0.46407604
67.047966 68.683121 -0.31140232
67.083565 68.737823 -0.15787494
68.559784 71.005997 0
68.614166 71.089554 0.23623966
67.260735 69.0233 -0.98734969
67.026955 68.663155 -0.76691788
67.079704 68.744415 -0.62652266
67.022865 68.656853 -0.46279338
67.036674 68.678131 -0.3108263
67.091988 68.763336 -0.15860049
68.52581 70.972214 0
68.611244 71.103828 0.23652966
67.276154 69.060432 -0.99386942
67.100395 68.788956 -0.78698993
67.071205 68.743874 -0.62596035
67.036758 68.690659 -0.46578792
67.031021 68.681793 -0.3108263
67.074928 68.749619 -0.15801995
68.483437 70.92524 0
68.602661 71.109398 0.23652966
67.253952 69.039482 -0.98898119
67.053772 68.729462 -0.77660686
67.073746 68.760391 -0.62764955
67.045021 68.715904 -0.46792898
67.033768 68.698479 -0.31169036
67.080467 68.770798 -0.15860049
68.480721 70.939407 0
68.599701 71.123672 0.23681965
67.23983 69.030937 -0.98653549
67.067078 68.76268 -0.78145266
67.059738 68.751282 -0.62596035
67.042099 68.723892 -0.46835655
67.028091 68.702141 -0.31169036
67.060631 68.75267 -0.15787494
68.500504 70.988571 0
68.62204 71.177292 0.23841633
67.268471 69.088913 -0.99712926
67.134521 68.880363 -0.80013901
67.051247 68.750702 -0.62539798
67.01973 68.701637 -0.46578792
67.036385 68.727554 -0.31313154
67.077354 68.791351 -0.15903606
68.477997 70.972107 0
68.560013 71.099808 0.23565911
67.198341 68.992981 -0.97757322
67.071793 68.795425 -0.7856043
67.048241 68.758659 -0.62596035
67.022362 68.718254 -0.46707222
67.013931 68.705093 -0.31140232
67.043526 68.751297 -0.15758438
68.447113 70.942451 0
68.613098 71.201576 0.23885189
67.213593 69.030167 -0.98409295
67.076797 68.81604 -0.78837293
67.039757 68.758064 -0.62539798
67.019417 68.726227 -0.46749979
67.013817 68.717461 -0.31197947
67.048973 68.772491 -0.15816493
68.430305 70.934654 0
68.565216 71.145828 0.23681965
67.097939 68.862068 -0.79529321
67.036736 68.766014 -0.62596035
67.016472 68.734215 -0.46792898
67.002548 68.712364 -0.31140232
67.054375 68.793701 -0.1587455
64 64 0
68.584511 71.195175 0.23827134
67.193474 69.025391 -0.98164725
67.030174 68.768417 -0.77937549
67.039154 68.782547 -0.62764955
67.002487 68.724854 -0.46664467
67.00518 68.729088 -0.31226748
67.056946 68.810547 -0.15918106
64 64 0
64 64 0
67.221794 69.083527 -0.99224102
67.107666 68.903442 -0.80083048
67.04969 68.811966 -0.63102573
67.00502 68.741486 -0.46792898
66.996696 68.728355 -0.31197947
67.040001 68.796684 -0.15860049
64 64 0
64 64 0
67.109787 68.919922 -0.80290765
67.046593 68.819954 -0.63159025
67.002029 68.749451 -0.46835655
67.004799 68.75383 -0.31342065
67.020325 68.778389 -0.15787494
64 64 0
64 64 0
67.222679 69.112198 -0.99631506
67.074402 68.876984 -0.79529321
67.027214 68.802124 -0.62877423
67.001762 68.761757 -0.46921164
66.988022 68.739952 -0.31226748
67.028404 68.804016 -0.15860049
64 64 0
64 64 0
67.184929 69.065872 -0.98653549
67.073853 68.889198 -0.79667884
67.032227 68.82299 -0.63102573
66.974144 68.730606 -0.46578792
66.987793 68.752312 -0.31284353
67.019829 68.803276 -0.15845549
67.964386 70.305664 0
64 64 0
67.223923 69.134781 -0.99957496
67.078903 68.903809 -0.798756
67.018501 68.807602 -0.62877423
66.987671 68.758499 -0.46835655
66.98217 68.749741 -0.31255549
67.01693 68.805099 -0.15845549
67.808365 70.06562 0
64 64 0
67.215096 69.134483 -0.99876076
67.03569 68.847977 -0.78906441
66.999207 68.789719 -0.62596035
66.981918 68.762108 -0.46835655
66.968193 68.740181 -0.31169036
67.008354 68.804321 -0.15830994
67.834183 70.123154 0
64 64 0
67.088295 68.945259 -0.80429065
67.009575 68.819206 -0.62933874
66.981598 68.774406 -0.46921164
66.976158 68.765701 -0.31313154
67.00531 68.812378 -0.15845549
67.713745 69.946777 0
64 64 0
67.127419 69.021408 -0.81605941
66.998375 68.814209 -0.62821186
66.97583 68.778008 -0.46921164
66.973145 68.773697 -0.31342065
66.996735 68.811577 -0.15830994
67.728569 69.98661 0
64 64 0
67.020752 68.86322 -0.78975856
67.000603 68.83078 -0.62990105
66.970055 68.781601 -0.46921164
66.975555 68.790451 -0.31428471
66.990921 68.815193 -0.15830994
67.611473 69.814255 0
64 64 0
67.190239 69.149963 -0.99876076
66.967308 68.790085 -0.77729833
67.002792 68.847366 -0.63159025
66.969681 68.793922 -0.4700684
66.950699 68.763275 -0.31226748
66.9851 68.81881 -0.15830994
64 64 0
64 64 0
67.165825 69.124374 -0.99305522
67.053818 68.943069 -0.80152464
66.988914 68.838013 -0.62990105
66.953094 68.780029 -0.46835655
66.931351 68.744835 -0.3108263
66.992943 68.844528 -0.15903606
64 64 0
64 64 0
66.971519 68.822884 -0.78145266
66.975067 68.828644 -0.62821186
66.941925 68.774849 -0.46749979
66.941895 68.774796 -0.31255549
66.987083 68.848145 -0.15903606
64 64 0
64 64 0
67.132729 69.098312 -0.98653549
67.091766 69.031647 -0.81467372
66.966576 68.827904 -0.62764955
66.946907 68.795898 -0.46921164
66.952362 68.804779 -0.31428471
66.981224 68.851746 -0.15903606
64 64 0
64 64 0
67.05423 68.984047 -0.80636781
66.966042 68.840149 -0.62877423
66.941109 68.799454 -0.46921164
66.933044 68.786293 -0.31284353
66.969925 68.846474 -0.1587455
64 64 0
64 64 0
67.125565 69.114311 -0.98816699
67.00634 68.919228 -0.79529321
66.94165 68.813385 -0.62483561
66.946014 68.820526 -0.47092351
66.911079 68.763359 -0.31111431
66.977615 68.872231 -0.15947105
64 64 0
67.026276 68.951851 0.16207716
67.134811 69.143402 -0.99305522
66.979515 68.888603 -0.78975856
66.949051 68.838631 -0.62764955
66.910805 68.775871 -0.4662171
66.924156 68.797783 -0.31313154
66.958206 68.853638 -0.1587455
64 64 0
67.028397 68.968803 0.16251215
66.950142 68.853592 -0.78352714
66.948479 68.850868 -0.62877423
66.899696 68.770599 -0.46536034
66.912994 68.79248 -0.31255549
66.955032 68.861649 -0.1588905
64 64 0
67.041283 69.003548 0.16352826
66.991096 68.934402 -0.79598737
66.926819 68.828354 -0.62539798
66.917877 68.813614 -0.46921164
66.920601 68.818108 -0.3139967
66.95993 68.882988 -0.15947105
64 64 0
67.02446 68.989441 0.16294771
67.121262 69.1632 -0.99468672
66.928017 68.843536 -0.7807585
66.936752 68.857979 -0.62877423
66.872223 68.751244 -0.46279338
66.901398 68.7995 -0.31255549
66.932518 68.850983 -0.15830994
64 64 0
67.05069 69.046463 0.16468939
66.966202 68.920113 -0.79252458
66.925636 68.852829 -0.62764955
66.892982 68.798668 -0.46707222
66.908951 68.82515 -0.3139967
66.942764 68.881233 -0.15918106
64 64 0
67.015076 69.001183 0.16309272
67.073112 69.111412 -0.98327565
66.952507 68.910805 -0.7904501
66.927628 68.869431 -0.62933874
66.897766 68.819763 -0.46878409
66.900459 68.824234 -0.31370866
66.944885 68.898132 -0.15961605
64 64 0
67.033127 69.044907 0.16439883
66.918182 68.867027 -0.7828356
66.924355 68.877312 -0.62990105
66.899864 68.836472 -0.4700684
66.905266 68.845482 -0.31486183
66.930954 68.888336 -0.15918106
64 64 0
67.01902 69.03521 0.16396382
67.093727 69.173973 -0.99386942
66.945778 68.926529 -0.79183304
66.949753 68.933182 -0.63665569
66.883476 68.82235 -0.46835655
66.872864 68.804596 -0.31197947
66.919708 68.882942 -0.1588905
64 64 0
67.004929 69.025467 0.16352826
66.908981 68.878372 -0.78352714
66.920364 68.897469 -0.63159025
66.877647 68.825829 -0.46835655
66.885597 68.839157 -0.3139967
66.916473 68.890945 -0.15903606
64 64 0
66.988213 69.011238 0.16294771
66.921043 68.912079 -0.78837293
66.940414 68.944664 -0.637218
66.853447 68.798409 -0.46536034
66.869171 68.824852 -0.31284353
66.910568 68.894463 -0.15903606
64 64 0
67.008713 69.059509 0.16439883
67.067398 69.172409 -0.99142689
66.925339 68.932869 -0.79114157
66.91629 68.91761 -0.6332773
66.858124 68.819519 -0.46707222
66.881813 68.859467 -0.31486183
66.91259 68.911369 -0.15947105
64 64 0
67.005257 69.067619 0.16454439
66.947479 68.98391 -0.798756
66.920692 68.938629 -0.6355288
66.87059 68.853905 -0.4700684
66.873306 68.858498 -0.31457382
66.898727 68.901482 -0.15903606
64 64 0
66.988548 69.053352 0.16396382
67.054886 69.17981 -0.99142689
66.890472 68.901031 -0.78491277
66.901817 68.920273 -0.63271493
66.87516 68.875061 -0.47178027
66.85955 68.848595 -0.31370866
66.895439 68.909454 -0.15918106
64 64 0
66.990349 69.070381 0.16439883
66.869278 68.878563 -0.7807585
66.898445 68.928146 -0.6332773
66.887474 68.909492 -0.47477481
66.837959 68.825302 -0.31197947
66.868431 68.877113 -0.15801995
64 64 0
66.978958 69.065041 0.16410883
66.835472 68.834427 -0.77314669
66.871925 68.896576 -0.62877423
66.84259 68.846565 -0.46835655
66.837357 68.837639 -0.31255549
66.896713 68.938843 -0.15990661
64 64 0
66.962318 69.050705 0.16352826
66.898018 68.954781 -0.79183304
66.881401 68.926376 -0.63215262
66.836731 68.849998 -0.46835655
66.844566 68.863388 -0.3139967
66.875008 68.915436 -0.15903606
64 64 0
66.964088 69.067741 0.16396382
66.866753 68.91494 -0.78491277
66.872887 68.925468 -0.63159025
66.846382 68.88002 -0.47092351
66.833481 68.857895 -0.31342065
66.869064 68.918907 -0.15903606
64 64 0
66.960579 69.075806 0.16410883
66.866302 68.921005 -0.7856043
66.857117 68.905235 -0.62877423
66.825356 68.850693 -0.46792898
66.843559 68.88195 -0.31486183
66.894852 68.970024 -0.16063218
64 64 0
66.962738 69.086563 0.16439883
66.855324 68.915794 -0.78422129
66.86396 68.930664 -0.63159025
66.824646 68.862976 -0.46878409
66.819466 68.854065 -0.31284353
66.87841 68.955544 -0.16005161
64 64 0
66.935715 69.054207 0.16323827
66.854401 68.927917 -0.7856043
66.865631 68.947304 -0.6332773
66.813622 68.857513 -0.46792898
66.829163 68.884338 -0.31457382
66.86721 68.950027 -0.15976161
64 64 0
66.932213 69.062241 0.16338328
66.903656 69.026939 -0.80083048
66.857117 68.946365 -0.63271493
66.818024 68.878693 -0.46964085
66.825844 68.892227 -0.31486183
66.848236 68.930992 -0.15903606
64 64 0
66.928688 69.070274 0.16352826
66.92263 69.073929 -0.80775344
66.825775 68.905785 -0.62708718
66.801872 68.864296 -0.46792898
66.809601 68.877708 -0.31370866
66.842278 68.934433 -0.15903606
64 64 0
66.95369 69.127853 0.16526994
67.007538 69.235962 -0.99550092
66.836525 68.938232 -0.7856043
66.812248 68.895973 -0.62539798
66.819008 68.907738 -0.47178027
66.81144 68.894562 -0.31457382
66.854424 68.969391 -0.16005161
64 64 0
66.926781 69.095367 0.16410883
66.835548 68.950371 -0.78698993
66.851791 68.978729 -0.6355288
66.820724 68.9245 -0.47306293
66.805519 68.897949 -0.31457382
66.850998 68.977348 -0.16019662
64 64 0
66.941284 69.134972 0.16526994
66.772324 68.853584 -0.77106953
66.820572 68.938057 -0.62990105
66.804596 68.910088 -0.47135273
66.794464 68.892349 -0.3139967
66.834671 68.962738 -0.15961605
64 64 0
66.922195 69.115967 0.16454439
66.860817 69.022598 -0.79737037
66.834724 68.976784 -0.63440412
66.811363 68.935776 -0.47349215
66.796234 68.90921 -0.31486183
66.85183 69.006813 -0.16092274
64 64 0
66.92115 69.128517 0.16483438
64 64 -0
66.826202 68.975792 -0.63384181
66.787643 68.907913 -0.47049597
66.78775 68.908089 -0.31457382
66.840637 69.001205 -0.16063218
64 64 0
66.912384 69.127525 0.16468939
66.819 68.977104 -0.78906441
66.800156 68.943832 -0.62933874
66.774124 68.897873 -0.46921164
66.799652 68.942947 -0.31659105
66.829475 68.995598 -0.16034217
64 64 0
66.906189 69.131042 0.16468939
66.820389 68.993614 -0.79114157
66.799171 68.956055 -0.63046342
66.783356 68.928047 -0.47178027
66.768242 68.901299 -0.31370866
66.823441 68.999016 -0.16034217
64 64 0
66.90509 69.143593 0.16497938
66.799583 68.970795 -0.78698993
66.81562 68.999275 -0.6355288
66.787476 68.949303 -0.47349215
66.775009 68.92717 -0.31514984
66.837799 69.038651 -0.16150329
64 64 0
66.909073 69.165207 0.16555995
66.827965 69.035416 -0.79667884
66.817047 69.015968 -0.637218
66.768929 68.93029 -0.47135273
66.771584 68.935028 -0.31543788
66.811348 69.005829 -0.16034217
64 64 0
66.895203 69.155144 0.16512494
66.767944 68.942528 -0.78145266
66.830849 69.05484 -0.64172107
66.760452 68.929138 -0.47092351
66.752983 68.91581 -0.3139967
66.823067 69.040947 -0.16135773
64 64 0
66.888977 69.158638 0.16512494
66.9561 69.293495 -0.99957496
66.879395 69.156128 -0.81467372
66.814827 69.040512 -0.63946956
66.767006 68.95488 -0.47306293
66.76722 68.955261 -0.31630301
66.804306 69.021667 -0.16063218
66.66217 68.767151 0
66.895409 69.184807 0.16585051
66.923248 69.24955 -0.99060953
66.790169 69.010567 -0.79114157
66.808731 69.043907 -0.63946956
66.753532 68.944778 -0.47178027
66.76123 68.958603 -0.31630301
66.780533 68.993271 -0.15961605
66.648819 68.756737 0
66.851212 69.120193 0.16367327
66.786545 69.018318 -0.79183304
66.802635 69.047302 -0.63946956
66.737587 68.930145 -0.4700684
66.750221 68.952896 -0.315727
66.802254 69.046608 -0.16121273
66.579903 68.646179 0
66.842499 69.119095 0.16352826
66.77076 69.00412 -0.78906441
66.771927 69.006233 -0.63384181
66.746544 68.960388 -0.47263539
66.744232 68.956215 -0.315727
66.778526 69.018158 -0.16019662
66.564201 68.631073 0
66.846382 69.140709 0.16410883
66.916153 69.281761 -0.99468672
66.898087 69.249039 -0.82713133
66.790436 69.054054 -0.63946956
66.715736 68.91877 -0.46835655
66.74324 68.968582 -0.31630301
66.805122 69.080673 -0.16208385
66.613945 68.734406 0
66.810028 69.089554 0.16236715
66.726044 68.965759 -0.78145266
66.748863 69.007332 -0.63271493
66.728546 68.970314 -0.47263539
66.728737 68.970665 -0.31601501
66.790329 69.082863 -0.16193829
66.579956 68.699646 0
64 64 0
66.899361 69.296631 -0.99550092
66.785088 69.087875 -0.80013901
66.752571 69.028481 -0.63496649
66.712677 68.955589 -0.47092351
66.720245 68.969421 -0.315727
66.761734 69.045212 -0.16063218
66.591774 68.734726 0
64 64 0
66.904793 69.321823 -0.99957496
66.711624 68.967918 -0.7807585
66.756233 69.049644 -0.637218
66.748497 69.035469 -0.47819856
66.706802 68.959084 -0.31486183
66.76062 69.057678 -0.16092274
66.561111 68.692162 0
64 64 0
66.753593 69.059334 -0.79460174
66.75013 69.052971 -0.637218
66.683517 68.93058 -0.46792898
66.700806 68.962349 -0.31486183
66.764442 69.079269 -0.16150329
66.540512 68.667831 0
64 64 0
66.780975 69.12439 -0.80429065
66.705238 68.984825 -0.62821186
66.706932 68.987953 -0.47306293
66.699738 68.974693 -0.31543788
66.770691 69.105438 -0.16222885
66.569626 68.734932 0
64 64 0
66.78434 69.145393 -0.80705929
66.730652 69.046188 -0.6355288
66.68869 68.968643 -0.47092351
66.701118 68.991608 -0.31630301
66.742264 69.06765 -0.16092274
66.576286 68.760918 0
64 64 0
66.811478 69.210587 -0.81675088
66.736618 69.071838 -0.63834268
66.692436 68.98996 -0.47263539
66.67543 68.958443 -0.3139967
66.726273 69.052666 -0.16034217
66.508743 68.649513 0
64 64 0
66.833618 69.259216 -0.98490715
66.78215 69.163689 -0.80913645
66.752838 69.109283 -0.64284581
66.677246 68.968994 -0.47049597
66.70433 69.019257 -0.31774423
66.737999 69.081749 -0.16121273
64 64 0
64 64 0
66.867027 69.336655 -0.99876076
66.66906 68.968163 -0.77799249
66.732239 69.085754 -0.63946956
66.690681 69.008408 -0.47391969
66.695816 69.017967 -0.31745619
66.731857 69.08506 -0.16121273
66.502785 68.658653 0
64 64 0
66.693855 69.028877 -0.78698993
66.704491 69.048744 -0.63440412
66.682205 69.007133 -0.47349215
66.689751 69.021225 -0.31745619
66.728165 69.092934 -0.16135773
66.546295 68.753418 0
64 64 0
66.64286 68.948036 -0.77383816
66.741486 69.132683 -0.64453501
66.659218 68.978668 -0.47049597
66.669067 68.997101 -0.315727
66.717117 69.087067 -0.16106772
66.503777 68.687637 0
64 64 0
66.783104 69.225792 -0.81675088
66.716171 69.100105 -0.64003187
66.667679 69.009056 -0.47306293
66.672752 69.018585 -0.31688017
66.710968 69.090347 -0.16106772
66.510338 68.713623 0
64 64 0
66.713249 69.109497 -0.79806185
66.717155 69.116852 -0.64172107
66.673668 69.034958 -0.47520402
66.671532 69.030937 -0.31745619
66.712128 69.107391 -0.16150329
66.50708 68.721252 0
64 64 0
66.725861 69.148247 -0.80359918
66.694321 69.088692 -0.63778037
66.655563 69.015488 -0.47306293
66.655769 69.015877 -0.31630301
66.688934 69.078506 -0.16048717
66.494072 68.710487 0
64 64 0
66.729004 69.169289 -0.80636781
66.72139 69.154869 -0.64566183
66.635124 68.991463 -0.47049597
66.656952 69.032806 -0.31716818
66.692497 69.100136 -0.16106772
66.49324 68.722694 0
64 64 -0
66.667824 69.068214 -0.63440412
66.653 69.040062 -0.47477481
66.643639 69.022278 -0.31630301
66.700851 69.130966 -0.16193829
66.487526 68.725708 0
66.779465 69.29583 -0.82505685
66.727814 69.197411 -0.65016276
66.632599 69.015999 -0.47220784
66.64238 69.034637 -0.31688017
66.68499 69.115822 -0.16135773
66.486656 68.73793 0
66.70327 69.165802 -0.80429065
66.686195 69.133179 -0.64172107
66.624161 69.014633 -0.47178027
66.626701 69.019493 -0.315727
66.676399 69.114464 -0.16121273
66.476105 68.731705 0
64 64 0
64 64 -0
66.698792 69.172462 -0.6462242
66.644211 69.067856 -0.47648668
66.639771 69.059341 -0.31803223
66.670219 69.117691 -0.16121273
66.482422 68.757759 0
64 64 0
66.739403 69.265793 -0.81882536
66.685501 69.162193 -0.64453501
66.630989 69.057396 -0.47520402
66.636047 69.067123 -0.31832135
66.680824 69.153191 -0.16222885
66.483879 68.774612 0
128.51605 188.01547 3.9041593
66.693764 69.193382 -0.80705929
66.648849 69.106789 -0.637218
66.634331 69.078804 -0.4769159
66.62278 69.056526 -0.31745619
66.660233 69.128738 -0.16135773
66.494881 68.809959 0
128.37094 188.10257 3.9044499
64 64 -0
66.652016 69.128044 -0.63946956
66.616394 69.059166 -0.47477481
66.609535 69.045906 -0.31659105
66.663582 69.150414 -0.16193829
66.477112 68.789841 0
128.25436 188.24489 3.9064815
66.798477 69.427307 -0.84235758
66.64814 69.135757 -0.64003187
66.61499 69.071457 -0.47563156
66.612923 69.067444 -0.31774423
66.662125 69.16288 -0.16222885
66.440308 68.732689 0
128.06847 188.25314 3.9043043
66.709335 69.270058 -0.81744236
66.632645 69.120872 -0.63778037
66.592422 69.042648 -0.47263539
66.618614 69.093597 -0.31918541
66.634506 69.124496 -0.16092274
66.46315 68.791183 0
127.91116 188.31662 3.9038694
66.765579 69.395477 -0.99957496
66.597687 69.06794 -0.7856043
66.610229 69.092407 -0.63384181
66.595695 69.064049 -0.47434726
66.59359 69.059944 -0.31688017
66.635414 69.141541 -0.16135773
66.433617 68.747849 0
127.77039 188.41225 3.9044499
64 64 -0
66.587891 69.063881 -0.62990105
66.587242 69.062614 -0.47391969
66.587479 69.06308 -0.31688017
66.622116 69.130852 -0.16092274
66.470512 68.834206 0
127.67676 188.60025 3.9079325
66.651489 69.203842 -0.80567628
66.653282 69.207352 -0.64734888
66.557816 69.020004 -0.46964085
66.609528 69.12149 -0.32033858
66.592316 69.0877 -0.15947105
66.438675 68.786163 0
127.61818 188.8577 3.9135933
64 64 -0
66.607857 69.133537 -0.63778037
66.593605 69.105476 -0.47734344
66.591629 69.101585 -0.3188974
66.63559 69.188126 -0.16251884
66.475327 68.87265 0
127.43666 188.87424 3.911706
64 64 -0
66.617729 69.168427 -0.64172107
66.582787 69.099434 -0.47648668
66.580795 69.09549 -0.31832135
66.622284 69.177406 -0.16208385
66.422401 68.782768 0
127.33269 189.04352 3.9146087
64 64 -0
66.604607 69.157974 -0.64003187
66.555801 69.06131 -0.47263539
66.569962 69.089363 -0.31774423
66.625381 69.199112 -0.16266385
66.435387 68.822861 0
127.23074 189.21736 3.9176567
64 64 -0
66.596092 69.156578 -0.63946956
66.579689 69.124008 -0.47819856
66.575439 69.115562 -0.31918541
66.612099 69.18837 -0.16222885
66.457649 68.881592 0
127.04668 189.2287 3.9156249
64 64 -0
66.619492 69.21875 -0.64678651
66.54126 69.062889 -0.47220784
66.573906 69.12793 -0.31976253
66.59417 69.168304 -0.16150329
64 64 0
64 64 0
64 64 -0
66.59272 69.181015 -0.64172107
66.544327 69.08432 -0.47391969
66.56076 69.117149 -0.3188974
66.620483 69.236488 -0.16353495
66.478447 68.952667 0
64 64 0
64 64 -0
66.594131 69.191666 -0.64284581
66.552727 69.10881 -0.47605914
66.566917 69.137207 -0.32005054
66.605705 69.214828 -0.1628094
64 64 0
64 64 0
64 64 -0
66.592392 69.203903 -0.64397264
66.55571 69.13028 -0.47777098
66.558403 69.135681 -0.31976253
66.583176 69.18541 -0.16179329
64 64 0
64 64 -0
66.608704 69.252533 -0.64960039
66.535812 69.105782 -0.47520402
66.552193 69.138763 -0.31976253
66.5746 69.183876 -0.16164829
64 64 0
64 64 -0
66.602348 69.255684 -0.64960039
66.541031 69.131844 -0.47734344
66.555168 69.160385 -0.3209157
66.559113 69.168358 -0.16106772
64 64 0
64 64 0
64 64 -0
66.596001 69.258827 -0.64960039
66.525734 69.116493 -0.47563156
66.532898 69.130997 -0.3188974
66.548256 69.162117 -0.16077717
64 64 0
64 64 0
64 64 -0
66.600861 69.284752 -0.65241426
66.519554 69.119537 -0.47563156
66.522133 69.124779 -0.31832135
66.564972 69.21183 -0.16222885
64 64 0
64 64 0
66.596909 69.292854 -0.81329077
66.545235 69.187531 -0.64003187
66.508835 69.113358 -0.47477481
66.536446 69.169617 -0.3209157
66.538071 69.172935 -0.16092274
64 64 0
64 64 0
66.566254 69.246399 -0.80567628
66.561295 69.236259 -0.64566183
66.507172 69.125618 -0.47563156
66.521103 69.154091 -0.31976253
66.538666 69.189995 -0.16135773
64 64 0
118.25031 174.9082 3.4481547
66.526924 69.181847 -0.79529321
66.550507 69.230209 -0.64453501
66.507736 69.142487 -0.4769159
66.517136 69.161781 -0.32005054
66.532394 69.193054 -0.16135773
64 64 0
118.10258 174.94565 3.4472842
66.50531 69.15332 -0.7904501
66.55307 69.251564 -0.64678651
66.494781 69.13166 -0.47563156
66.510902 69.164818 -0.32005054
66.503395 69.149384 -0.15990661
64 64 0
64 64 0
66.538467 69.23761 -0.80290765
66.520126 69.199768 -0.64003187
66.499771 69.157768 -0.47777098
66.524963 69.20974 -0.32264492
66.556099 69.273987 -0.16367996
64 64 0
66.457924 69.087074 -0.77937549
66.535957 69.248573 -0.64566183
66.491302 69.156166 -0.47734344
66.502914 69.180191 -0.32062769
66.551987 69.281746 -0.16382496
64 64 0
66.5933 69.38385 -0.8243627
66.529617 69.25164 -0.64566183
66.485077 69.159172 -0.47734344
66.496658 69.183212 -0.32062769
66.523048 69.238014 -0.16237384
64 64 0
66.467339 69.138222 -0.78629577
66.488068 69.181396 -0.63665569
66.478836 69.16217 -0.47734344
66.519501 69.246841 -0.32437521
66.516724 69.241058 -0.16237384
66.629387 69.475693 0
66.463303 69.145737 -0.78698993
66.521301 69.266891 -0.64678651
66.470383 69.160538 -0.4769159
66.484123 69.189232 -0.32062769
66.530579 69.286278 -0.16367996
66.508156 69.239441 0
66.552162 69.347939 -0.81744236
66.508362 69.256172 -0.64509732
66.472992 69.182053 -0.47862774
66.464478 69.164207 -0.3188974
66.510765 69.2612 -0.1628094
66.539932 69.322327 0
64 64 0
66.509056 69.274002 -0.80567628
66.512924 69.282143 -0.64791119
66.517456 69.291656 -0.48846978
66.464905 69.181198 -0.31976253
66.517799 69.292381 -0.16367996
66.562569 69.38649 0
110.16943 161.04761 3.0014386
66.466133 69.199959 -0.79391021
66.513077 69.29895 -0.64960039
66.471458 69.211205 -0.48076719
66.478592 69.226234 -0.32235688
66.524765 69.323601 -0.16455108
66.553825 69.38488 0
64 64 0
66.468422 69.221085 -0.79667884
66.500153 69.2882 -0.64791119
66.465164 69.214188 -0.48076719
66.467857 69.219887 -0.32178086
66.498337 69.284348 -0.1632444
66.485039 69.256226 0
112.53129 166.65089 3.1710982
66.539116 69.387436 -0.821594
66.47644 69.254456 -0.64341027
66.471985 69.245018 -0.48333415
66.452728 69.204147 -0.32062769
66.487518 69.277969 -0.1629544
66.551903 69.414574 0
64 64 0
66.500603 69.322395 -0.81121361
66.480888 69.280441 -0.6462242
66.432907 69.178307 -0.4769159
66.472824 69.263268 -0.3240861
66.503235 69.327995 -0.16440552
66.525436 69.375259 0
64 64 0
66.480965 69.297226 -0.64791119
66.446243 69.223083 -0.48076719
66.444527 69.219421 -0.32120371
66.496796 69.331017 -0.16440552
66.532196 69.406593 0
64 64 0
66.45092 69.24958 -0.64172107
66.433411 69.212074 -0.47948286
66.457909 69.264549 -0.32379809
66.490349 69.33403 -0.16440552
66.547676 69.45681 0
109.55698 161.57753 3.0075343
66.455299 69.275574 -0.64453501
66.420616 69.201042 -0.47819856
66.466827 69.300346 -0.32581639
66.461983 69.289932 -0.1629544
66.523506 69.422127 0
109.55307 161.8775 3.0150809
66.460678 69.295486 -0.64678651
66.423965 69.216476 -0.47948286
66.472343 69.320602 -0.32696956
66.467545 69.310272 -0.16353495
66.520233 69.423653 0
64 64 0
66.475632 69.344559 -0.65241426
66.409027 69.200768 -0.47777098
66.450691 69.290726 -0.32495123
66.450211 69.289673 -0.1628094
66.609932 69.634506 0
109.10476 161.3752 2.9970846
66.458519 69.324486 -0.64960039
66.422112 69.245621 -0.48162228
66.43129 69.265511 -0.32322204
66.454704 69.316216 -0.16353495
66.5093 69.434448 0
109.06549 161.59946 3.0023091
66.435089 69.29052 -0.64509732
66.400749 69.215912 -0.47862774
66.407623 69.23085 -0.3209157
66.474358 69.375832 -0.16527663
64 64 0
109.03227 161.83797 3.0079696
66.409622 69.251892 -0.64003187
66.411568 69.256119 -0.48204985
66.44445 69.327789 -0.32668155
66.452682 69.345749 -0.16426052
66.491821 69.431046 0
109.01804 162.11902 3.014936
66.418076 69.287155 -0.64397264
66.388138 69.221695 -0.47862774
66.414337 69.278992 -0.32351005
66.431091 69.31562 -0.1632444
64 64 0
108.90809 162.19225 3.0155165
66.901436 70.384781 -0.77680695
66.375511 69.227455 -0.47862774
66.401573 69.284813 -0.32351005
66.401047 69.283646 -0.16208385
64 64 0
64 64 0
66.946136 70.504005 -0.79087853
66.375542 69.244339 -0.47991043
66.412262 69.325401 -0.32581639
66.407524 69.314934 -0.1629544
66.504196 69.528358 0
64 64 0
66.913185 70.451981 -0.7841239
66.362869 69.233177 -0.47862774
66.399437 69.314163 -0.32495123
66.413925 69.346252 -0.16382496
66.482529 69.498184 0
64 64 0
66.94677 70.547462 -0.99047351
66.91581 70.478661 -0.78693777
66.362862 69.250061 -0.47991043
66.361176 69.246315 -0.32062769
66.435188 69.410767 -0.16571164
66.478012 69.50592 0
64 64 0
66.540459 69.662933 -0.85620081
66.897583 70.459 -0.7841239
66.364922 69.271652 -0.48162228
66.361183 69.263313 -0.32149175
66.411644 69.375793 -0.16455108
66.456444 69.475662 0
64 64 0
66.459885 69.501122 -0.8312856
66.825462 70.31868 -0.76667392
66.348076 69.251076 -0.47948286
66.371712 69.30394 -0.32379809
66.39666 69.359726 -0.16397052
66.426453 69.426361 0
64 64 0
66.47979 69.56366 -0.84028304
66.650261 69.946144 -0.72108299
66.341728 69.253906 -0.47948286
66.361092 69.297363 -0.32322204
66.398643 69.381607 -0.16455108
64 64 0
64 64 0
66.477135 69.575821 -0.84166604
66.498665 69.624283 -0.68168432
66.347878 69.284874 -0.48204985
66.375687 69.347473 -0.3261044
66.406898 69.417732 -0.16556664
66.487297 69.598694 0
64 64 0
66.423676 69.473297 -0.82574832
66.469231 69.57618 -0.67549205
66.32695 69.25486 -0.47905532
66.346191 69.298325 -0.32293403
66.394035 69.406372 -0.16513108
64 64 0
64 64 0
66.380592 69.393608 -0.81329077
66.45018 69.55127 -0.6721158
66.312302 69.238884 -0.47734344
66.362762 69.353203 -0.3261044
66.374916 69.380745 -0.16426052
66.406502 69.452316 0
64 64 0
66.408424 69.474548 -0.82505685
66.429146 69.52166 -0.66817504
66.308037 69.246368 -0.47777098
66.356293 69.356049 -0.3261044
66.387245 69.426422 -0.16556664
66.527771 69.745834 0
64 64 0
66.397774 69.468262 -0.82367116
66.426552 69.53389 -0.66929972
66.309944 69.26796 -0.47948286
66.322815 69.29731 -0.32235688
66.380692 69.429298 -0.16556664
64 64 0
64 64 0
66.348969 69.374603 -0.80913645
66.417831 69.532166 -0.66873741
66.313858 69.294266 -0.48162228
66.330917 69.333298 -0.32437521
66.3554 69.38932 -0.16426052
64 64 0
108.59758 166.04248 3.1101422
66.358505 69.414238 -0.81467372
66.394905 69.497818 -0.66423434
66.3013 69.282928 -0.48033798
66.32653 69.340851 -0.32466322
66.340584 69.3731 -0.16367996
66.432091 69.583176 0
108.37671 165.87238 3.1033213
66.347961 69.40789 -0.81329077
66.376122 69.472748 -0.66085809
66.292877 69.281006 -0.47991043
66.328316 69.36264 -0.32581639
66.358925 69.433128 -0.16542163
64 64 0
108.25979 165.94022 3.1037567
66.345413 69.419922 -0.81467372
66.373543 69.484932 -0.66198277
66.296684 69.307327 -0.48204985
66.309509 69.336952 -0.3240861
66.344101 69.416901 -0.16484107
64 64 0
108.07054 165.841 3.0991123
66.346809 69.441185 -0.81744236
66.350815 69.450462 -0.6574797
66.28418 69.295967 -0.48076719
66.313301 69.363503 -0.32552838
66.341667 69.42926 -0.16513108
64 64 0
107.92687 165.84647 3.0976613
66.312492 69.379486 -0.80775344
66.362289 69.495331 -0.66254729
66.296021 69.341171 -0.48461848
66.310905 69.375793 -0.3261044
66.347427 69.460747 -0.1660022
64 64 0
107.97411 166.29572 3.1097069
66.28228 69.326935 -0.79944754
66.345642 69.474815 -0.65973127
66.267326 69.292023 -0.47991043
66.29422 69.354805 -0.32466322
66.324448 69.425362 -0.16484107
64 64 0
100.77563 149.8358 2.607986
66.287659 69.357368 -0.80359918
66.315079 69.421577 -0.65297878
66.277054 69.332535 -0.48333415
66.297905 69.381363 -0.3261044
66.328094 69.452057 -0.16556664
64 64 0
100.6678 149.87061 2.6076953
66.300163 69.395676 -0.80913645
66.301834 69.39959 -0.65016276
66.261757 69.30558 -0.48076719
66.284515 69.358955 -0.32466322
66.322769 69.448685 -0.16542163
66.957619 70.937904 0
100.60165 149.85928 2.6066799
66.317192 69.453865 -0.81744236
66.309219 69.435112 -0.65410346
66.265381 69.331932 -0.48290661
66.271965 69.347427 -0.32379809
66.32431 69.470619 -0.1660022
66.900383 70.8265 0
100.45522 149.80301 2.603632
66.312553 69.461273 -0.81813389
66.298691 69.428551 -0.65297878
66.258942 69.334663 -0.48290661
66.281639 69.388275 -0.3261044
66.2873 69.401642 -0.16382496
66.93679 70.935455 0
100.32922 149.79436 2.6020353
66.280594 69.403976 -0.80913645
66.296082 69.440674 -0.65410346
66.266464 69.370506 -0.48590279
66.277138 69.39579 -0.32639244
66.303001 69.457069 -0.16542163
66.88591 70.838303 0
100.15279 149.66583 2.5968108
66.274063 69.406723 -0.80913645
66.289505 69.443451 -0.65410346
66.261963 69.377968 -0.48633033
66.250565 69.350861 -0.32351005
66.296402 69.459854 -0.16542163
66.893784 70.880165 0
99.912247 149.38373 2.586942
66.252007 69.372452 -0.80359918
66.286858 69.455589 -0.65523034
66.275307 69.42804 -0.4906092
66.268097 69.410828 -0.32696956
66.311905 69.51535 -0.16701831
66.873398 70.854851 0
99.698563 149.16347 2.5789597
66.239716 69.36129 -0.80152464
66.258713 69.406769 -0.64903808
66.280624 69.459213 -0.4931778
66.233643 69.346748 -0.32293403
66.259163 69.407837 -0.16367996
