# .PCD v0.7 - Point Cloud Data file format
VERSION 0.7
FIELDS x y z
SIZE 4 4 4
TYPE F F F
COUNT 1 1 1
WIDTH 1582
HEIGHT 1
VIEWPOINT 0 0 0 1 0 0 0
POINTS 1582
DATA ascii
77.623283 71.694405 -0.43696323
79.580856 72.800041 0
79.541603 72.77787 0.4984929
68.892754 66.771225 -0.92704695
69.749825 67.25666 -0.91157109
71.008698 67.969681 -0.89219129
72.985283 69.089203 -0.86078238
76.463951 71.059494 -0.7983036
77.627548 71.718552 -0.43739879
79.579262 72.82399 0
79.553589 72.809448 0.49921843
68.880814 66.772255 -0.92541856
69.75898 67.271042 -0.91364825
71.021568 67.988182 -0.89444286
72.996986 69.110199 -0.86249423
76.455414 71.074554 -0.7983036
77.609177 71.729881 -0.43710878
79.595734 72.858223 0
79.579086 72.84877 0.50037956
68.920403 66.802612 -0.93356669
69.746292 67.273026 -0.91226256
70.999084 67.986603 -0.89219129
72.981873 69.115982 -0.86163747
76.455833 71.094711 -0.79887962
77.60434 71.748886 -0.4372538
79.575981 72.871918 0
79.545807 72.854729 0.499654
68.831161 66.759521 -0.91726738
69.75106 67.28495 -0.91364825
70.989853 67.992538 -0.89162898
72.962326 69.119202 -0.86035484
76.460732 71.117455 -0.79974478
77.608505 71.773056 -0.43768933
79.57428 72.895889 0
79.575706 72.896698 0.50096011
68.875015 66.792381 -0.92623276
69.777565 67.309357 -0.91849399
70.998253 68.00856 -0.89331818
72.969482 69.137672 -0.86163747
76.46109 71.13765 -0.8003208
77.59008 71.784325 -0.43739879
79.59063 72.930229 0
79.582985 72.92585 0.50154066
68.811623 66.763794 -0.91482168
69.743103 67.298843 -0.91364825
71.006615 68.024597 -0.89500517
72.963272 69.148506 -0.86163747
76.465919 71.160431 -0.80118597
77.594185 71.80851 -0.43783435
79.575317 72.946472 0
79.563164 72.939491 0.50125015
68.863976 66.801689 -0.92541856
69.739113 67.305779 -0.91364825
70.992943 68.028 -0.89388049
72.952599 69.156769 -0.86120993
76.45726 71.175491 -0.80118597
77.58474 71.824928 -0.43783435
79.596054 72.983459 0
79.55687 72.960892 0.5013957
68.856293 66.805084 -0.92460126
69.704697 67.295143 -0.90880245
70.99247 68.038979 -0.89444286
72.946358 69.167587 -0.86120993
76.466499 71.200882 -0.80233914
77.584267 71.846527 -0.43812436
79.576187 72.997101 0
79.564026 72.990074 0.50197625
68.925613 66.853065 -0.93845487
69.705048 67.304543 -0.90949392
70.978798 68.042336 -0.89331818
72.94899 69.183533 -0.86206508
76.453316 71.213348 -0.80205113
77.565796 71.857735 -0.43783435
79.605835 73.039391 0
79.548645 73.006264 0.5018307
68.883698 66.836678 -0.93112099
69.735764 67.331596 -0.91503119
70.965111 68.045662 -0.89219129
72.933846 69.189194 -0.86120993
76.444595 71.228394 -0.80205113
77.560776 71.876724 -0.43797934
79.608406 73.066086 0
79.578209 73.048546 0.50313735
68.867447 66.835106 -0.92867529
69.727402 67.335999 -0.91433972
70.977783 68.064301 -0.89444286
72.94088 69.207733 -0.86249423
76.435852 71.243423 -0.80205113
77.55574 71.895721 -0.43812436
79.601936 73.087555 0
79.576233 73.072586 0.50342733
68.834152 66.82354 -0.92297292
69.71904 67.340393 -0.91364825
70.968483 68.070168 -0.89388049
72.939011 69.221123 -0.86292183
76.436012 71.263657 -0.80262715
77.564133 71.922577 -0.43870491
79.586449 73.103775 0
79.565262 73.0914 0.50342733
68.826469 66.826889 -0.92215872
69.771278 67.380264 -0.92264563
70.972321 68.083717 -0.89500517
72.923828 69.226723 -0.86206508
76.445084 71.289139 -0.80378032
77.541115 71.931091 -0.43826991
79.588898 73.130486 0
79.554268 73.110199 0.50342733
68.848618 66.847733 -0.92704695
69.741234 67.371994 -0.91849399
70.958626 68.086998 -0.89388049
72.921944 69.240112 -0.86249423
76.431808 71.301552 -0.80349231
77.544952 71.955338 -0.43870491
79.604797 73.165138 0
79.583572 73.152672 0.50473344
68.772766 66.810944 -0.91319335
69.719864 67.368744 -0.91572535
70.953682 68.095406 -0.89388049
72.920029 69.253494 -0.86292183
76.440804 71.327072 -0.80464548
77.539818 71.974342 -0.43885046
79.620613 73.199829 0
79.568031 73.168861 0.50458848
68.795738 66.840103 -0.91889888
69.711708 67.382553 -0.91572535
70.961258 68.122551 -0.89613205
72.91613 69.280258 -0.86377692
76.423065 71.357117 -0.80464548
77.538399 72.017632 -0.43943101
79.647598 73.266731 0
79.545822 73.206459 0.50458848
68.809303 66.855995 -0.92215872
69.759369 67.420189 -0.92402864
70.947525 68.125771 -0.89500517
72.905334 69.288406 -0.86334938
76.431953 71.382683 -0.80579865
77.537628 72.039284 -0.43972102
79.645332 73.290939 0
79.570435 73.24646 0.50574958
68.82708 66.874443 -0.92623276
69.699196 67.393768 -0.91503119
70.964355 68.147156 -0.8978191
72.903343 69.301788 -0.86377692
76.427467 71.400345 -0.80608666
77.532364 72.058289 -0.43986601
79.629631 73.307175 0
79.594978 73.286545 0.50691068
68.78714 66.854576 -0.91889888
69.761787 67.43576 -0.92541432
70.966232 68.153976 -0.89838356
72.882507 69.296654 -0.86206508
76.418556 71.405205 -0.80579865
77.527496 72.066467 -0.43986601
79.615067 73.311295 0
79.598282 73.301277 0.50720072
68.864281 66.908554 -0.93438083
69.710258 67.414398 -0.91779983
70.935028 68.146736 -0.89500517
72.893723 69.317917 -0.86377692
76.418472 71.425507 -0.80637467
77.522194 72.085472 -0.44001102
79.6306 73.346176 0
79.591484 73.322784 0.50734568
68.792931 66.873756 -0.92134142
69.680313 67.405815 -0.91364825
70.938736 68.160347 -0.89613205
72.891708 69.331306 -0.86420614
76.409485 71.440506 -0.80637467
77.521332 72.107155 -0.44030157
79.623756 73.367729 0
79.584679 73.344299 0.50749123
68.810654 66.892288 -0.92541856
69.680496 67.41526 -0.91433972
70.938057 68.171341 -0.89669436
72.87645 69.336754 -0.86334938
76.413788 71.463493 -0.80723983
77.50708 72.120811 -0.44015658
79.607971 73.383919 0
79.582275 73.368469 0.50778127
68.760582 66.870026 -0.91645318
69.715034 67.445435 -0.92056853
70.911255 68.166603 -0.89388049
72.865601 69.344826 -0.86292183
76.404762 71.478493 -0.80723983
77.492798 72.13443 -0.44001102
79.596619 73.402771 0
79.566498 73.384613 0.50763625
68.790955 66.896233 -0.92297292
69.728043 67.462723 -0.92333716
70.923615 68.185471 -0.89613205
72.859138 69.355537 -0.86292183
76.404564 71.498817 -0.80781585
77.500748 72.161484 -0.44059157
79.611969 73.437759 0
79.586266 73.422226 0.50865179
68.719818 66.861023 -0.90993345
69.736725 67.477448 -0.92541432
70.901169 68.183296 -0.89388049
72.857048 69.368896 -0.86334938
76.399933 71.516495 -0.80810499
77.521988 72.196655 -0.44160768
79.609459 73.462021 0
79.574875 73.441055 0.50865179
68.783943 66.907799 -0.92297292
69.672501 67.447891 -0.91572535
70.909134 68.199554 -0.89556968
72.846169 69.37693 -0.86292183
76.386406 71.528778 -0.80781585
77.529839 72.223785 -0.44218826
79.638046 73.505203 0
79.581215 73.470665 0.5092324
68.826843 66.941872 -0.93193519
69.668335 67.454742 -0.91572535
70.899704 68.205246 -0.89500517
72.857201 69.3983 -0.86463368
76.377304 71.543739 -0.80781585
77.537643 72.250946 -0.44276881
79.639885 73.532219 0
79.574211 73.492195 0.50937796
68.835938 66.955437 -0.93438083
69.655586 67.456352 -0.91433972
70.903297 68.21888 -0.89613205
72.859428 69.414352 -0.86548877
76.368179 71.558685 -0.80781585
77.545395 72.278137 -0.44334936
79.650558 73.564682 0
79.580467 73.521851 0.50995851
68.802856 66.943199 -0.92867529
69.651405 67.463181 -0.91433972
70.924187 68.243149 -0.8995083
72.844131 69.419693 -0.86463368
76.372269 71.581734 -0.80868101
77.561966 72.310783 -0.44421992
79.647858 73.58902 0
79.591103 73.554237 0.51068407
68.811935 66.956764 -0.93112099
69.660042 67.47789 -0.91641688
70.888763 68.232895 -0.89556968
72.837578 69.430374 -0.86463368
76.38073 71.607513 -0.80983418
77.547485 72.324448 -0.44407493
79.645134 73.613373 0
79.59726 73.583954 0.51126462
68.774696 66.941833 -0.92460126
69.702812 67.513672 -0.92402864
70.905266 68.254539 -0.89838356
72.848495 69.45182 -0.86634552
76.367126 71.619759 -0.80954617
77.572815 72.362617 -0.44523603
79.629082 73.629547 0
79.559113 73.586433 0.5103935
68.75853 66.939812 -0.92215872
69.621735 67.473099 -0.91157109
70.89579 68.260201 -0.8978191
72.811317 69.443619 -0.86334938
76.366707 71.640129 -0.81012219
77.549431 72.370811 -0.4448005
79.630707 73.656624 0
79.582886 73.627075 0.5115546
68.696136 66.909111 -0.91074765
69.664459 67.508957 -0.91918552
70.890633 68.268532 -0.8978191
72.822189 69.465073 -0.86506122
76.383858 71.671417 -0.81185251
77.539307 72.387177 -0.4448005
79.632309 73.683723 0
79.584503 73.654114 0.51199019
68.793396 66.977379 -0.93030679
69.749718 67.571396 -0.93372023
70.885468 68.276855 -0.8978191
72.815582 69.475731 -0.86506122
76.361397 71.678185 -0.81098735
77.551231 72.417244 -0.44552603
79.629425 73.708092 0
79.572823 73.672935 0.51199019
68.747841 66.957039 -0.92215872
69.647438 67.517326 -0.91779983
70.893242 68.293236 -0.8995083
72.80896 69.486374 -0.86506122
76.365288 71.701317 -0.81185251
77.549881 72.43911 -0.44581661
79.644203 73.743484 0
79.569939 73.697235 0.51228017
68.76104 66.973251 -0.92541856
69.672981 67.542755 -0.92264563
70.883743 68.298874 -0.89894593
72.806671 69.499733 -0.86548877
76.377907 71.72995 -0.8132937
77.544083 72.458221 -0.44596159
79.636833 73.765137 0
79.584663 73.732559 0.51315129
68.874733 67.052444 -0.9482345
69.660179 67.544273 -0.92126
70.86132 68.296402 -0.89669436
72.800026 69.510368 -0.86548877
76.364174 71.742157 -0.81300569
77.55587 72.488373 -0.44668716
79.629425 73.786789 0
79.608131 73.773453 0.51431239
68.816628 67.02417 -0.93764073
69.6474 67.545776 -0.91987699
70.894852 68.329002 -0.9017598
72.802063 69.526466 -0.86634552
76.367943 71.765335 -0.81386971
77.545601 72.504745 -0.44668716
79.635223 73.816734 0
79.583099 73.784012 0.51387686
68.756218 66.99025 -0.92623276
69.653748 67.554527 -0.92126
70.892235 68.333168 -0.9017598
72.816109 69.542709 -0.86805743
76.358871 71.770058 -0.81358171
77.527275 72.504639 -0.44625217
79.646912 73.837257 0
79.594788 73.804489 0.5144574
68.823685 67.040802 -0.94008636
69.623993 67.545303 -0.91710836
70.865501 68.327942 -0.89894593
72.79203 69.542412 -0.86634552
76.375725 71.801529 -0.8153109
77.538971 72.534828 -0.4469777
79.652634 73.867264 0
79.578537 73.820557 0.51431239
68.769867 67.014938 -0.93030679
69.606972 67.544052 -0.91503119
70.85598 68.333527 -0.89838356
72.789665 69.555771 -0.86677313
76.370674 71.819252 -0.81560004
77.550606 72.565063 -0.44770327
79.6847 73.913986 0
79.614967 73.869904 0.51590848
68.799622 67.041862 -0.93682653
69.602684 67.550827 -0.91503119
70.863602 68.34996 -0.90007061
72.782944 69.566383 -0.86677313
76.396172 71.856346 -0.81790638
77.535858 72.578651 -0.44755828
79.677101 73.935715 0
79.611816 73.894333 0.51619905
68.833488 67.071518 -0.94416046
69.653442 67.592575 -0.92402864
70.84977 68.352806 -0.89894593
72.789215 69.585258 -0.86805743
76.37793 71.865768 -0.81732923
77.547409 72.608932 -0.44828382
79.660698 73.951859 0
79.599854 73.913193 0.51619905
68.767235 67.037514 -0.93193519
69.636414 67.591324 -0.92195415
70.853065 68.366531 -0.90007061
72.778137 69.593117 -0.86762989
76.377151 71.886284 -0.81790638
77.558914 72.639259 -0.44900939
79.657433 73.976364 0
79.583481 73.929245 0.51605409
68.734413 67.024651 -0.92623276
69.648987 67.60894 -0.92472279
70.839233 68.369347 -0.89894593
72.762711 69.59819 -0.86677313
76.385048 71.912369 -0.81905949
77.565979 72.666824 -0.44958994
79.64537 73.99527 0
79.606491 73.970444 0.5172146
68.772369 67.05703 -0.93438083
69.589699 67.580582 -0.91572535
70.833946 68.377602 -0.89894593
72.768913 69.617081 -0.86805743
76.388535 71.935692 -0.81992358
77.568634 72.691628 -0.4500255
79.65519 74.028206 0
79.590065 73.986488 0.51706964
68.747879 67.049438 -0.93030679
69.598022 67.595459 -0.91779983
70.832924 68.388603 -0.8995083
72.77507 69.635986 -0.86934006
76.374588 71.947861 -0.81963557
77.558121 72.708015 -0.4500255
79.664955 74.061172 0
79.582352 74.008125 0.5172146
68.777443 67.076584 -0.93682653
69.644295 67.634819 -0.9261058
70.823349 68.394104 -0.89894593
72.76825 69.646591 -0.86934006
76.378029 71.971214 -0.82050073
77.55632 72.730011 -0.45031551
79.665916 74.088554 0
79.600838 74.046646 0.51823074
68.761261 67.074303 -0.93438083
69.580894 67.603539 -0.91641688
70.839371 68.41613 -0.9017598
72.761421 69.657181 -0.86934006
76.368385 71.986168 -0.82050073
77.541397 72.743568 -0.45017052
79.66684 74.115952 0
79.601791 74.073952 0.51866633
68.753395 67.07737 -0.93356669
69.584953 67.615723 -0.91779983
70.83403 68.424393 -0.9017598
72.750275 69.66497 -0.86891252
76.367401 72.006721 -0.82107675
77.535179 72.762749 -0.45031551
79.658966 74.137695 0
79.602699 74.101273 0.51910186
68.741371 67.077728 -0.93193519
69.57637 67.619743 -0.91710836
70.798843 68.413269 -0.8978191
72.73912 69.672752 -0.86848497
76.375076 72.032928 -0.82222992
77.528938 72.781921 -0.45046049
79.668533 74.170776 0
79.625336 74.142738 0.52026242
68.712799 67.067276 -0.92704695
69.60984 67.651108 -0.92333716
70.810539 68.432571 -0.90007061
72.74086 69.688904 -0.86934006
76.36969 72.05069 -0.82251793
77.505264 72.789764 -0.4500255
79.643158 74.18119 0
79.626144 74.17012 0.52069795
68.77533 67.116196 -0.94008636
69.588615 67.646912 -0.92056853
70.809448 68.443581 -0.90063512
72.729683 69.696655 -0.86891252
76.38163 72.079773 -0.82396024
77.498978 72.808914 -0.45017052
79.65699 74.217148 0
79.64431 74.208878 0.52171409
68.763275 67.116547 -0.93845487
69.605194 67.667397 -0.92402864
70.808319 68.45459 -0.90119749
72.739975 69.718445 -0.87062442
76.371857 72.094727 -0.82396024
77.488327 72.825218 -0.45017052
79.648987 74.238907 0
79.631966 74.227768 0.52171409
68.742973 67.11145 -0.93519503
69.575592 67.657661 -0.91987699
70.785934 68.45166 -0.89894593
72.724487 69.723373 -0.86976928
76.366386 72.112511 -0.82424825
77.473312 72.838661 -0.4500255
79.667068 74.277794 0
79.610893 74.240944 0.52142352
68.706169 67.095451 -0.92867529
69.621475 67.697479 -0.92818296
70.801781 68.473816 -0.9017598
72.721848 69.736725 -0.87019682
76.369545 72.135971 -0.82511336
77.466957 72.857788 -0.45017052
79.685081 74.316742 0
79.620216 74.274078 0.52214909
68.743706 67.128349 -0.93682653
69.60862 67.698746 -0.92679727
70.783638 68.47364 -0.90007061
72.719193 69.750084 -0.87062442
76.368332 72.156609 -0.82568944
77.456245 72.874054 -0.45017052
79.698669 74.352875 0
79.620811 74.301529 0.52258462
68.690437 67.101364 -0.92704695
69.616707 67.713821 -0.92887443
70.795181 68.493042 -0.90232217
72.712234 69.76062 -0.87062442
76.371422 72.180107 -0.8265546
77.445511 72.890305 -0.45017052
79.694824 74.377579 0
79.63002 74.334724 0.52331018
68.71965 67.128883 -0.93356669
69.620583 67.726158 -0.93026012
70.789749 68.501251 -0.90232217
72.713837 69.776817 -0.87148118
76.365829 72.197906 -0.82684261
77.447762 72.915169 -0.45060605
79.664917 74.385025 0
79.621864 74.356483 0.52345574
68.697166 67.118065 -0.92949265
69.568169 67.696251 -0.92195415
70.787025 68.505348 -0.90232217
72.701782 69.776398 -0.87062442
76.343643 72.193932 -0.82568944
77.451019 72.929031 -0.45089605
79.680336 74.40889 0
79.637253 74.380287 0.52418131
68.681046 67.115517 -0.92704695
69.551163 67.694633 -0.91987699
70.768898 68.505112 -0.90063512
72.699066 69.789749 -0.87105197
76.363876 72.228905 -0.82770777
77.44455 72.948151 -0.45104107
79.663406 74.424934 0
79.624695 74.399178 0.52418131
68.697838 67.134888 -0.93112099
69.546692 67.70134 -0.91987699
70.759209 68.510452 -0.90007061
72.709145 69.811661 -0.87276381
76.328102 72.226608 -0.82597744
77.463989 72.984589 -0.45205718
79.668114 74.455414 0
79.60347 74.41227 0.52389073
68.681717 67.132317 -0.92867529
69.550552 67.713615 -0.92126
70.757996 68.521454 -0.90063512
72.71492 69.830742 -0.87404811
76.348251 72.261635 -0.82799578
77.466087 73.009521 -0.45249274
79.668449 74.483025 0
79.634079 74.460022 0.52534246
68.694351 67.148987 -0.93193519
69.55024 67.723122 -0.92195415
70.760956 68.535271 -0.9017598
72.695076 69.832687 -0.87276381
76.316788 72.262138 -0.8265546
77.47245 73.037369 -0.45307329
79.677383 74.516441 0
79.625732 74.481796 0.52548742
68.68644 67.151901 -0.93112099
69.541557 67.727013 -0.92126
70.751259 68.540604 -0.90119749
72.683762 69.840324 -0.87233627
76.315369 72.282784 -0.82713062
77.461525 73.053642 -0.45307329
79.686256 74.549896 0
79.64756 74.523872 0.52664858
68.690834 67.163094 -0.93275249
69.553696 67.744926 -0.92402864
70.762619 68.560127 -0.903449
72.693726 69.862297 -0.87404811
76.309639 72.300552 -0.82741863
77.463486 73.078606 -0.45350829
79.682137 74.574669 0
79.639137 74.545677 0.52679354
68.637871 67.135536 -0.92297292
69.545013 67.748833 -0.92333716
70.744469 68.559753 -0.9017598
72.690887 69.875671 -0.87447572
76.295319 72.312523 -0.82713062
77.465424 73.1036 -0.45394385
79.677963 74.599434 0
79.635002 74.570389 0.52708411
68.748627 67.218788 -0.9457888
69.57785 67.780861 -0.92956597
70.747375 68.573608 -0.90288663
72.662537 69.871765 -0.87233627
76.306671 72.341881 -0.8285718
77.441505 73.111115 -0.45350829
79.67807 74.627136 0
79.622215 74.589279 0.52708411
68.687508 67.185623 -0.93438083
69.556679 67.776314 -0.92679727
70.741844 68.581757 -0.90288663
72.668182 69.890892 -0.87362057
76.288033 72.350937 -0.82799578
77.44339 73.136116 -0.45394385
79.669525 74.648994 0
79.613708 74.611061 0.52722913
68.663231 67.177376 -0.93030679
69.514801 67.757607 -0.92056853
70.740501 68.592758 -0.903449
72.652557 69.895569 -0.87276381
76.286476 72.371597 -0.8285718
77.419449 73.14357 -0.45350829
79.699661 74.697235 0
79.61805 74.641624 0.52780968
68.67572 67.19416 -0.93356669
69.543404 67.786903 -0.9261058
70.726547 68.595161 -0.90232217
72.658157 69.914711 -0.87404811
76.289169 72.395195 -0.82943696
77.438431 73.180305 -0.4545244
79.678123 74.71032 0
79.643799 74.686874 0.5291158
68.700409 67.21936 -0.93927222
69.518127 67.779427 -0.92264563
70.716805 68.600418 -0.9017598
72.651001 69.925171 -0.87404811
76.27475 72.40712 -0.82914895
77.42305 73.193604 -0.45437941
79.695236 74.749847 0
79.630875 74.705765 0.5291158
68.66391 67.202652 -0.93275249
69.52182 67.791771 -0.92402864
70.736382 68.625793 -0.90513819
72.639603 69.932716 -0.87362057
76.277382 72.430733 -0.83001405
77.424789 73.218643 -0.45481497
79.71656 74.792374 0
79.635063 74.736412 0.52969635
68.672241 67.21669 -0.93519503
69.550293 67.821198 -0.92956597
70.709846 68.619514 -0.90232217
72.632431 69.943146 -0.87362057
76.262909 72.442619 -0.82972497
77.405067 73.228958 -0.4545244
79.716354 74.820206 0
79.639198 74.767082 0.53027689
68.648018 67.20829 -0.93112099
69.500267 67.796562 -0.92195415
70.725182 68.642059 -0.90513819
72.629463 69.95649 -0.87404811
76.248451 72.454491 -0.82943696
77.415291 73.259903 -0.45524997
79.694717 74.833282 0
79.656105 74.806625 0.53129244
68.705109 67.256104 -0.94334626
69.499794 67.806053 -0.92264563
70.698662 68.635712 -0.90232217
72.618042 69.963997 -0.87362057
76.242477 72.472229 -0.82972497
77.408379 73.279076 -0.45539552
79.69873 74.864082 0
79.643036 74.825539 0.53129244
68.64431 67.222328 -0.93193519
69.5158 67.826996 -0.9261058
70.701416 68.649605 -0.903449
72.610832 69.974403 -0.87362057
76.240738 72.49292 -0.83030212
77.40995 73.304146 -0.45583051
79.68132 74.880081 0
79.651306 74.859253 0.5320186
68.685051 67.258995 -0.94090056
69.502945 67.827934 -0.92472279
70.695793 68.6577 -0.903449
72.61203 69.990662 -0.87447572
76.230469 72.507706 -0.83030212
77.411499 73.329247 -0.45626608
79.698059 74.919815 0
79.642433 74.881119 0.53216356
68.669067 67.264648 -0.93927222
69.505997 67.849838 -0.92679727
70.684517 68.673866 -0.903449
72.597527 70.011452 -0.87447572
76.22683 72.549088 -0.83145529
77.414459 73.379494 -0.45713663
79.697227 74.975624 0
79.654419 74.945694 0.53346968
68.62059 67.239075 -0.93030679
69.497238 67.853607 -0.9261058
70.691353 68.690689 -0.90513819
72.602875 70.030685 -0.87576002
76.208008 72.557915 -0.83087814
77.403122 73.395699 -0.45713663
79.692474 75.000549 0
79.653954 74.973549 0.53390527
68.646957 67.261742 -0.93601233
69.486702 67.851173 -0.92472279
70.684341 68.691803 -0.90457368
72.616035 70.047676 -0.87747186
76.215546 72.574203 -0.8317433
77.448486 73.439621 -0.45887831
79.707123 75.024979 0
79.647324 74.983002 0.53390527
68.622787 67.253128 -0.93193519
69.498459 67.869347 -0.92749143
70.674522 68.69696 -0.90401137
72.57933 70.037399 -0.87447572
76.200943 72.585983 -0.83145529
77.432823 73.452873 -0.45873332
79.706558 75.05294 0
79.655289 75.016853 0.53463078
68.643097 67.27581 -0.93682653
69.477379 67.864418 -0.92472279
70.681297 68.713814 -0.90570056
72.59301 70.062569 -0.87661678
76.186325 72.597733 -0.83116615
77.434135 73.478088 -0.45916888
79.693192 75.071907 0
79.658951 75.047745 0.53521138
68.639137 67.281418 -0.93682653
69.444031 67.850746 -0.91987699
70.671455 68.718948 -0.90513819
72.581482 70.069977 -0.87618756
76.201279 72.630379 -0.83289647
77.435387 73.503311 -0.45960388
79.692558 75.099884 0
79.637093 75.060654 0.53492081
68.615013 67.272728 -0.93275249
69.50486 67.903763 -0.9309516
70.653305 68.718185 -0.903449
72.586708 70.089249 -0.87747186
76.182388 72.63913 -0.83231932
77.440857 73.531563 -0.46018443
79.683372 75.121841 0
79.653397 75.100586 0.53593689
68.619102 67.284027 -0.93438083
69.471512 67.89006 -0.9261058
70.680733 68.749779 -0.90795207
72.579338 70.099625 -0.87747186
76.184593 72.662834 -0.83318448
77.442039 73.556831 -0.46061999
79.703865 75.164917 0
79.644203 75.122498 0.53608191
68.63929 67.306824 -0.93927222
69.43412 67.873367 -0.92056853
70.66671 68.751938 -0.90682524
72.555244 70.098061 -0.87576002
76.169907 72.674553 -0.83289647
77.451637 73.58815 -0.46134555
79.7285 75.211067 0
79.639221 75.14743 0.53637248
68.611153 67.295181 -0.93438083
69.486595 67.920776 -0.93026012
70.644424 68.748177 -0.90457368
72.556229 70.114372 -0.87661678
76.184662 72.707291 -0.83462566
77.465416 73.622528 -0.46221668
79.714943 75.230064 0
79.668015 75.196533 0.53782362
68.643326 67.326653 -0.94171476
69.428818 67.889404 -0.92126
70.64695 68.762123 -0.90570056
72.553009 70.127693 -0.87704432
76.15731 72.709953 -0.83347249
77.466446 73.647865 -0.46265167
79.730988 75.270271 0
79.658699 75.218475 0.53796858
68.635292 67.329384 -0.94090056
69.432274 67.901825 -0.92264563
70.628807 68.761253 -0.90401137
72.55809 70.147003 -0.87832701
76.15519 72.730682 -0.83404964
77.471657 73.676254 -0.46323222
79.700447 75.277122 0
79.657799 75.24649 0.53840417
68.623253 67.329208 -0.93927222
69.423485 67.905457 -0.92195415
70.631302 68.775208 -0.90513819
72.55484 70.160347 -0.87875617
76.148827 72.748383 -0.83433765
77.47261 73.701637 -0.46366778
79.707924 75.311287 0
79.656853 75.274513 0.5388397
68.659302 67.363724 -0.9474203
69.447227 67.932556 -0.92679727
70.629646 68.786186 -0.90570056
72.530739 70.158653 -0.87704432
76.146645 72.769119 -0.83491474
77.460876 73.717911 -0.46366778
79.71534 75.34549 0
79.668495 75.311668 0.53971028
68.599174 67.328781 -0.93601233
69.454666 67.947968 -0.92887443
70.619743 68.791222 -0.90513819
72.544083 70.184006 -0.87918377
76.13604 72.783783 -0.83491474
77.470177 73.749405 -0.46439335
79.722702 75.37973 0
79.692696 75.358017 0.5410164
68.603149 67.340134 -0.93764073
69.437706 67.945709 -0.92679727
70.613953 68.79921 -0.90513819
72.536598 70.194328 -0.87918377
76.117035 72.792358 -0.83433765
77.458382 73.765671 -0.46439335
79.708939 75.39872 0
79.66214 75.364761 0.54043585
68.603104 67.348602 -0.93845487
69.449165 67.964081 -0.92956597
70.628693 68.822144 -0.90795207
72.520798 70.198593 -0.87832701
76.118958 72.816132 -0.83520281
77.454987 73.788048 -0.46468389
79.720413 75.436066 0
79.698822 75.420364 0.5421775
68.619019 67.368721 -0.94252896
69.472755 67.991364 -0.93441176
70.598213 68.81218 -0.90457368
72.509155 70.205864 -0.87789941
76.137543 72.852097 -0.83722001
77.459946 73.816544 -0.46526444
79.719193 75.464249 0
79.685013 75.439323 0.5421775
68.587021 67.353882 -0.93682653
69.399078 67.947632 -0.92264563
70.608803 68.832146 -0.90682524
72.518234 70.228256 -0.87961131
76.118492 72.860657 -0.83664399
77.456459 73.838928 -0.46555445
79.709541 75.486313 0
79.679581 75.464409 0.54246807
68.578979 67.356506 -0.93601233
69.418571 67.971947 -0.92679727
70.598869 68.837128 -0.90626287
72.514839 70.241577 -0.88003886
76.14949 72.905869 -0.83952636
77.448746 73.858253 -0.46569946
79.725021 75.526817 0
79.699234 75.507912 0.54362863
68.551018 67.344467 -0.93112099
69.429947 67.990372 -0.92956597
70.597107 68.848106 -0.90682524
72.507286 70.251862 -0.88003886
76.130386 72.914421 -0.83895034
77.47451 73.902191 -0.46700558
79.757225 75.57972 0
79.689514 75.529961 0.54377419
68.618599 67.402733 -0.9457888
69.433205 68.002892 -0.9309516
70.603523 68.86512 -0.90851444
72.508003 70.268234 -0.88089561
76.136269 72.941345 -0.84010351
77.462532 73.918465 -0.46700558
79.743225 75.598747 0
79.671371 75.545815 0.54362863
68.578705 67.381882 -0.93845487
69.408188 67.994553 -0.92749143
70.589455 68.86705 -0.90738755
72.512817 70.287666 -0.88217992
76.1213 72.952927 -0.83981544
77.467262 73.947075 -0.46758613
79.725014 75.614677 0
79.674133 75.577095 0.54420918
68.588585 67.393471 -0.94090056
69.433998 68.018692 -0.9323346
70.582436 68.868011 -0.90682524
72.47599 70.268387 -0.87875617
76.136681 72.975632 -0.84125668
77.469612 73.961395 -0.46787667
79.734734 75.636551 0
79.696388 75.608192 0.54522526
68.497131 67.334244 -0.92297292
69.40094 68.004349 -0.92749143
70.564308 68.86689 -0.90513819
72.489029 70.293907 -0.88089561
76.105049 72.974884 -0.83981544
77.470093 73.986954 -0.46831223
79.741562 75.671051 0
79.694878 75.636444 0.54566085
68.564499 67.392754 -0.93764073
69.392059 68.007866 -0.92679727
70.570648 68.883904 -0.90682524
72.481415 70.304161 -0.88089561
76.106644 72.998756 -0.84067953
77.47052 74.012512 -0.46874723
79.748329 75.705589 0
79.676643 75.652298 0.54551584
68.572296 67.407127 -0.94008636
69.399284 68.023376 -0.92887443
70.556602 68.885773 -0.90570056
72.477905 70.317467 -0.88132316
76.104065 73.019562 -0.84125668
77.475082 74.041199 -0.46932781
79.746704 75.73394 0
79.68338 75.68676 0.5462414
68.576088 67.418564 -0.94171476
69.386391 68.023895 -0.92749143
70.579178 68.91497 -0.90963912
72.457924 70.318489 -0.88003886
76.076584 73.021797 -0.84010351
77.462936 74.05748 -0.46932781
79.736679 75.756073 0
79.69838 75.727463 0.54725695
68.544266 67.403358 -0.93601233
69.377495 68.02739 -0.92679727
70.573235 68.92292 -0.90963912
72.458511 70.334862 -0.88089561
76.086365 73.051888 -0.84154469
77.454933 74.076851 -0.4694728
79.734962 75.784439 0
79.692528 75.752655 0.54754752
68.50853 67.385101 -0.92949265
69.384666 68.042923 -0.92887443
70.567284 68.930855 -0.90963912
72.434425 70.332748 -0.87918377
76.067154 73.06028 -0.84096861
77.463539 74.108711 -0.47019893
79.733185 75.812813 0
79.699089 75.787209 0.54827309
68.583412 67.449989 -0.9457888
69.355728 68.031326 -0.92472279
70.557266 68.935738 -0.90907675
72.443176 70.355286 -0.88089561
76.056198 73.074852 -0.84096861
77.46376 74.134338 -0.47063392
79.77298 75.872513 0
79.680687 75.803047 0.54812807
68.543732 67.428726 -0.93845487
69.378883 68.058945 -0.92956597
70.571571 68.958954 -0.91189063
72.451889 70.377853 -0.88260746
76.057602 73.098755 -0.8418327
77.459808 74.15686 -0.47092447
79.775223 75.904091 0
79.716194 75.85955 0.54986978
68.527763 67.425278 -0.93601233
69.369972 68.062416 -0.92887443
70.54937 68.954628 -0.90963912
72.444176 70.388062 -0.88260746
76.058983 73.122681 -0.84269786
77.464104 74.185661 -0.47150505
79.735931 75.904312 0
79.705994 75.881668 0.55001473
68.527557 67.433731 -0.93682653
69.365059 68.068901 -0.92887443
70.535286 68.956406 -0.90851444
72.436447 70.398254 -0.88260746
76.047951 73.137245 -0.84269786
77.455917 74.205063 -0.47165003
79.763 75.954765 0
79.704048 75.910057 0.55045033
68.527336 67.442184 -0.93764073
69.356155 68.072342 -0.92818296
70.533333 68.967369 -0.90907675
72.436874 70.414658 -0.88346261
76.049255 73.161194 -0.84356302
77.447716 74.224457 -0.47179502
79.756836 75.98011 0
79.710327 75.944748 0.55117589
68.534973 67.45665 -0.94008636
69.351227 68.078812 -0.92818296
70.531364 68.97834 -0.90963912
72.425041 70.421738 -0.88303506
76.054634 73.188286 -0.84471613
77.443626 74.247002 -0.4720856
79.750618 76.00544 0
79.704147 75.970016 0.55146587
68.495445 67.43512 -0.93275249
69.342308 68.08223 -0.92749143
70.533424 68.992401 -0.91076595
72.437668 70.447495 -0.88517445
76.031189 73.19342 -0.84385103
77.447754 74.275864 -0.47266614
79.760925 76.043434 0
79.706184 76.001602 0.55204642
68.503052 67.449554 -0.93519503
69.341354 68.091736 -0.92818296
70.531418 69.00338 -0.91132832
72.4095 70.442078 -0.88303506
76.04882 73.229973 -0.8458693
77.435326 74.292099 -0.47266614
79.762886 76.075127 0
79.708176 76.033218 0.55262697
68.471451 67.433929 -0.92949265
69.340385 68.101234 -0.92887443
70.505219 68.995796 -0.90851444
72.405777 70.45536 -0.88346261
76.008934 73.222466 -0.84385103
77.435234 74.317818 -0.47310114
79.764801 76.10685 0
79.693626 76.052185 0.55262697
68.522125 67.481537 -0.94090056
69.351326 68.119934 -0.93164307
70.51931 69.01915 -0.91132832
72.414238 70.478043 -0.88517445
76.005974 73.243279 -0.84442705
77.447472 74.353073 -0.47397226
79.766655 76.138588 0
79.699631 76.08699 0.55335253
68.474869 67.453773 -0.93193519
69.314568 68.101868 -0.9261058
70.501167 69.017708 -0.90963912
72.398285 70.481934 -0.88431937
75.978416 73.245132 -0.84327388
77.434952 74.369308 -0.47397226
79.772575 76.173531 0
79.726166 76.137711 0.55480421
68.49025 67.474312 -0.93601233
69.333427 68.126717 -0.93026012
70.511177 69.037994 -0.91189063
72.406693 70.504646 -0.88603121
75.971336 73.262779 -0.84356302
77.43885 74.398254 -0.47455281
79.753746 76.189392 0
79.695045 76.143982 0.55422366
68.443077 67.446404 -0.92704695
69.312576 68.120857 -0.92749143
70.49305 69.03653 -0.91020364
72.390701 70.508499 -0.88517445
75.984657 73.296249 -0.84529221
77.41806 74.408112 -0.47426227
79.75544 76.221169 0
79.725525 76.197968 0.55581975
68.491745 67.488503 -0.93764073
69.369514 68.170219 -0.93787187
70.494019 69.043564 -0.91076595
72.386772 70.513565 -0.88517445
75.962692 73.290802 -0.84413904
77.440498 74.438538 -0.47527838
79.785065 76.25943 0
79.734566 76.220215 0.55640036
68.538231 67.533401 -0.9482345
69.320938 68.142807 -0.93026012
70.503952 69.063889 -0.91301751
72.378891 70.523697 -0.88517445
75.97596 73.324318 -0.8458693
77.436073 74.461143 -0.47556838
79.790771 76.294479 0
79.727997 76.245605 0.55669087
68.526169 67.532806 -0.9466061
69.296135 68.133789 -0.92679727
70.489815 69.065491 -0.91189063
72.379105 70.540138 -0.88603121
75.95652 73.332413 -0.84529221
77.427528 74.480576 -0.47571394
79.771805 76.310349 0
79.717285 76.267799 0.55683589
68.451813 67.483437 -0.93193519
69.318802 68.161835 -0.93164307
70.491699 69.079597 -0.91301751
72.371201 70.550255 -0.88603121
75.949303 73.350037 -0.84558022
77.431229 74.509605 -0.47629449
79.744614 76.319771 0
79.731102 76.309204 0.55785203
68.505951 67.534584 -0.94416046
69.297981 68.155869 -0.92887443
70.485558 69.087433 -0.91301751
72.347122 70.547691 -0.88431937
75.958344 73.380432 -0.8470214
77.438965 74.541862 -0.47702006
79.77475 76.374115 0
79.72847 76.337814 0.55828702
68.493896 67.533905 -0.94252896
69.316612 68.18087 -0.93302608
70.471405 69.088982 -0.91189063
72.363411 70.576813 -0.88688636
75.963264 73.407661 -0.84817457
77.434372 74.564514 -0.47731006
79.755699 76.389954 0
79.725815 76.366447 0.55872256
68.470215 67.524033 -0.93845487
69.291855 68.171761 -0.92956597
70.477234 69.106239 -0.91357982
72.339325 70.574196 -0.88517445
75.960022 73.42852 -0.84875172
77.442001 74.596817 -0.4780356
79.765251 76.428322 0
79.735352 76.404755 0.55959368
68.427177 67.498787 -0.93030679
69.306488 68.19371 -0.93302608
70.471054 69.114059 -0.91357982
72.347488 70.597 -0.88688636
75.952675 73.446167 -0.84903973
77.433281 74.616287 -0.47818118
79.778801 76.469948 0
79.740738 76.439865 0.56031924
68.496552 67.562454 -0.9457888
69.285706 68.187668 -0.93026012
70.448936 69.109253 -0.91132832
72.331474 70.600716 -0.88603121
75.953423 73.470245 -0.84990489
77.428581 74.638962 -0.47847116
79.784111 76.505157 0
79.741989 76.471786 0.56089979
68.445808 67.530998 -0.93601233
69.284569 68.197166 -0.9309516
70.462654 69.132843 -0.91414219
72.319458 70.607574 -0.885602
75.950066 73.491112 -0.85048091
77.436058 74.671333 -0.47919673
79.789383 76.540421 0
79.739105 76.500481 0.56133479
68.472466 67.560989 -0.94252896
69.267708 68.194168 -0.92887443
70.460434 69.143822 -0.91470671
72.319511 70.624023 -0.88645875
75.92646 73.495888 -0.84961683
77.41909 74.684326 -0.47905174
79.774216 76.559486 0
79.732124 76.52597 0.56162536
68.437263 67.541733 -0.93601233
69.286163 68.219307 -0.93302608
70.450233 69.148445 -0.91414219
72.307487 70.630867 -0.88603121
75.927094 73.519958 -0.85048091
77.410233 74.703773 -0.47919673
79.807831 76.617493 0
79.741341 76.564423 0.56249589
68.44455 67.556351 -0.93845487
69.249733 68.200623 -0.92749143
70.428131 69.143532 -0.91189063
72.299469 70.6409 -0.88603121
75.923668 73.540833 -0.85105807
77.405411 74.726471 -0.47948727
79.796654 76.639847 0
79.766739 76.615906 0.56394756
68.436401 67.558624 -0.93764073
69.256386 68.21637 -0.92956597
70.437767 69.164017 -0.91414219
72.31546 70.670197 -0.8885982
75.912132 73.555237 -0.85105807
77.400543 74.749153 -0.47977728
79.793533 76.668686 0
79.783897 76.66095 0.56510812
68.478317 67.601158 -0.9474203
69.255203 68.225876 -0.93026012
70.427567 69.16861 -0.91357982
72.283401 70.660942 -0.88603121
75.900574 73.569626 -0.85105807
77.40374 74.778366 -0.48035786
79.778214 76.687759 0
79.764542 76.676758 0.56496316
68.466263 67.600357 -0.9457888
69.265709 68.244804 -0.93302608
70.437141 69.189133 -0.91583139
72.291336 70.68383 -0.88774312
75.889008 73.584 -0.85105807
77.406891 74.807602 -0.4809384
79.77504 76.716614 0
79.76944 76.712097 0.56568873
68.488823 67.627502 -0.95149434
69.260574 68.251167 -0.93302608
70.426918 69.19371 -0.91526902
72.275253 70.687386 -0.88688636
75.86132 73.58535 -0.84990489
77.393822 74.823792 -0.4809384
79.792046 76.761841 0
79.745987 76.724617 0.56539869
68.453712 67.608032 -0.9449746
69.239853 68.244896 -0.93026012
70.416695 69.19828 -0.91470671
72.283127 70.710304 -0.8885982
75.869827 73.615952 -0.85134608
77.392853 74.849785 -0.48137397
79.780655 76.784187 0
79.758873 76.766541 0.56641483
68.418648 67.588478 -0.93845487
69.2425 68.257545 -0.93164307
70.402512 69.199615 -0.91357982
72.271034 70.717079 -0.88817066
75.83812 73.613983 -0.84990489
77.383766 74.869232 -0.48151895
79.789444 76.822937 0
79.755524 76.795387 0.56684983
68.433472 67.609413 -0.94252896
69.241241 68.267044 -0.9323346
70.396225 69.207344 -0.91357982
72.250961 70.717339 -0.88688636
75.838531 73.638084 -0.85077
77.382713 74.895241 -0.48195451
79.790085 76.855148 0
79.776321 76.843948 0.56815594
68.371185 67.576302 -0.93112099
69.230911 68.279694 -0.9323346
70.391495 69.229233 -0.91470671
72.250595 70.750259 -0.8885982
75.787178 73.64373 -0.84875172
77.388527 74.95388 -0.48311564
79.803276 76.92952 0
79.773392 76.905075 0.56917202
68.384315 67.591476 -0.93438083
69.239975 68.292397 -0.93441176
70.400116 69.242744 -0.91639376
72.250488 70.758499 -0.88902575
75.773338 73.644287 -0.84817457
77.381905 74.961967 -0.48311564
79.81559 76.955551 0
79.777664 76.924484 0.56960762
68.433449 67.640678 -0.9457888
69.22702 68.292351 -0.93302608
70.405563 69.260147 -0.91808295
72.246292 70.771729 -0.88945496
75.757683 73.655228 -0.84788656
77.384712 74.991318 -0.48369619
79.820045 76.99118 0
79.778099 76.956726 0.57018816
68.455765 67.66803 -0.95149434
69.198593 68.279533 -0.92887443
70.403122 69.271111 -0.91864526
72.238106 70.781685 -0.88945496
75.738029 73.662857 -0.84731054
77.383446 75.01738 -0.48413119
79.804337 77.010284 0
79.778481 76.988998 0.57076871
68.432274 67.657684 -0.9474203
69.216637 68.30497 -0.93302608
70.377159 69.26268 -0.91583139
72.229904 70.791634 -0.88945496
75.742302 73.690201 -0.84846371
77.390182 75.050095 -0.48485729
79.808678 77.045929 0
79.758751 77.00473 0.57062316
68.397377 67.637833 -0.94090056
69.18824 68.292084 -0.92887443
70.370796 69.270378 -0.91583139
72.221695 70.801575 -0.88945496
75.706665 73.684593 -0.84673339
77.380821 75.069572 -0.48500231
79.81295 77.081612 0
79.771065 77.046959 0.5716393
68.392982 67.643143 -0.94090056
69.194641 68.307961 -0.9309516
70.37616 69.287811 -0.91752058
72.201607 70.801666 -0.88817066
75.710884 73.711945 -0.84788656
77.383438 75.099007 -0.48558286
79.813156 77.113998 0
79.779297 77.085915 0.57251042
68.415192 67.67057 -0.9466061
69.208717 68.330269 -0.93441176
70.36586 69.292259 -0.91695821
72.209175 70.824707 -0.8898825
75.667313 73.699631 -0.84558022
77.386002 75.128456 -0.48616341
79.809311 77.143082 0
79.783447 77.121582 0.57323593
68.406944 67.672729 -0.9457888
69.207336 68.339775 -0.93510324
70.351646 69.293434 -0.91583139
72.200928 70.834618 -0.8898825
75.687378 73.740211 -0.84788656
77.384506 75.154594 -0.48659843
79.809418 77.175507 0
79.799522 77.167259 0.57439709
68.417671 67.690727 -0.94904864
69.209793 68.352501 -0.93648887
70.356949 69.310883 -0.91752058
72.188721 70.841232 -0.88945496
75.679565 73.757645 -0.84817457
77.386971 75.18409 -0.48717898
79.821434 77.217949 0
79.7836 77.18634 0.57439709
68.428368 67.708755 -0.95230854
69.200676 68.35556 -0.93579471
70.358315 69.325081 -0.91864526
72.188316 70.857712 -0.89031005
75.663803 73.768433 -0.84788656
77.385406 75.210266 -0.48761454
79.813438 77.243744 0
79.771637 77.208733 0.57454205
68.340607 67.644188 -0.93438083
69.222313 68.38443 -0.94064051
70.344093 69.326233 -0.91752058
72.180023 70.867599 -0.89031005
75.655952 73.785843 -0.84817457
77.379807 75.233109 -0.48790455
79.801407 77.26619 0
79.771584 77.24115 0.57512265
68.370232 67.67807 -0.94171476
69.159439 68.342285 -0.93026012
70.345428 69.340431 -0.91864526
72.18351 70.887398 -0.89159441
75.671829 73.823235 -0.8501929
77.386108 75.266014 -0.48863065
79.817223 77.31208 0
79.767502 77.270241 0.57555819
68.362007 67.680168 -0.94090056
69.177185 68.36792 -0.93441176
70.34285 69.351372 -0.91920763
72.167328 70.890656 -0.89073765
75.648087 73.827324 -0.84932774
77.380424 75.288872 -0.48892066
79.824989 77.351318 0
79.767334 77.302673 0.5761382
68.402855 67.72374 -0.95068014
69.210213 68.40657 -0.94133204
70.328621 69.35247 -0.91808295
72.155075 70.897209 -0.89031005
75.64016 73.844742 -0.84961683
77.378685 75.315102 -0.48935622
79.840637 77.397316 0
79.790932 77.355278 0.57758987
68.420967 67.74823 -0.95556837
69.193413 68.403137 -0.93925756
70.318283 69.356834 -0.91752058
72.154572 70.913704 -0.89116681
75.620361 73.852097 -0.84903973
77.372925 75.337975 -0.48964623
79.828407 77.419815 0
79.790642 77.387794 0.57817042
68.378777 67.721565 -0.9474203
69.188087 68.409409 -0.93925756
70.327293 69.377625 -0.91977215
72.16185 70.936836 -0.89287704
75.596619 73.856079 -0.84817457
77.379021 75.370964 -0.49037233
79.816154 77.442307 0
79.774452 77.40686 0.57817042
68.378036 67.730057 -0.9482345
69.163651 68.399391 -0.93579471
70.313042 69.37867 -0.91864526
72.161285 70.953362 -0.8937338
75.600449 73.883507 -0.84932774
77.385048 75.403969 -0.4910979
79.81575 77.474915 0
79.770096 77.43602 0.57860541
68.35849 67.722504 -0.9449746
69.19268 68.434967 -0.9420262
70.318138 69.396202 -0.92033446
72.141159 70.953209 -0.8924495
75.580643 73.8908 -0.84875172
77.383102 75.430252 -0.49153289
79.823196 77.514282 0
79.781517 77.478691 0.57962155
68.365257 67.737411 -0.9474203
69.168251 68.424911 -0.93856341
70.319328 69.410431 -0.92145914
72.12886 70.959702 -0.89202195
75.572609 73.90815 -0.84903973
77.373245 75.449806 -0.49167845
79.838486 77.560478 0
79.784958 77.514648 0.58034706
68.383232 67.761993 -0.95230854
69.14386 68.414818 -0.93510324
70.312782 69.418068 -0.92145914
72.124336 70.972862 -0.8924495
75.588104 73.945709 -0.85105807
77.371216 75.476097 -0.49211344
79.829979 77.58638 0
79.811996 77.570946 0.58194375
68.367455 67.757622 -0.949866
69.134727 68.417763 -0.93441176
70.286972 69.409119 -0.91864526
72.13147 70.996071 -0.89416134
75.595688 73.97657 -0.85249925
77.3731 75.505806 -0.49269399
79.817513 77.608902 0
79.787704 77.583252 0.58165318
68.347939 67.749985 -0.9466061
69.159782 68.45018 -0.93994904
70.29583 69.429993 -0.92089683
72.119125 71.002541 -0.8937338
75.567955 73.977058 -0.85134608
77.359184 75.521957 -0.49269399
79.828636 77.651787 0
79.794899 77.622688 0.5825243
68.330704 67.739685 -0.94334626
69.16468 68.459846 -0.94133204
70.292542 69.433792 -0.92089683
72.107117 71.000725 -0.89287704
75.5541 73.977295 -0.85077
77.371887 75.547005 -0.49341956
79.832207 77.671555 0
79.79847 77.642426 0.58295989
68.333656 67.751381 -0.9449746
69.132744 68.443108 -0.93648887
70.278297 69.434746 -0.91977215
72.094772 71.007156 -0.8924495
75.538116 73.987854 -0.85048091
77.369713 75.573357 -0.49385512
79.843224 77.714531 0
79.793747 77.6717 0.58339489
68.329117 67.756615 -0.9449746
69.146317 68.465744 -0.93994904
70.283234 69.452309 -0.92145914
72.097939 71.027031 -0.8937338
75.541664 74.01535 -0.85163409
77.355721 75.589508 -0.49385512
79.854149 77.75753 0
79.796837 77.707802 0.58412045
68.376785 67.807259 -0.95638257
69.140915 68.471962 -0.93994904
70.276634 69.4599 -0.92145914
72.093307 71.040176 -0.89416134
75.537369 74.036079 -0.85221124
77.361313 75.622681 -0.49458069
79.845375 77.783516 0
79.776344 77.723465 0.58397543
68.312584 67.760574 -0.94334626
69.097679 68.445183 -0.93302608
70.27388 69.470825 -0.92202365
72.092545 71.056709 -0.8950181
75.536919 74.060204 -0.85307527
77.355095 75.64566 -0.49487123
79.860092 77.830017 0
79.802841 77.780098 0.58557212
68.34153 67.795059 -0.95068014
69.118759 68.474457 -0.93787187
70.263428 69.475052 -0.92145914
72.064674 71.049576 -0.89287704
75.520859 74.07074 -0.85278726
77.360573 75.678886 -0.4955968
79.882553 77.883423 0
79.786179 77.799179 0.58557212
68.322067 67.78727 -0.9474203
69.128441 68.493866 -0.94064051
70.275925 69.499367 -0.92427522
72.063881 71.066086 -0.8937338
75.508682 74.084648 -0.85278726
77.358185 75.705299 -0.49603236
79.861855 77.899178 0
79.789032 77.835365 0.58629769
68.302635 67.779442 -0.94416046
69.08532 68.466957 -0.93372023
70.242546 69.483467 -0.92033446
72.047615 71.069046 -0.89287704
75.49649 74.098549 -0.85278726
77.35183 75.728287 -0.49632233
79.876335 77.945816 0
79.787926 77.868149 0.58687824
68.305473 67.791168 -0.9457888
69.08744 68.479721 -0.93510324
70.239731 69.494362 -0.92089683
72.050629 71.088943 -0.89416134
75.4804 74.109016 -0.85249925
77.349358 75.754715 -0.49675789
79.875099 77.978745 0
79.78286 77.897522 0.58731377
68.323135 67.816002 -0.95068014
69.104599 68.505798 -0.93925756
70.252129 69.518707 -0.9237107
72.042061 71.098671 -0.89416134
75.475929 74.129723 -0.85307527
77.346832 75.781158 -0.49719346
79.850388 77.99102 0
79.801117 77.947533 0.58861989
68.300011 67.804848 -0.9466061
69.084122 68.498657 -0.93648887
70.230232 69.512787 -0.92145914
72.033478 71.108383 -0.89416134
75.471436 74.150444 -0.85365242
77.355934 75.817932 -0.49806401
79.852951 78.027405 0
79.807602 77.987274 0.58949047
68.321289 67.832993 -0.95230854
69.112465 68.53476 -0.94271767
70.242584 69.537186 -0.92427522
72.03257 71.124901 -0.8950181
75.463028 74.167725 -0.85394043
77.361084 75.851303 -0.49878958
79.847679 78.056915 0
79.817902 78.030502 0.59050655
68.298187 67.821785 -0.9482345
69.106979 68.540939 -0.94271767
70.228287 69.537964 -0.92314833
72.023956 71.134605 -0.8950181
75.446877 74.178131 -0.85365242
77.354523 75.874352 -0.49908015
79.861801 78.103722 0
79.808701 78.056511 0.59079659
68.289879 67.823692 -0.9474203
69.086502 68.533752 -0.93994904
70.214012 69.538727 -0.92202365
72.019157 71.147705 -0.8954457
75.453873 74.209167 -0.8550936
77.359558 75.907761 -0.49980569
79.860291 78.136734 0
79.803345 78.085976 0.59123212
68.277878 67.822281 -0.9457888
69.081024 68.539894 -0.93994904
70.207314 69.546234 -0.92202365
72.025826 71.171074 -0.89715755
75.441528 74.223 -0.8550936
77.345161 75.923897 -0.49980569
79.862595 78.173218 0
79.817314 78.132767 0.59239322
68.324814 67.873627 -0.95719987
69.075531 68.546028 -0.93994904
70.211952 69.563889 -0.9237107
72.009499 71.173904 -0.89630079
75.41375 74.223007 -0.85394043
77.350098 75.957344 -0.50053126
79.872604 78.21669 0
79.800232 78.151863 0.59239322
68.29438 67.855728 -0.95149434
69.107368 68.58567 -0.94686931
70.193893 69.561218 -0.92202365
71.993195 71.176727 -0.8954457
75.412941 74.247162 -0.85480559
77.33564 75.973465 -0.50053126
79.855415 78.235855 0
79.798584 78.184837 0.59297383
68.297073 67.867531 -0.95312583
69.053345 68.54821 -0.93787187
70.202278 69.582298 -0.92427522
71.999779 71.200119 -0.89715755
75.38517 74.247108 -0.85365242
77.34433 76.010422 -0.50140178
79.880745 78.293297 0
79.812332 78.231728 0.59413493
68.274033 67.856155 -0.94904864
69.059021 68.564392 -0.93994904
70.218163 69.610207 -0.92765141
71.987267 71.206345 -0.89673001
75.391983 74.278175 -0.8550936
77.349113 76.043961 -0.50212795
79.871201 78.319458 0
79.806709 78.261269 0.59457046
68.306038 67.894485 -0.95719987
69.064667 68.580605 -0.9420262
70.18499 69.593849 -0.9237107
71.978554 71.215988 -0.89673001
75.379555 74.291931 -0.8550936
77.334549 76.060081 -0.50212795
79.865471 78.349106 0
76.232086 75.062981 0.46061331
68.250053 67.853195 -0.9457888
69.044266 68.573242 -0.93925756
70.185768 69.608154 -0.92483753
71.966011 71.222168 -0.89630079
75.355614 74.29525 -0.85422844
77.339218 76.093628 -0.50285351
79.886673 78.403214 0
76.222557 75.081238 0.4607583
68.289291 67.898224 -0.95556837
69.049866 68.589447 -0.94133204
70.182739 69.619034 -0.9253999
71.983879 71.255959 -0.899297
75.354652 74.319405 -0.8550936
77.339981 76.123718 -0.50343406
79.880821 78.432907 0
76.213013 75.09951 0.46090385
68.269966 67.890083 -0.95230854
69.044312 68.595543 -0.94133204
70.179703 69.629921 -0.92596221
71.967529 71.258698 -0.89844185
75.330696 74.322662 -0.85422844
77.329155 76.143326 -0.50357902
79.859512 78.44857 0
76.245697 75.156258 0.46264553
68.234749 67.862686 -0.9449746
69.023003 68.581688 -0.93787187
70.168793 69.626816 -0.92483753
71.963135 71.263504 -0.89844185
75.332108 74.336487 -0.85480559
77.341011 76.168884 -0.50430459
76.213097 75.140068 0
76.250458 75.174149 0.46308053
68.255615 67.891151 -0.95068014
69.024879 68.594536 -0.93925756
70.161995 69.634262 -0.92483753
71.954353 71.273125 -0.89844185
75.323425 74.353661 -0.8550936
77.303291 76.163963 -0.50343406
76.180405 75.137245 0
76.187096 75.143356 0.46119386
68.298279 67.939713 -0.96127391
69.034119 68.614166 -0.9420262
70.155182 69.641701 -0.92483753
71.937988 71.275787 -0.89758509
75.310905 74.367332 -0.8550936
77.20047 76.099258 -0.50009573
76.182289 75.166023 0
76.146812 75.133507 0.46017829
68.21344 67.87133 -0.94334626
69.010056 68.603256 -0.93856341
70.1521 69.652573 -0.9253999
71.951881 71.306221 -0.90015376
75.313614 74.394989 -0.85624677
76.363121 75.359291 -0.46889281
64 64 0
76.17926 75.190353 0.46191943
68.248749 67.913246 -0.95230854
69.019249 68.622902 -0.94133204
70.145264 69.660004 -0.9253999
71.935486 71.308861 -0.899297
75.28582 74.394638 -0.8550936
64 64 -0
76.228012 75.262428 0
76.223068 75.257874 0.46409664
68.262177 67.935143 -0.95638257
69.024727 68.639183 -0.9434092
70.157082 69.684654 -0.92821378
71.937965 71.328896 -0.9005813
75.299866 74.432831 -0.85711193
64 64 -0
64 64 0
76.194183 75.258537 0.46351609
68.195747 67.883209 -0.94252896
69.041206 68.665695 -0.94756085
70.150208 69.692093 -0.92821378
71.917801 71.328018 -0.899297
75.287247 74.44648 -0.85711193
76.253204 75.340485 -0.46628001
76.124359 75.221237 0
76.089035 75.188538 0.46003273
68.216415 67.911812 -0.9482345
68.976723 68.617188 -0.93648887
70.143326 69.699516 -0.92821378
71.916473 71.344566 -0.90015376
75.278404 74.463623 -0.85739994
76.26236 75.376495 -0.46715114
76.190918 75.310219 0
76.022179 75.153664 0.45800108
68.273224 67.974129 -0.96208811
69.000534 68.650536 -0.9420262
70.110397 69.682724 -0.92427522
71.915108 71.361115 -0.90100884
75.288475 74.498375 -0.85912913
76.225761 75.370064 -0.46628001
76.253479 75.395836 0
75.993469 75.154022 0.4574205
68.141876 67.861328 -0.93356669
68.965553 68.629204 -0.93648887
70.129539 69.714348 -0.92821378
71.902451 71.367172 -0.9005813
75.27578 74.512009 -0.85912913
76.174011 75.349396 -0.46482891
76.197815 75.371582 0
75.968575 75.157875 0.45698494
68.21666 67.940575 -0.95149434
68.985603 68.659172 -0.94133204
70.118919 69.718285 -0.92765141
