# .PCD v0.7 - Point Cloud Data file format
VERSION 0.7
FIELDS x y z
SIZE 4 4 4
TYPE F F F
COUNT 1 1 1
WIDTH 1677
HEIGHT 1
VIEWPOINT 0 0 0 1 0 0 0
POINTS 1677
DATA ascii
53.869209 99.673462 0
55.945316 92.362885 0.82344359
55.102631 95.186775 -0.90573949
53.823257 99.671196 0
55.911049 92.353134 0.82344359
55.08786 95.096085 -0.90341783
53.778732 99.663879 0
55.865349 92.383286 0.82460415
55.080482 94.980423 -0.90037
53.731323 99.666504 0
55.835369 92.358467 0.82416916
55.10947 94.73999 -0.89369386
53.688236 99.654076 0
55.804001 92.338585 0.82387859
64 64 -0
55.160774 94.424805 -0.88484049
53.633545 99.68158 0
55.772659 92.318687 0.82358855
55.174973 94.23951 -0.87976104
53.591896 99.664032 0
55.735538 92.318695 0.82387859
55.16914 94.1241 -0.87671328
53.544418 99.666397 0
55.711555 92.273796 0.82286304
55.18853 93.923981 -0.87119824
53.501331 99.65374 0
55.687675 92.228859 0.8218469
55.489902 92.772156 -0.8379631
53.453827 99.656006 0
55.649151 92.233749 0.82228249
55.506939 92.587509 -0.83288366
53.409271 99.648224 0
55.629845 92.173813 0.82083076
55.502125 92.477623 -0.82998085
53.363228 99.645386 0
55.628498 92.054123 0.81763798
55.500542 92.357826 -0.82678807
53.314186 99.652451 0
55.655777 91.83989 0.81168741
55.50074 92.233078 -0.82344973
53.27412 99.629532 0
55.659595 91.705391 0.8080591
55.508743 92.083519 -0.81938636
53.228058 99.626526 0
55.609581 91.750015 0.80965573
55.514072 91.943962 -0.81561303
53.194099 99.583588 0
55.576057 91.739853 0.80965573
55.510635 91.834267 -0.81271023
55.33453 92.411667 0
55.54406 91.724693 0.80951077
64 64 -0
55.344414 92.256859 0
55.527309 91.65979 0.80791408
64 64 -0
55.333233 92.171768 0
55.492367 91.654495 0.8080591
64 64 -0
64 64 -0
55.336075 92.041924 0
55.458958 91.644196 0.8080591
55.396225 91.728394 -0.81082356
55.339218 91.912125 0
64 64 0
55.362728 91.717979 -0.81082356
55.310139 91.886749 0
64 64 0
55.3339 91.692635 -0.81038797
55.285778 91.846413 0
64 64 0
55.309399 91.712189 -0.81111354
55.267395 91.846123 0
64 64 0
55.269676 91.721489 -0.81169409
55.232193 91.840515 0
55.403992 91.294998 0.79920626
55.234619 91.715874 -0.8118391
55.193848 91.844788 0
55.367886 91.294495 0.79949623
55.19799 91.715179 -0.81212968
55.158638 91.839081 0
55.32547 91.313766 0.80036736
55.159767 91.719376 -0.81256521
55.121845 91.838287 0
55.294052 91.298325 0.8002224
55.126282 91.708679 -0.81256521
55.085037 91.837463 0
55.257904 91.297668 0.80051237
64 64 -0
55.08963 91.707825 -0.81285524
55.053005 91.821701 0
55.231293 91.267303 0.79993182
55.052956 91.706932 -0.81314582
55.014595 91.825737 0
55.203144 91.241844 0.79949623
55.024296 91.681267 -0.81271023
54.977764 91.824768 0
55.187862 91.176834 0.79790014
54.992462 91.665466 -0.81256521
54.934486 91.843536 0
55.155029 91.166161 0.79790014
54.95097 91.679253 -0.81329077
54.899231 91.837509 0
55.125443 91.145569 0.79760957
54.941845 91.594231 -0.81111354
54.870468 91.811668 0
55.099136 91.115074 0.79702902
58.010689 82.171356 -0.53434694
54.830353 91.820389 0
55.064747 91.109245 0.79717457
57.982208 82.183838 -0.53492749
54.818008 91.745033 0
55.036896 91.083626 0.79673904
57.922546 82.289993 -0.53826582
54.766434 91.788261 0
55.005814 91.067848 0.79659402
57.90868 82.257973 -0.53753972
57.877323 82.351959 0
57.857769 82.410568 0.54203248
57.889923 82.240753 -0.53724974
57.856812 82.3396 0
57.819023 82.452408 0.54348361
57.877827 82.203796 -0.53637862
57.866173 82.238441 0
57.805016 82.420303 0.54275805
57.84586 82.225937 -0.53724974
57.834152 82.260597 0
57.802711 82.353714 0.5410164
57.787136 82.326752 -0.54044253
57.817104 82.238358 0
57.792213 82.311775 0.5400008
57.756626 82.343826 -0.54116809
57.790043 82.245644 0
57.753349 82.353447 0.54145193
57.727745 82.355942 -0.54174864
57.791561 82.169182 0
57.7379 82.326218 0.54087138
57.712315 82.32869 -0.54116809
54.494873 91.707565 0
57.712391 82.328461 0.54116136
57.688477 82.326004 -0.54131365
54.463104 91.691124 0
57.671635 82.374901 0.54275805
54.455189 91.605721 -0.81575799
64 64 0
57.646034 82.377075 0.54304862
54.349174 91.695435 -0.81909579
64 64 0
57.615326 82.322403 0.54188752
64 64 -0
64 64 0
54.589466 90.953445 0.79731959
64 64 -0
54.28685 91.71254 0
54.563782 90.92244 0.79673904
54.244862 91.724976 -0.8208375
54.249924 91.710594 0
54.543331 90.876694 0.7957229
54.211369 91.713173 -0.8208375
54.21991 91.688988 0
54.52644 90.821152 0.79441679
54.16573 91.735611 -0.82185358
54.18124 91.691872 0
54.514877 90.750908 0.79267514
54.132225 91.723709 -0.82185358
54.146042 91.684891 0
54.498245 90.695374 0.79136902
54.100479 91.706879 -0.82170862
54.103844 91.697464 0
54.474735 90.659409 0.79064345
54.058239 91.719353 -0.82243413
54.066872 91.695274 0
54.447796 90.633194 0.79020792
54.019478 91.72197 -0.82286918
54.031647 91.688164 0
54.412098 90.631424 0.79049844
53.982452 91.719673 -0.82315969
53.996429 91.680992 0
54.35873 90.678467 0.79224014
53.938332 91.736855 -0.82403028
53.955894 91.688454 0
54.314102 90.700981 0.79325569
53.901268 91.734451 -0.82432085
53.917099 91.690979 0
54.287174 90.674622 0.79282069
53.869545 91.717354 -0.82417583
53.887222 91.668983 0
54.247814 90.682396 0.79340124
53.834274 91.709969 -0.82432085
53.852009 91.661629 0
28.945358 159.55273 2.842519
53.790028 91.726913 -0.82519138
53.809593 91.673782 0
28.808376 159.56885 2.8442607
53.752926 91.724319 -0.82548195
53.781578 91.646797 0
28.700134 159.50674 2.8436801
53.717628 91.716782 -0.82562697
53.73008 91.68322 0
28.537766 159.5907 2.8474536
53.675079 91.728683 -0.82635248
53.698452 91.665916 0
28.427731 159.53317 2.847018
53.639763 91.721054 -0.8264975
53.652275 91.687584 0
28.310497 159.495 2.8471637
53.6008 91.723114 -0.82693309
53.626137 91.655563 0
41.693768 123.46594 1.7737672
53.569138 91.705673 -0.82678807
53.576225 91.686844 0
41.631084 123.41463 1.7730416
53.52832 91.712494 -0.82736862
53.546463 91.66449 0
41.596046 123.29034 1.7701389
53.491161 91.709534 -0.82765859
53.507504 91.666443 0
41.539169 123.22435 1.7689778
53.457687 91.696808 -0.82765859
53.468525 91.668335 0
41.511986 123.08061 1.7654949
53.439106 91.69529 -0.82780361
53.459229 91.642517 0
41.526291 122.93591 1.7615761
53.409363 91.672806 -0.82751364
53.412819 91.663773 0
41.507099 122.77283 1.7575127
53.362885 91.693954 -0.82852972
53.368198 91.680122 0
41.503181 122.57095 1.7522877
53.331306 91.676224 -0.82838416
53.301067 91.754669 0
41.495979 122.37888 1.7473532
53.271618 91.731171 -0.83041638
64 64 0
41.496704 122.16747 1.7418382
53.238117 91.718193 -0.83041638
64 64 0
41.496029 121.96099 1.7364682
53.202747 91.710007 -0.8305614
64 64 0
41.490158 121.76913 1.7315338
53.161705 91.716301 -0.83114195
35.624134 136.56436 0
41.467682 121.62091 1.727906
53.132023 91.693497 -0.83085144
35.523163 136.56393 0
41.453129 121.45335 1.7236971
53.119511 91.627167 -0.82925528
64 64 0
41.459896 121.23265 1.7178915
53.206474 91.309532 -0.82011193
64 64 0
41.421322 121.12804 1.7155693
53.46854 90.552551 -0.79776126
64 64 0
41.432777 120.89784 1.7094736
53.007908 91.616508 -0.83012587
64 64 0
41.423618 120.72086 1.7049748
52.959126 91.641815 -0.83128697
40.69561 122.34462 0
41.426422 120.51497 1.6996047
52.945065 91.580231 -0.82983583
40.629002 122.30676 0
41.408417 120.36224 1.6958314
52.923389 91.53791 -0.82896471
40.572166 122.24467 0
41.410141 120.16135 1.690607
52.882339 91.543785 -0.82954532
40.474525 122.28391 0
41.398705 119.99426 1.686398
52.833462 91.568863 -0.83070642
53.092983 90.928131 0
41.399345 119.79834 1.6813185
52.796242 91.564987 -0.83099699
53.082016 90.861885 0
41.376945 119.66026 1.6779802
52.739395 91.609161 -0.8327381
53.037773 90.877579 0
41.362694 119.50298 1.6740619
52.694229 91.624397 -0.83360922
52.987556 90.907684 0
41.360603 119.31686 1.6692724
52.706268 91.500145 -0.83027083
52.947144 90.91362 0
41.376694 119.08757 1.6631768
52.702744 91.414421 -0.82809418
52.906708 90.919479 0
41.35173 118.9593 1.660129
52.715305 91.290291 -0.82475585
52.824467 91.026299 0
41.346893 118.78302 1.6556301
52.724152 91.17585 -0.82170862
52.771866 91.06086 0
41.332497 118.63082 1.6518568
52.767578 91.025055 -0.81735414
52.725559 91.126152 0
41.365311 118.45876 1.6470673
52.756931 90.958717 -0.81575799
52.664742 91.179779 0
41.341534 118.33064 1.6440195
52.716339 90.964294 -0.8163386
52.627892 91.175652 0
41.336082 118.15941 1.6396656
52.669689 90.984161 -0.81735414
52.580956 91.195488 0
41.357166 117.92596 1.633425
52.616913 91.018356 -0.81880581
52.550121 91.17688 0
41.463531 117.49149 1.6210883
52.562019 91.05722 -0.82040191
52.509193 91.182182 0
41.437355 117.37328 1.6183311
52.523247 91.057739 -0.8208375
52.476357 91.168282 0
41.405346 117.26943 1.6160089
52.502766 91.015167 -0.81996691
52.433342 91.178299 0
41.353203 117.21341 1.6151383
52.512985 90.900894 -0.81691915
52.382118 91.207375 0
41.323616 117.10476 1.612671
52.517334 90.801003 -0.81430632
52.351295 91.188538 0
41.271751 117.04865 1.6118
52.53421 90.672539 -0.81082356
52.351345 91.097931 0
41.244606 116.93522 1.6091877
52.561676 90.520279 -0.80661464
52.341286 91.031265 0
41.174484 116.922 1.6096233
52.589489 90.368134 -0.80240577
52.308632 91.017151 0
42.148663 114.49547 1.5366219
52.519573 90.354782 -0.80284131
52.220509 91.041313 0
42.005947 114.49014 1.5380729
52.48774 90.340889 -0.80284131
52.196182 91.007988 0
64 64 0
52.474701 90.284126 -0.80153519
52.182365 90.950806 0
64 64 0
52.436676 90.284439 -0.80197018
52.18544 90.855522 0
64 64 0
52.411213 90.256195 -0.80153519
52.165615 90.812645 0
64 64 0
52.375294 90.251671 -0.80182517
52.18169 90.688873 0
64 64 0
52.362568 90.19487 -0.80051905
52.206512 90.546143 0
64 64 0
52.343616 90.152313 -0.79964852
52.231651 90.403519 0
64 64 0
52.286575 90.195122 -0.80138963
52.227375 90.327515 0
64 64 0
52.268623 90.192795 -0.80153519
52.226364 90.28714 0
64 64 0
52.207165 90.244965 -0.80356687
52.162609 90.344116 0
64 64 0
52.124203 90.344398 -0.80705023
52.141479 90.306076 0
64 64 0
52.070969 90.377373 -0.8085013
52.139732 90.225327 0
42.103088 112.41827 1.4840839
52.060574 90.31562 -0.80705023
52.114498 90.196762 0
42.051044 112.37757 1.4836483
52.022331 90.315353 -0.80748522
52.117355 90.10659 0
41.992607 112.35101 1.4836483
51.997017 90.28669 -0.80705023
52.057716 90.153763 0
41.927723 112.33858 1.4840839
51.396076 91.514717 -0.84521979
52.045628 90.096725 0
41.839035 112.37801 1.4861156
64 64 -0
51.321617 91.589172 -0.84797704
52.016277 90.077538 0
64 64 0
51.246948 91.663513 -0.85073483
51.960812 90.115021 0
64 64 0
51.305145 91.449982 -0.84463924
51.916153 90.128807 0
64 64 0
64 64 -0
51.265423 91.448769 -0.84507477
51.867073 90.151947 0
64 64 0
64 64 -0
51.234467 91.428635 -0.84492922
51.844261 90.118408 0
41.575668 112.18199 1.4842288
51.21452 91.384949 -0.84405869
51.810509 90.108414 0
41.508671 112.1737 1.4848094
51.344547 91.021225 -0.83331865
51.725998 90.206772 0
41.452682 112.14178 1.4846644
51.468796 90.671982 -0.82301474
51.700974 90.177803 0
41.379059 112.14743 1.4856806
51.500824 90.5205 -0.81880581
51.647163 90.209991 0
41.314255 112.13416 1.4861156
51.508766 90.420815 -0.81619358
51.622181 90.180931 0
41.298309 112.01746 1.4833584
51.50135 90.35405 -0.81459689
38.686138 117.37558 0
41.27816 111.91017 1.4808911
51.415932 90.451553 -0.81808025
38.639549 117.30736 0
41.293961 111.72781 1.4761016
51.332508 90.544189 -0.82141805
38.655853 117.10758 0
41.278831 111.61125 1.4733444
51.224152 90.688232 -0.82635248
38.641151 116.97363 0
41.279655 111.4619 1.4695711
50.975964 91.122498 -0.84028536
38.624474 116.84442 0
41.24707 111.38287 1.4679744
50.882317 91.233139 -0.84420371
38.619362 116.6918 0
41.228172 111.27575 1.4655071
50.910458 91.090942 -0.84028536
38.571556 116.6283 0
41.182365 111.22481 1.4647816
50.977463 90.869339 -0.8338992
50.284637 92.298836 0
41.168388 111.10835 1.4620239
51.051994 90.674477 -0.82809418
50.278908 92.267136 0
41.178509 111.01507 1.4595566
51.044804 90.607407 -0.8264975
50.226532 92.287971 0
41.171764 110.88467 1.4563638
51.033188 90.549713 -0.82519138
50.215199 92.224548 0
41.135654 110.81503 1.4550576
51.017113 90.501373 -0.82417583
50.146767 92.277969 0
41.085964 110.77336 1.4546221
50.969063 90.518295 -0.82519138
50.135559 92.214508 0
41.040924 110.72233 1.4538965
50.914051 90.549156 -0.82664305
50.050854 92.300438 0
40.986778 110.6899 1.4537516
50.875076 90.547287 -0.82707804
50.03281 92.250916 0
40.918869 110.68534 1.4544771
50.845318 90.526756 -0.82693309
50.001003 92.22934 0
40.89711 110.58758 1.4522998
50.815586 90.506195 -0.82678807
49.980808 92.184448 0
40.898693 110.44331 1.4486716
50.811409 90.434441 -0.82504636
49.988586 92.083664 0
40.833313 110.43396 1.4492521
50.770176 90.437073 -0.82562697
49.959324 92.057396 0
40.935364 110.08992 1.4393831
50.754562 90.388557 -0.82461083
49.976799 91.93808 0
64 64 0
50.70866 90.400391 -0.82548195
49.919647 91.96759 0
41.001648 109.68129 1.4283531
53.850754 84.098793 -0.62882787
49.902283 91.918053 0
54.171772 83.463074 0.60893834
53.824131 84.091148 -0.62897283
49.821533 91.993843 0
54.145916 83.455818 0.60908329
53.80928 84.060303 -0.62839228
49.797146 91.95813 0
54.153011 83.383667 0.60719663
64 64 -0
53.803913 84.010948 -0.62723172
49.723206 92.019783 0
54.127239 83.376381 0.60734165
53.793934 83.97084 -0.6263606
49.679886 92.021057 0
54.139301 83.295036 0.60516495
53.812477 83.875259 -0.62374842
54.033371 83.444305 0
54.137329 83.241493 0.60385883
53.84787 83.747391 -0.62012005
54.033676 83.385963 0
54.123589 83.211075 0.60327828
53.938328 83.513412 -0.61315393
54.007877 83.378532 0
54.100384 83.199127 0.60327828
54.012634 83.311981 -0.6072033
64 64 0
54.08197 83.17791 0.60298771
54.063477 83.156906 -0.60270441
53.982643 83.312744 0
54.07795 83.129005 0.60182661
54.049931 83.126442 -0.60212386
53.971321 83.277542 0
54.04525 83.135445 0.60240716
59.55843 72.525192 -0.80129778
54.043182 83.111206 -0.60183328
53.974113 83.243774 0
54.01688 83.16169 0.6034233
59.555267 72.506165 -0.80001348
54.022503 83.094559 -0.60168833
64 64 0
53.99855 83.140396 0.60313272
59.537838 72.514435 -0.80129778
54.018738 83.045662 -0.60052717
64 64 0
53.985069 83.109901 0.60255271
59.551437 72.4636 -0.79701895
54.070679 82.890991 -0.59602827
53.933472 83.152039 0
59.614742 72.343155 0.2632342
59.559792 72.398361 -0.79188335
54.297096 82.352402 -0.57977325
53.858036 83.182854 0
64 64 0
59.57851 72.338554 -0.78674775
54.304142 82.285568 -0.57803154
53.837299 83.165993 0
64 64 0
59.582905 72.306 -0.78417909
54.272293 82.292191 -0.57861209
53.823925 83.135315 0
59.581795 72.30809 0.26279864
59.577702 72.291603 -0.783324
54.145042 82.477585 -0.5848527
53.781216 83.159744 0
59.579098 72.288986 0.26236311
59.584641 72.254562 -0.7803278
53.963402 82.763519 -0.59428662
53.755619 83.15197 0
59.564178 72.292816 0.26265365
59.574669 72.249222 -0.7803278
53.864586 82.893333 -0.59878552
53.752159 83.102905 0
59.559078 72.278282 0.26236311
64 64 -0
53.794975 82.968033 -0.60154331
53.736485 83.076752 0
59.590935 72.195107 0.25989586
59.574249 72.202354 -0.77690411
53.754799 82.987686 -0.60255885
53.738163 83.018524 0
59.573631 72.203499 0.26033142
59.569225 72.187981 -0.77604896
53.709595 83.016449 -0.60386556
59.432175 72.441246 0
59.573616 72.179863 0.25975087
59.559334 72.182617 -0.77604896
53.659367 83.05423 -0.60546166
59.414536 72.449432 0
59.563736 72.174507 0.25975087
59.569084 72.141174 -0.77262521
53.616474 83.078239 -0.60662276
59.37447 72.498749 0
59.55386 72.169144 0.25975087
59.564167 72.126808 -0.77177012
59.503891 72.237236 -0.52299845
53.630779 82.997253 -0.60444552
59.379162 72.465744 0
59.546478 72.15921 0.25960585
59.569145 72.094414 -0.76920152
59.484005 72.249947 -0.52415162
53.73259 82.756805 -0.59718943
59.368938 72.460159 0
59.54911 72.131012 0.25887975
64 64 -0
64 64 -0
53.77496 82.625931 -0.5934155
59.386272 72.404358 0
59.534279 72.13475 0.25917029
59.542168 72.097176 -0.77048582
64 64 -0
53.787544 82.549835 -0.59138381
64 64 0
59.516933 72.143013 0.25960585
59.637657 71.901115 -0.99969637
59.547279 72.064804 -0.76791722
59.466637 72.210869 -0.52270931
53.657135 82.733093 -0.59762442
59.358425 72.40686 0
59.514633 72.123932 0.25917029
59.63549 71.882515 -0.99800932
59.540024 72.054932 -0.76748961
59.456718 72.205383 -0.52270931
53.480949 82.997917 -0.6064778
59.388611 72.328392 0
59.512375 72.104866 0.25873473
59.628445 71.87278 -0.99744481
59.547733 72.018135 -0.76449507
59.454334 72.186333 -0.52184528
53.372231 83.139664 -0.61141223
59.4114 72.263657 0
59.507629 72.090363 0.25844476
59.628624 71.861259 -0.99632013
59.557865 71.98851 -0.76192647
59.477047 72.13385 -0.51867378
53.353088 83.146866 -0.61184782
59.459526 72.165359 0
59.502739 72.087646 0.25844476
59.636456 71.824905 -0.99237937
59.545719 71.987617 -0.76235402
59.472256 72.119354 -0.51809776
53.314781 83.161209 -0.61271834
59.454739 72.150772 0
59.510693 72.05043 0.25742862
59.631958 71.81076 -0.99125469
59.551102 71.955353 -0.75978702
59.459927 72.118385 -0.51838577
59.237057 72.516914 -0.27252927
59.462669 72.11348 0
59.498432 72.04953 0.25757363
59.629986 71.792175 -0.98956549
59.549026 71.936531 -0.75850272
59.450119 72.112892 -0.51838577
59.221691 72.52021 -0.27281928
59.463051 72.089836 0
59.49379 72.035027 0.25728363
59.623062 71.782463 -0.98900318
59.549507 71.913246 -0.75679088
59.460606 72.07132 -0.51607943
59.188473 72.555191 -0.2741254
59.468594 72.057121 0
59.489185 72.020508 0.25699309
59.611168 71.781593 -0.98956549
59.544991 71.898926 -0.75593573
59.448318 72.070328 -0.51636744
59.211327 72.490532 -0.2722387
59.474197 72.024445 0
59.487148 72.001488 0.25655806
59.611774 71.758591 -0.98731399
59.550617 71.866722 -0.75336713
59.418198 72.100845 -0.51867378
59.229218 72.434975 -0.27064204
59.464508 72.018967 0
59.480049 71.991486 0.25641251
59.602402 71.753281 -0.98731399
59.543648 71.856873 -0.75293958
59.431377 72.05481 -0.51607943
59.254917 72.365929 -0.26861036
59.452255 72.018005 0
59.470398 71.986023 0.25641251
59.595547 71.743553 -0.98675162
59.549381 71.824715 -0.75037259
59.413975 72.062782 -0.51694459
59.280777 72.296951 -0.2665787
59.478592 71.949173 0
59.468452 71.967003 0.25597751
59.59375 71.724976 -0.98506242
59.529755 71.837173 -0.75208443
59.409367 72.048241 -0.51636744
59.309383 72.223526 -0.26440147
59.44062 71.993439 0
59.481998 71.920898 0.25467139
59.586941 71.71524 -0.98450011
59.535591 71.805016 -0.74951583
59.40992 72.024727 -0.51521426
59.32267 72.177261 -0.26309535
59.430965 71.98793 0
59.472431 71.915436 0.25467139
59.582684 71.70108 -0.98337322
59.528713 71.795166 -0.74908829
59.415665 71.992256 -0.51348507
59.33606 72.131035 -0.26178923
59.434273 71.959816 0
59.45512 71.92347 0.25510639
59.583515 71.678116 -0.98112172
59.519299 71.789757 -0.74908829
59.416328 71.968773 -0.5123319
59.357334 72.071335 -0.26004755
59.427254 71.949783 0
59.453316 71.904472 0.25467139
59.579315 71.663979 -0.97999698
59.522713 71.762108 -0.74694884
59.429962 71.922905 -0.50973755
59.376141 72.016212 -0.25845143
59.428051 71.926216 0
59.454155 71.880966 0.25409085
59.562424 71.671829 -0.98168617
59.508202 71.765572 -0.74780399
59.441113 71.881554 -0.50743121
59.384674 71.979126 -0.25743532
59.428902 71.902664 0
59.449844 71.866463 0.25380027
59.558262 71.657661 -0.98055935
59.516846 71.729065 -0.74480945
59.449764 71.844719 -0.50541288
59.382862 71.960052 -0.25699976
59.424576 71.888138 0
59.437737 71.865448 0.25394529
59.549011 71.65229 -0.98055935
59.499771 71.736938 -0.74609208
59.442886 71.834747 -0.50512487
59.39415 71.918533 -0.25583866
59.438599 71.842117 0
59.423004 71.868919 0.25423583
59.539768 71.646904 -0.98055935
59.505943 71.704895 -0.74352509
59.438629 71.820305 -0.50454885
59.395058 71.895004 -0.25525808
59.484196 71.742188 0
59.42136 71.849915 0.25380027
59.543358 71.619583 -0.97774547
59.488857 71.712761 -0.74480945
59.444859 71.787987 -0.50281852
59.39864 71.867004 -0.25453255
59.487991 71.714249 0
59.411877 71.844376 0.25380027
59.521301 71.636108 -0.98055935
59.484741 71.698441 -0.74395269
59.443306 71.769089 -0.50195336
59.391766 71.856964 -0.25438753
59.4655 71.731247 0
59.418171 71.811935 0.25292972
59.519798 71.617561 -0.9788723
59.472843 71.697403 -0.74438024
59.444412 71.745743 -0.50080019
59.37701 71.860344 -0.25467753
59.44825 71.739212 0
59.398197 71.824318 0.2535103
59.510597 71.612144 -0.9788723
59.476585 71.669815 -0.74224079
59.440308 71.731323 -0.50022417
59.378075 71.836845 -0.25409698
64 64 0
59.391396 71.814262 0.25336471
59.503998 71.602325 -0.97830778
59.456863 71.682022 -0.74395269
59.446762 71.699104 -0.49849498
59.36861 71.831253 -0.25409698
59.432209 71.723717 0
59.387241 71.799744 0.25307474
59.497406 71.592522 -0.97774547
59.444969 71.680939 -0.74438024
59.448017 71.675797 -0.49734181
59.372402 71.803307 -0.25337142
59.417564 71.72715 0
59.388424 71.776291 0.25249416
59.498623 71.569603 -0.97549391
59.443558 71.662201 -0.74309754
59.444038 71.661392 -0.49676466
59.368286 71.78878 -0.25308141
59.421539 71.699226 0
59.368408 71.788574 0.25307474
59.499245 71.558159 -0.97436923
59.438931 71.659447 -0.74309754
59.447353 71.645302 -0.4958995
59.368904 71.777046 -0.25279087
59.422211 71.687523 0
59.355724 71.799179 0.2535103
59.495331 71.543976 -0.9732424
59.427048 71.658333 -0.74352509
59.451378 71.617592 -0.49445832
59.359509 71.771446 -0.25279087
59.418266 71.673042 0
59.367619 71.757866 0.25234917
59.483612 71.542885 -0.97380471
59.423077 71.64399 -0.74266833
59.45546 71.589905 -0.49301714
59.368801 71.734634 -0.25177529
59.400974 71.680901 0
59.36359 71.743332 0.2520586
59.474503 71.537422 -0.97380471
59.413845 71.638451 -0.74266833
59.440964 71.593285 -0.49359429
59.362144 71.724564 -0.25162974
59.399738 71.661949 0
59.348885 71.746651 0.25234917
59.457531 71.545013 -0.97549391
59.386078 71.663696 -0.74566454
59.445141 71.565598 -0.49215198
59.35817 71.71006 -0.25133973
59.393166 71.651924 0
59.336849 71.745468 0.25249416
59.466805 71.509064 -0.97155321
59.382126 71.649338 -0.74480945
59.436001 71.560089 -0.49215198
59.37571 71.659958 -0.24988863
59.370476 71.668633 0
59.332859 71.730942 0.25220418
59.465622 71.490547 -0.96986616
59.375549 71.639343 -0.74438024
59.445614 71.523605 -0.49013478
59.379921 71.632126 -0.24916251
59.37738 71.636322 0
59.323521 71.725296 0.25220418
59.467125 71.46769 -0.96761465
59.360992 71.64254 -0.74523699
59.425789 71.535782 -0.49128795
59.384182 71.604332 -0.24843696
59.373554 71.621841 0
59.322281 71.706306 0.25176862
59.463394 71.453514 -0.96648777
59.349091 71.641312 -0.74566454
59.424759 71.516991 -0.49042279
64 64 -0
59.364346 71.616249 0
59.315674 71.696213 0.2516236
59.457035 71.443695 -0.96592546
59.342537 71.631302 -0.74523699
59.423767 71.498207 -0.48955762
59.365818 71.593155 -0.24843696
59.360577 71.601746 0
59.306377 71.690552 0.2516236
59.469265 71.403526 -0.96142232
59.349403 71.599388 -0.74266833
59.409302 71.501503 -0.49013478
59.375629 71.556534 -0.2474214
59.332375 71.627213 0
59.299809 71.680428 0.25147805
59.460323 71.398048 -0.96142232
59.380493 71.528137 -0.7362501
59.408363 71.482719 -0.48926961
59.385532 71.519928 -0.24640527
59.334049 71.603821 0
59.285091 71.683609 0.25176862
64 64 -0
59.464699 71.370918 -0.95860845
59.401001 71.474442 -0.73154205
59.407459 71.463943 -0.48840445
59.373726 71.518768 -0.24655028
59.32214 71.602608 0
59.281261 71.669044 0.25147805
59.458462 71.361115 -0.95804614
59.410835 71.438309 -0.72854751
59.406586 71.445198 -0.48754042
59.356457 71.526443 -0.24698584
59.318417 71.588104 0
59.266537 71.672195 0.25176862
59.454922 71.34697 -0.95691925
59.415363 71.410912 -0.7264064
59.397591 71.439644 -0.48754042
59.355572 71.507568 -0.24655028
59.314735 71.573578 0
59.262741 71.657623 0.25147805
59.443363 71.345802 -0.95748377
59.411819 71.396652 -0.72555131
59.385883 71.438469 -0.48782843
59.351974 71.493126 -0.24626029
59.305588 71.567909 0
59.250748 71.656319 0.2516236
59.43718 71.33596 -0.95691925
59.411022 71.378021 -0.72426701
59.387825 71.415314 -0.48667526
59.331947 71.505157 -0.24684083
59.290943 71.571083 0
59.25248 71.632919 0.25104305
59.433693 71.321831 -0.95579457
59.407539 71.363762 -0.72341186
59.378868 71.409737 -0.48667526
59.325638 71.495087 -0.24669528
59.276295 71.574211 0
59.248764 71.618355 0.25075248
59.422157 71.32061 -0.95635694
59.406815 71.345146 -0.72212756
59.369919 71.404144 -0.48667526
59.316586 71.489433 -0.24669528
59.269901 71.564087 0
59.225788 71.634636 0.25147805
59.429508 71.289246 -0.9529807
59.397942 71.339592 -0.72212756
59.369225 71.385391 -0.4858101
59.315815 71.470573 -0.24626029
59.277363 71.531898 0
59.222084 71.620064 0.25118804
59.424431 71.268044 -0.9512915
59.406528 71.296478 -0.71870381
59.355846 71.376991 -0.4858101
59.302284 71.462067 -0.24626029
59.249847 71.545364 0
59.19997 71.624588 0.2516236
59.42379 71.249619 -0.94960231
59.400455 71.286591 -0.71827626
59.357979 71.353874 -0.48465693
59.290497 71.460777 -0.24640527
59.24073 71.539619 0
59.187988 71.623169 0.25176862
59.436775 71.209732 -0.94509923
59.388908 71.285355 -0.71870381
59.338032 71.365746 -0.4858101
59.278709 71.459473 -0.24655028
59.223282 71.547043 0
59.181557 71.612968 0.2516236
59.441681 71.182762 -0.94228536
59.393864 71.25811 -0.71656442
59.326366 71.364471 -0.48609811
59.269699 71.453758 -0.24655028
59.200226 71.563232 0
59.166801 71.615906 0.25191361
59.45483 71.142952 -0.93778229
59.396122 71.235214 -0.71485251
59.323021 71.350098 -0.48552209
59.271858 71.430504 -0.24596973
59.205059 71.535477 0
59.1576 71.610062 0.25191361
59.47353 71.09462 -0.93215448
59.392899 71.221001 -0.71399742
59.31971 71.335709 -0.48494494
59.254494 71.437927 -0.24640527
59.195957 71.529678 0
59.153996 71.595451 0.2516236
59.470444 71.080574 -0.93102765
59.381413 71.219742 -0.71442497
59.313637 71.325699 -0.48465693
59.234306 71.449699 -0.24698584
59.200882 71.501953 0
59.142021 71.593964 0.25176862
59.475609 71.053711 -0.92821378
59.383781 71.196877 -0.71271312
59.301998 71.324379 -0.48494494
59.239334 71.422073 -0.24626029
59.18058 71.513672 0
59.124428 71.601212 0.25220418
59.469833 71.043968 -0.92765141
59.391758 71.165375 -0.71014446
59.293152 71.318695 -0.48494494
59.219128 71.4338 -0.24684083
59.165882 71.516586 0
59.123684 71.582199 0.25176862
59.475094 71.017143 -0.92483753
59.385883 71.155487 -0.70971692
59.284309 71.313004 -0.48494494
59.215786 71.419273 -0.24655028
59.168076 71.493263 0
59.11734 71.571938 0.2516236
59.488689 70.977531 -0.92033446
59.382809 71.141296 -0.70886183
59.275478 71.307297 -0.48494494
59.206825 71.413483 -0.24655028
59.159023 71.487419 0
59.096909 71.583488 0.25220418
59.496845 70.946495 -0.91695821
59.376976 71.131409 -0.70843428
59.266651 71.30159 -0.48494494
59.197872 71.407684 -0.24655028
59.152821 71.47718 0
59.087749 71.57756 0.25220418
59.513386 70.902687 -0.91189063
59.387947 71.09568 -0.70543808
59.260651 71.291527 -0.48465693
59.194584 71.393173 -0.24626029
59.138111 71.480057 0
59.064438 71.593399 0.25292972
59.538334 70.846191 -0.90513819
59.373779 71.098694 -0.70629317
59.257484 71.277138 -0.48408091
59.199837 71.365593 -0.24553472
59.109192 71.504692 0
59.060947 71.57872 0.25263917
59.541183 70.823776 -0.90288663
59.365204 71.093102 -0.70629317
59.25436 71.262733 -0.48350376
59.168209 71.394577 -0.24669528
59.125748 71.459564 0
59.040421 71.590149 0.25321972
59.552441 70.788628 -0.89894593
59.34256 71.108978 -0.70843428
59.24559 71.256996 -0.48350376
59.159279 71.388733 -0.24669528
59.096767 71.484146 0
59.028408 71.588486 0.25336471
59.552612 70.7705 -0.89725673
59.359352 71.064713 -0.70458132
59.23114 71.259895 -0.48408091
59.138943 71.400253 -0.24727584
59.090584 71.473877 0
59.013531 71.591171 0.25365528
59.561199 70.73967 -0.89388049
59.347984 71.0634 -0.70501053
59.225224 71.249802 -0.48379177
59.118568 71.411736 -0.24785639
59.090149 71.454887 0
58.995785 71.598167 0.25409085
59.553059 70.734299 -0.89388049
59.336628 71.062057 -0.70543808
59.213608 71.248352 -0.48408091
59.115341 71.397171 -0.2475664
59.075413 71.457634 0
58.963699 71.626808 0.25525194
59.556149 70.711967 -0.89162898
59.330929 71.052139 -0.70501053
59.190578 71.26413 -0.48552209
59.097794 71.404266 -0.24800195
59.069275 71.447342 0
58.948753 71.629372 0.25554195
59.548042 70.706596 -0.89162898
59.313904 71.059311 -0.70629317
59.196106 71.236763 -0.48408091
59.083111 71.406982 -0.24829195
59.06028 71.441376 0
58.930912 71.636261 0.25597751
59.559654 70.671593 -0.88768822
59.305374 71.053642 -0.70629317
59.181637 71.239563 -0.48465693
59.065521 71.414024 -0.24872752
59.054173 71.431076 0
58.913059 71.643097 0.25641251
59.564079 70.656219 -0.88599902
59.303959 71.046539 -0.70586562
59.1744 71.240944 -0.48494494
59.061043 71.411041 -0.24872752
59.05257 71.423759 0
58.896915 71.657318 0.25699309
59.541916 70.671997 -0.8888151
59.284039 71.057938 -0.70757753
59.157028 71.248016 -0.4858101
59.054989 71.400734 -0.24858195
59.023369 71.448059 0
58.881886 71.659798 0.25728363
59.53952 70.65815 -0.88768822
59.284088 71.039429 -0.70629317
59.145397 71.246452 -0.48609811
59.031578 71.416351 -0.24930806
59.017265 71.437714 0
58.858177 71.675194 0.2580092
59.551304 70.623238 -0.88374966
59.272717 71.038002 -0.70672238
59.136646 71.240585 -0.48609811
59.025528 71.406021 -0.24916251
58.999573 71.444656 0
58.837315 71.686226 0.25858974
59.548988 70.609421 -0.88262278
59.264217 71.032288 -0.70672238
59.122116 71.243294 -0.48667526
59.016582 71.400002 -0.24916251
58.987679 71.442924 0
58.813519 71.701538 0.25931531
59.538162 70.608246 -0.88318515
59.252853 71.030807 -0.70714992
59.110474 71.241676 -0.48696327
59.007645 71.393974 -0.24916251
58.984509 71.428238 0
58.78968 71.716797 0.26004085
59.541576 70.586014 -0.88093358
59.244362 71.02507 -0.70714992
59.098831 71.240044 -0.48725128
58.998714 71.387939 -0.24916251
58.960949 71.443726 0
58.774529 71.719109 0.26033142
59.556454 70.546982 -0.87643051
59.221462 71.04055 -0.70928937
59.087173 71.238411 -0.48754042
58.986862 71.3862 -0.24930806
58.960732 71.424706 0
58.750614 71.734283 0.26105699
59.545677 70.545822 -0.87699503
59.201405 71.05175 -0.71100122
59.066803 71.249557 -0.48869246
58.972099 71.388725 -0.24959807
58.9459 71.427223 0
58.717884 71.762306 0.26221809
59.537773 70.540436 -0.87699503
59.178421 71.067146 -0.71314067
59.049297 71.256416 -0.48955762
58.963177 71.382645 -0.24959807
58.954536 71.395309 0
58.702656 71.764496 0.26250809
59.541348 70.518265 -0.87474352
59.166992 71.065552 -0.71356821
59.025932 71.271774 -0.4909988
58.942524 71.393707 -0.25017864
58.933849 71.406387 0
58.690334 71.76239 0.26265365
59.536346 70.508682 -0.87418115
59.152645 71.068184 -0.71442497
59.020073 71.26149 -0.49071079
58.927711 71.396172 -0.25046918
58.904297 71.430313 0
64 64 0
59.537125 70.490723 -0.87249196
59.138294 71.07077 -0.71528012
59.002506 71.268265 -0.49157596
58.933506 71.368614 -0.24974307
58.898266 71.419868 0
58.659813 71.76667 0.2632342
59.540825 70.46859 -0.87024045
59.12392 71.073357 -0.71613687
58.996662 71.257965 -0.49128795
64 64 -0
58.880451 71.426544 0
58.641594 71.773033 0.26366922
59.530125 70.467369 -0.87080276
59.109547 71.075897 -0.71699196
58.976131 71.268936 -0.49244112
58.915714 71.356346 -0.24974307
58.877396 71.411797 0
58.629253 71.770821 0.26381421
59.525204 70.457794 -0.87024045
59.092224 71.082649 -0.71827626
58.961464 71.271355 -0.49301714
58.894989 71.367287 -0.25032362
58.853622 71.426987 0
58.605061 71.785698 0.26454031
59.534809 70.42733 -0.86686206
59.080742 71.080925 -0.71870381
58.946774 71.273766 -0.49359429
58.889053 71.35685 -0.25017864
58.835739 71.433594 0
58.592693 71.78344 0.26468533
59.524132 70.426117 -0.86742651
59.060455 71.091827 -0.72041571
58.923206 71.288872 -0.49503547
58.880169 71.35067 -0.25017864
58.81189 71.4487 0
58.577358 71.785416 0.26497534
59.516369 70.4207 -0.86742651
59.043068 71.098488 -0.72170001
58.914406 71.282738 -0.49503547
58.868317 71.348732 -0.25032362
58.785019 71.468018 0
58.55307 71.800179 0.26570144
59.505703 70.419434 -0.86798888
59.022717 71.109314 -0.72341186
58.896717 71.289284 -0.4958995
58.856453 71.346794 -0.25046918
58.737194 71.517136 0
58.531727 71.810623 0.26628199
59.506714 70.40152 -0.86629969
58.999382 71.124306 -0.72555131
58.890881 71.278885 -0.49561149
58.838631 71.353325 -0.25090417
58.695221 71.55764 0
58.516327 71.812508 0.266572
59.504822 70.387779 -0.86517501
58.999645 71.105652 -0.72426701
58.876129 71.281174 -0.49618864
58.835724 71.338593 -0.2506142
58.647152 71.60656 0
58.512867 71.797379 0.26628199
59.494183 70.386497 -0.86573732
58.967384 71.133171 -0.72769076
58.870327 71.270737 -0.4958995
58.817883 71.34507 -0.25104919
58.616959 71.62986 0
54.087662 78.049637 0.48020616
59.510853 70.354713 -0.86179662
58.966034 71.125938 -0.72726315
58.871899 71.259193 -0.49532348
58.807442 71.350441 -0.25133973
58.597336 71.647858 0
54.124146 77.979988 0.47802949
59.488483 70.370033 -0.86461264
58.948524 71.132423 -0.72854751
58.85416 71.265663 -0.49618864
58.786552 71.361122 -0.25192031
58.567039 71.671059 0
54.206375 77.828094 0.47324002
59.498447 70.339706 -0.86123425
58.925049 71.14724 -0.7306869
58.845383 71.259438 -0.49618864
58.768631 71.367531 -0.25235584
58.560795 71.660233 0
54.243828 77.739983 0.47062778
59.496677 70.325989 -0.86010957
58.89856 71.166191 -0.7332539
58.827625 71.265839 -0.49705267
58.750702 71.373894 -0.25279087
58.545502 71.662148 0
54.24231 77.707008 0.46990165
59.489037 70.320541 -0.86010957
58.898842 71.147499 -0.7319712
58.818848 71.259583 -0.49705267
58.726692 71.38871 -0.25351697
58.539268 71.651321 0
54.222725 77.699448 0.47004724
59.49028 70.302689 -0.85842037
58.881256 71.153839 -0.7332539
58.810081 71.253319 -0.49705267
58.678455 71.437271 -0.25540364
58.502769 71.682808 0
54.209213 77.683388 0.46990165
59.485626 70.293106 -0.85785806
58.860645 71.164337 -0.73496574
58.801319 71.24704 -0.49705267
58.651302 71.456161 -0.25627419
58.5117 71.650772 0
54.204803 77.654655 0.4693211
59.478024 70.287651 -0.85785806
58.854988 71.153961 -0.7345382
58.783504 71.253357 -0.49791783
58.608917 71.496109 -0.25787088
58.478149 71.67794 0
54.194374 77.634377 0.4690311
59.494209 70.249207 -0.85335493
58.825325 71.176895 -0.7375344
58.768684 71.255447 -0.49849498
58.578598 71.519089 -0.25888643
58.450603 71.696602 0
54.18399 77.614082 0.46874055
59.489635 70.239639 -0.85279262
58.816658 71.170639 -0.7375344
58.778111 71.223961 -0.49676466
58.560379 71.525169 -0.25932199
58.444366 71.685661 0
54.149277 77.627487 0.46961167
59.485088 70.230057 -0.85222811
58.777874 71.205933 -0.74181324
58.775452 71.209274 -0.49618864
58.529942 71.54805 -0.2603381
58.425919 71.691589 0
54.175507 77.556671 0.46757999
59.489513 70.208153 -0.8499766
58.754086 71.220383 -0.74395269
58.751545 71.223877 -0.49762982
58.523888 71.537224 -0.26019254
58.407448 71.697487 0
54.198853 77.49012 0.46569276
59.487991 70.194489 -0.84885186
58.742344 71.218185 -0.74438024
58.739777 71.22171 -0.49791783
58.499477 71.551613 -0.26091868
58.382832 71.711761 0
54.21315 77.436272 0.46424165
59.480511 70.189034 -0.84885186
58.736652 71.20768 -0.74395269
58.718853 71.232056 -0.499071
58.478096 71.561752 -0.26149923
53.898285 77.833397 0
54.193863 77.428627 0.46438664
59.476036 70.179474 -0.84828955
58.724918 71.20546 -0.74438024
58.710117 71.22567 -0.499071
58.438271 71.597 -0.26295033
53.884651 77.816986 0
54.171497 77.425163 0.46467721
59.47459 70.165802 -0.84716266
58.71925 71.194946 -0.74395269
58.695274 71.227608 -0.49964702
58.432167 71.58609 -0.26280534
53.883369 77.78376 0
54.176811 77.383949 0.46366107
59.461113 70.168526 -0.84828955
58.70752 71.192688 -0.74438024
58.680408 71.22953 -0.50022417
58.404533 71.604462 -0.2636759
53.857464 77.784103 0
38.019165 99.308975 1.2242979
59.462719 70.150764 -0.84660035
58.707966 71.173904 -0.74309754
58.66246 71.235596 -0.50108933
58.395348 71.597694 -0.2636759
53.85009 77.75927 0
38.004284 99.239914 1.2229918
59.459972 70.123451 -0.84434879
58.678413 71.177589 -0.74480945
58.617268 71.260071 -0.50368369
54.022339 77.457565 -0.46787667
53.807564 77.747246 0
38.027534 99.030876 1.2179117
59.455605 70.113884 -0.84378648
58.68507 71.150543 -0.74266833
58.599236 71.266022 -0.50454885
53.934788 77.54142 -0.47121447
53.797165 77.726578 0
38.003819 98.974449 1.2170413
59.46405 70.094833 -0.84153491
58.693001 71.130875 -0.74095815
58.601032 71.254448 -0.5039717
53.895576 77.577034 -0.47266614
53.791992 77.716217 0
38.029236 98.896194 1.214864
59.450615 70.097488 -0.84265959
58.675186 71.136787 -0.74224079
58.56752 71.281082 -0.50627804
53.798382 77.673103 -0.47643951
53.747414 77.741417 0
38.030594 98.806488 1.2128323
59.449333 70.083855 -0.84153491
58.675781 71.118027 -0.74095815
58.555634 71.278656 -0.50656605
53.685379 77.789764 -0.4809384
53.702751 77.766541 0
38.019676 98.733475 1.2113812
59.451134 70.066147 -0.83984572
58.66103 71.119797 -0.74181324
58.512699 71.317596 -0.50973755
53.609486 77.856293 -0.48369619
53.711105 77.720779 0
38.012024 98.656319 1.2097845
59.449909 70.052528 -0.83872104
58.649349 71.117439 -0.74224079
58.506969 71.306831 -0.50944954
53.727036 77.6651 -0.47745505
53.722679 77.670898 0
38.007645 98.575043 1.2080429
59.436489 70.055138 -0.83984572
58.650017 71.098679 -0.74095815
53.772179 77.570885 -0.94705468
53.791847 77.544785 -0.47368172
53.746891 77.604431 0
38.00967 98.485519 1.2060112
59.432236 70.04557 -0.83928341
58.65382 71.075821 -0.73924625
53.749557 77.566757 -0.94763076
53.59692 77.768784 -0.48195451
53.764977 77.546349 0
38.005615 98.404327 1.2042695
59.43721 70.023842 -0.83703184
58.63908 71.077538 -0.7401014
53.726917 77.562622 -0.94820786
53.599125 77.731339 -0.48108339
53.786331 77.484184 0
37.995438 98.331482 1.2028184
59.41457 70.038559 -0.83984572
58.627434 71.075134 -0.74052894
53.713676 77.546066 -0.94791877
53.60453 77.689796 -0.48006785
53.776337 77.463547 0
37.997963 98.242096 1.2007867
59.41959 70.016838 -0.83759421
58.618889 71.068642 -0.74052894
53.719238 77.504829 -0.94590151
52.782188 78.735741 -0.51722133
53.715942 77.509163 0
38.000687 98.152756 1.1987544
59.412323 70.011299 -0.83759421
58.604115 71.070305 -0.7413857
53.756279 77.422493 -0.94100082
54.51099 76.433578 -0.43681824
53.693317 77.50499 0
37.990959 98.080009 1.1973033
59.408146 70.001717 -0.83703184
58.59869 71.059708 -0.74095815
53.762074 77.38134 -0.93898255
54.578072 76.314804 -0.43304488
53.683327 77.484268 0
37.997169 97.986641 1.1951261
59.400898 69.996162 -0.83703184
58.5933 71.049088 -0.74052894
53.789982 77.311501 -0.93494695
54.563198 76.303406 -0.43304488
53.629028 77.521355 0
37.997238 97.901596 1.1932395
59.604988 69.715767 -0.99462783
59.409142 69.970467 -0.83421797
58.584785 71.042549 -0.74052894
53.78968 77.278641 -0.9335047
54.595848 76.230209 -0.43086821
53.606358 77.517059 0
37.975296 97.845444 1.1923689
59.588905 69.722359 -0.99670231
59.389523 69.98101 -0.83646947
58.570004 71.044144 -0.7413857
53.786263 77.249924 -0.9323526
54.707989 76.054199 -0.42506263
53.574146 77.525093 0
37.978844 97.756332 1.1903367
59.588123 69.709091 -0.99531931
59.382298 69.975433 -0.83646947
58.564632 71.033516 -0.74095815
53.779755 77.225288 -0.93148744
54.737915 75.985405 -0.42303094
53.570541 77.496017 0
37.973022 97.679649 1.1887405
59.602741 69.675987 -0.99047351
59.365753 69.981895 -0.83815652
58.552998 71.030998 -0.7413857
53.763783 77.212929 -0.93148744
54.755272 75.933113 -0.42157927
53.52874 77.516319 0
37.986446 97.578339 1.1862733
59.577415 69.694458 -0.99462783
59.355404 69.980316 -0.83872104
58.547653 71.020363 -0.74095815
53.750992 77.196472 -0.93119943
54.744041 75.917831 -0.42143428
53.467712 77.561218 0
37.965027 97.522247 1.1854022
59.589039 69.665344 -0.99047351
59.320084 70.01078 -0.84378648
58.52972 71.025909 -0.74224079
53.728706 77.19223 -0.93177551
54.739231 75.894333 -0.42099872
53.396976 77.618294 0
37.934109 97.47847 1.1849672
59.576359 69.674553 -0.99255067
59.303959 70.023987 -0.84603798
58.522324 71.026649 -0.74266833
53.730282 77.173782 -0.93091035
54.741623 75.87645 -0.42056373
53.363152 77.64473 0
37.923477 97.450424 1.1845317
59.560234 69.681068 -0.99462783
59.22472 70.11039 -0.85898274
58.52647 71.00386 -0.74095815
53.720734 77.153214 -0.93033433
54.714478 75.881638 -0.42114428
53.36591 77.607254 0
37.876682 97.427071 1.1848216
59.56575 69.659904 -0.9918592
59.054382 70.312614 -0.88825059
58.518013 70.997238 -0.74095815
53.708038 77.136719 -0.93004626
54.722569 75.841766 -0.42012817
53.375153 77.561615 0
37.813873 97.424118 1.1858377
59.543423 69.674263 -0.99531931
58.896091 70.498466 -0.91526902
58.515907 70.982529 -0.7401014
53.692173 77.124275 -0.93004626
54.733948 75.797852 -0.41896704
53.371635 77.532394 0
37.754242 97.416992 1.1867088
59.552086 69.64917 -0.9918592
58.831665 70.564156 -0.9253999
58.507477 70.975899 -0.7401014
53.673126 77.115868 -0.93033433
54.748627 75.749901 -0.41766092
53.310207 77.576797 0
37.649597 97.466896 1.1896111
59.545261 69.643791 -0.9918592
58.820591 70.56189 -0.92596221
58.511776 70.953133 -0.73838949
53.641262 77.12368 -0.93177551
54.75375 75.714249 -0.41679037
53.261566 77.604721 0
37.60273 97.443199 1.1899017
59.535336 69.642334 -0.99255067
58.812664 70.555634 -0.92596221
58.500195 70.950523 -0.73881704
53.622208 77.115204 -0.93206352
54.768635 75.666382 -0.41548371
53.235443 77.603989 0
37.520424 97.464256 1.1917883
59.531635 69.633011 -0.9918592
58.792114 70.565285 -0.92821378
58.482224 70.95594 -0.7401014
53.570999 77.14724 -0.93523502
54.764225 75.643013 -0.41504872
53.22226 77.586884 0
53.950531 76.668793 0.45161548
59.524834 69.627609 -0.9918592
58.784187 70.558983 -0.92821378
58.480209 70.941238 -0.73924625
53.564785 77.122482 -0.93436986
54.766335 75.611511 -0.41432315
53.241478 77.529045 0
53.91906 76.676971 0.45234105
59.546196 69.586876 -0.98562771
58.763592 70.568573 -0.93046528
58.465431 70.942589 -0.7401014
53.545715 77.113907 -0.93465787
54.762032 75.58815 -0.41388759
53.212158 77.532318 0
53.881081 76.693214 0.45335659
59.536308 69.585419 -0.98632187
58.758831 70.558273 -0.92990297
58.457047 70.935898 -0.7401014
53.523411 77.109352 -0.93523502
54.777233 75.540443 -0.41258147
53.241302 77.462357 0
53.865753 76.680977 0.45335659
59.526428 69.583931 -0.9870134
58.735023 70.571762 -0.93271685
58.46151 70.913162 -0.73838949
53.472008 77.141083 -0.93840539
54.773045 75.51712 -0.41214591
53.28363 77.376221 0
53.863434 76.652504 0.45277604
59.507114 69.59417 -0.98978204
58.717537 70.577286 -0.93440604
58.446724 70.914482 -0.73924625
53.430225 77.160614 -0.94071174
54.775406 75.48571 -0.41142035
53.355465 77.2537 0
37.037716 97.57122 1.2025278
59.538116 69.54184 -0.98147607
58.693665 70.590683 -0.93721992
58.44482 70.899757 -0.73838949
53.365665 77.208275 -0.94503641
54.790863 75.438126 -0.41011423
53.430855 77.127312 0
36.990646 97.546722 1.2028184
59.528278 69.540344 -0.9821676
58.679329 70.592171 -0.9383446
58.430031 70.901039 -0.73924625
53.339966 77.207497 -0.94590151
54.767265 75.43911 -0.41054925
53.365963 77.175285 0
36.927292 97.542358 1.2038339
59.527893 69.527145 -0.9807846
58.648987 70.613396 -0.94228536
58.437855 70.874336 -0.73710519
53.330528 77.186554 -0.94532442
54.681526 75.516838 -0.4137426
53.556301 76.907516 0
36.850822 97.554062 1.2054306
59.543346 69.494453 -0.9759388
58.631393 70.618767 -0.94397455
58.416615 70.88356 -0.73881704
53.314602 77.17366 -0.94532442
53.931061 76.413643 -0.44639716
53.724319 76.668533 0
36.767742 97.5737 1.2073172
59.530373 69.496857 -0.97732443
58.607372 70.631989 -0.94678843
58.411537 70.872833 -0.73838949
53.318268 77.136658 -0.94359517
54.647171 75.502342 -0.41403258
53.610512 76.777252 0
36.710808 97.560928 1.2080429
59.504719 69.514786 -0.98147607
58.608997 70.613647 -0.94509923
58.409718 70.858124 -0.7375344
53.308945 77.115715 -0.94301808
54.551197 75.591728 -0.41766092
53.631256 76.720306 0
36.634151 97.57225 1.2096395
59.517101 69.486038 -0.97732443
58.594574 70.615005 -0.94622606
58.391701 70.863274 -0.73881704
53.299644 77.094788 -0.942442
54.553635 75.560188 -0.41693538
53.25692 77.147072 0
36.596893 97.535133 1.2094945
59.507301 69.484497 -0.97801596
58.596249 70.596672 -0.94453686
58.393162 70.844589 -0.7375344
53.306778 77.053833 -0.94042373
54.417828 75.69751 -0.42230541
53.079426 77.331375 0
36.520172 97.546211 1.2110906
59.503986 69.481781 -0.97801596
58.598701 70.585556 -0.94341218
58.395546 70.833252 -0.73667765
53.30545 77.039375 -0.93984765
53.847237 76.378799 -0.44712272
53.068077 77.328796 0
36.480133 97.553719 1.2119617
59.500549 69.472473 -0.97732443
58.593987 70.575089 -0.94284767
58.390549 70.822517 -0.7362501
53.306137 77.006454 -0.93840539
53.77948 76.430748 -0.44944495
53.10817 77.247231 0
36.426407 97.536499 1.2125423
59.506706 69.451546 -0.97455579
58.589275 70.564629 -0.94228536
53.306877 76.973572 -0.93696421
53.767769 76.414383 -0.44929996
53.135208 77.181854 0
36.362778 97.531219 1.2135578
59.490543 69.457703 -0.97663027
58.584579 70.554176 -0.94172299
53.284615 76.96862 -0.93754131
53.799126 76.345917 -0.44726771
34.537621 99.657745 0
54.064072 76.025261 0.43565097
59.499954 69.432938 -0.97317016
58.586395 70.535881 -0.94003379
53.308548 76.90786 -0.93408185
53.823997 76.285553 -0.44552603
53.774033 76.345879 0
54.192097 75.841141 0.42940983
59.50301 69.415909 -0.971093
58.588242 70.517601 -0.9383446
53.27314 76.9188 -0.93581104
53.792549 76.293251 -0.44625217
53.799026 76.285454 0
54.230904 75.765327 0.42708817
59.483631 69.425896 -0.97386163
58.596622 70.491531 -0.93553072
53.247604 76.917763 -0.9366762
53.797661 76.256935 -0.44538105
53.770866 76.289124 0
54.210052 75.761497 0.42737818
59.480289 69.416588 -0.97317016
58.592037 70.481102 -0.93496841
53.7995 76.224655 -0.44465548
53.799374 76.224808 0
54.165886 75.785568 0.42868429
59.464085 69.422676 -0.97524726
58.597252 70.458969 -0.93271685
53.794743 76.200356 -0.44421992
53.801304 76.192513 0
54.118301 75.813545 0.43013597
59.476887 69.394112 -0.971093
58.582912 70.460236 -0.93384367
53.870155 76.080505 -0.44030157
53.799957 76.16423 0
54.030579 75.889198 0.43332875
59.467133 69.392494 -0.97178715
58.594738 70.430336 -0.93046528
54.002689 75.893234 -0.433916
53.785267 76.151894 0
54.012878 75.881119 0.43347374
59.467094 69.379333 -0.97040147
58.586971 70.423798 -0.93046528
54.098831 75.750008 -0.42912653
53.750473 76.163414 0
54.055458 75.801483 0.43100652
59.463833 69.370026 -0.96970999
58.582489 70.413376 -0.92990297
54.124886 75.690399 -0.42738485
53.729061 76.158981 0
54.064682 75.761665 0.42999041
59.463825 69.356888 -0.96832699
58.587879 70.391312 -0.92765141
54.033535 75.769661 -0.43072265
53.731201 76.126694 0
54.000099 75.809143 0.43216762
59.457355 69.351402 -0.96832699
58.580162 70.384773 -0.92765141
54.059677 75.710068 -0.42898098
53.750237 76.0746 0
53.958931 75.828751 0.43332875
59.444397 69.353546 -0.96970999
58.572449 70.37822 -0.92765141
54.079208 75.658478 -0.42752987
33.632431 99.68663 0
53.968224 75.788902 0.43231264
59.437931 69.348038 -0.96970999
58.58453 70.348465 -0.92427522
54.085358 75.622765 -0.42665932
33.558933 99.685547 0
53.960728 75.768867 0.43202263
59.441257 69.331078 -0.96763283
58.570263 70.349632 -0.9253999
54.064575 75.618668 -0.42694929
33.482018 99.688286 0
53.92963 75.776474 0.4327482
59.444607 69.314148 -0.96555835
58.579128 70.323776 -0.92258602
54.148624 75.492233 -0.4227404
33.394882 99.702759 0
53.888348 75.79586 0.4339093
59.451271 69.293419 -0.96278971
58.581432 70.305656 -0.92089683
53.818047 75.848869 -0.87066084
53.999264 75.637985 -0.42854598
33.307667 99.717064 0
53.830074 75.834869 0.43579599
59.431713 69.309677 -0.96624988
58.570988 70.310097 -0.92202365
55.173843 74.258568 -0.75419623
53.748211 75.915573 -0.43899545
33.272514 99.714294 0
53.826313 75.824791 0.43565097
59.438591 69.275841 -0.96209556
58.559086 70.293106 -0.92145914
55.182903 74.198082 -0.75131387
55.208103 74.168938 -0.37542745
33.17268 99.655685 0
53.767181 75.835548 0.43695709
59.42564 69.277916 -0.96348119
58.568127 70.267326 -0.91864526
64 64 -0
55.195824 74.15831 -0.37542745
53.606304 75.992302 0
53.725655 75.854591 0.43811822
59.435719 69.253456 -0.96002108
58.570545 70.24926 -0.91695821
55.215958 74.110367 -0.74641317
55.146057 74.190819 -0.37702411
53.578178 75.995438 0
53.69772 75.857849 0.4386982
59.445847 69.229019 -0.95656091
