# .PCD v0.7 - Point Cloud Data file format
VERSION 0.7
FIELDS x y z
SIZE 4 4 4
TYPE F F F
COUNT 1 1 1
WIDTH 1676
HEIGHT 1
VIEWPOINT 0 0 0 1 0 0 0
POINTS 1676
DATA ascii
64 64 -0
64 64 -0
56.062073 63.62085 -0.66243744
56.013481 63.61853 -0.44560093
56.015022 63.618603 -0.22325937
56.073956 63.621418 0
55.62077 63.599773 0.23428272
64 64 -0
64 64 -0
64 64 -0
56.062534 63.611259 -0.66243744
56.039776 63.610146 -0.44415975
55.984337 63.60743 -0.22413048
56.001648 63.608276 0
55.621258 63.589649 0.23428272
64 64 -0
64 64 -0
64 64 -0
55.991211 63.598064 -0.66842979
56.055756 63.601303 -0.44329458
55.974445 63.597225 -0.22442049
56.085281 63.602787 0
55.61137 63.579002 0.23457327
64 64 -0
64 64 -0
56.267792 63.602577 -0.8575877
56.125027 63.595242 -0.65730184
56.092392 63.593563 -0.44127738
56.011253 63.589394 -0.22340493
56.05978 63.591888 0
55.637829 63.570198 0.23384772
64 64 -0
64 64 -0
64 64 -0
56.089626 63.583836 -0.66029799
56.020576 63.580204 -0.44531292
55.985813 63.578377 -0.22413048
56.075878 63.583115 0
55.617596 63.559006 0.23442827
64 64 -0
64 64 -0
64 64 -0
56.038879 63.571522 -0.66457689
56.088238 63.574177 -0.44156539
55.986328 63.568691 -0.22413048
56.060791 63.572701 0
55.618134 63.548878 0.23442827
64 64 -0
64 64 -0
56.132298 63.567013 -0.87278396
56.085533 63.564442 -0.66072559
56.031937 63.561489 -0.4447369
56.002426 63.559868 -0.22369492
56.076908 63.563965 0
55.629074 63.539322 0.23413771
64 64 -0
64 64 -0
56.102394 63.555798 -0.8761602
56.01429 63.550842 -0.66671795
56.058311 63.553318 -0.44329458
55.987392 63.549328 -0.22413048
56.061848 63.553516 0
55.614067 63.528332 0.23457327
64 64 -0
64 64 -0
56.239902 63.554123 -0.86096388
56.03022 63.542076 -0.66543365
56.058853 63.54372 -0.44329458
55.993126 63.539944 -0.22398548
56.072796 63.544521 0
55.625031 63.518795 0.23428272
64 64 -0
64 64 -0
56.255672 63.545639 -0.85927469
56.025661 63.532146 -0.66586119
56.08007 63.535339 -0.44214141
55.983322 63.529663 -0.22427548
56.026592 63.5322 0
55.625618 63.508675 0.23428272
64 64 -0
64 64 -0
56.266083 63.541561 -0.85815001
56.056686 63.529152 -0.6632942
56.106167 63.532082 -0.44070023
55.978424 63.524513 -0.22442049
56.063232 63.529537 0
55.620712 63.503307 0.23442827
64 64 -0
64 64 -0
56.261578 63.53191 -0.85871238
55.995762 63.515831 -0.66842979
56.044773 63.518799 -0.44415975
55.973824 63.514507 -0.22456548
56.037834 63.518379 0
55.616135 63.49287 0.23457327
64 64 -0
64 64 -0
56.241859 63.521309 -0.86096388
56.103962 63.512802 -0.6594429
56.004055 63.506638 -0.44646609
55.964031 63.504166 -0.22485603
56.04361 63.509079 0
55.62714 63.483379 0.23428272
64 64 -0
64 64 -0
56.242443 63.511936 -0.86096388
56.063583 63.500683 -0.66286498
56.035625 63.498924 -0.4447369
55.990566 63.49609 -0.22413048
56.070179 63.501099 0
55.627769 63.473263 0.23428272
64 64 -0
64 64 -0
56.182182 63.498661 -0.86771852
56.069313 63.491421 -0.66243744
56.056885 63.490623 -0.44358373
56.022308 63.488407 -0.22325937
56.086376 63.492516 0
55.62841 63.463146 0.23428272
64 64 -0
64 64 -0
56.299431 63.496834 -0.85477161
56.028946 63.47916 -0.66586119
56.026546 63.479004 -0.44531292
55.996986 63.477074 -0.22398548
56.009102 63.477863 0
55.649788 63.454388 0.23370272
64 64 -0
64 64 -0
56.203697 63.481117 -0.86546701
56.060307 63.471577 -0.6632942
56.016869 63.468685 -0.44588894
55.982082 63.46637 -0.22442049
56.066849 63.472012 0
39.400173 62.362762 0.68854612
64 64 -0
64 64 -0
56.168835 63.469292 -0.86940771
56.055836 63.461636 -0.66372174
56.069115 63.462536 -0.44300658
55.987915 63.457031 -0.22427548
56.046722 63.461018 0
39.391808 62.33234 0.68883616
64 64 -0
64 64 -0
56.154289 63.458782 -0.87109476
56.076981 63.453449 -0.66200989
56.013 63.449036 -0.44617808
55.988575 63.447353 -0.22427548
56.031815 63.450336 0
39.399021 62.302963 0.68869114
64 64 -0
64 64 -0
56.225906 63.454285 -0.86321545
56.077644 63.443878 -0.66200989
56.075592 63.443733 -0.44271857
55.999607 63.4384 -0.22398548
56.053253 63.442165 0
39.411446 62.273968 0.6884011
64 64 -0
57.346077 63.524837 -0.92023605
56.191086 63.442356 -0.86715621
56.011753 63.42955 -0.66757303
56.014355 63.429737 -0.44617808
55.989937 63.427994 -0.22427548
56.085075 63.434788 0
39.408371 62.243889 0.68854612
64 64 -0
57.326641 63.515343 -0.92300469
56.222187 63.435131 -0.86377782
56.032932 63.421387 -0.66586119
56.04084 63.421963 -0.4447369
55.990631 63.418316 -0.22427548
56.070187 63.424091 0
39.389778 62.212669 0.68912667
64 64 -0
57.442307 63.515778 -0.90708697
56.167122 63.421616 -0.86997008
56.064346 63.414028 -0.6632942
56.026085 63.411201 -0.44560093
55.991341 63.408638 -0.22427548
55.967072 63.406845 0
39.407509 62.184082 0.68869114
64 64 -0
64 64 -0
56.208366 63.415195 -0.86546701
56.049717 63.40329 -0.66457689
56.099007 63.40699 -0.44156539
55.981705 63.398186 -0.22456548
56.066414 63.404541 0
39.425274 62.155537 0.68825555
64 64 -0
57.473522 63.50222 -0.9029327
56.224285 63.40694 -0.86377782
56.050446 63.393684 -0.66457689
56.089424 63.396656 -0.44214141
55.987617 63.388889 -0.22442049
56.05677 63.394165 0
39.401596 62.123867 0.68898171
64 64 -0
57.539158 63.499374 -0.89393526
56.245274 63.399117 -0.86152625
56.051182 63.384079 -0.66457689
56.09016 63.387096 -0.44214141
55.983185 63.378807 -0.22456548
56.047119 63.383762 0
39.414253 62.094948 0.68869114
64 64 -0
57.489738 63.487633 -0.90085816
56.261189 63.390942 -0.8598392
56.016098 63.371655 -0.66757303
56.080582 63.376728 -0.44271857
55.994293 63.369938 -0.22427548
56.058258 63.374969 0
39.4114 62.064835 0.68883616
64 64 -0
57.445351 63.47617 -0.90708697
56.211285 63.377544 -0.86546701
56.021976 63.362415 -0.66714549
55.957584 63.357269 -0.44963759
56.015781 63.361919 -0.22369492
56.053814 63.36496 0
39.393036 62.03347 0.68941671
64 64 -0
57.565701 63.481873 -0.89047509
56.231922 63.37447 -0.86321545
55.99678 63.355537 -0.66928494
56.076572 63.361961 -0.44300658
55.995449 63.355427 -0.22427548
56.017899 63.357235 0
39.409752 62.019855 0.68898171
64 64 -0
57.501328 63.468784 -0.89947253
56.202305 63.362602 -0.86659169
56.002678 63.346283 -0.66885734
56.051575 63.350281 -0.44444776
55.985882 63.34491 -0.22456548
56.096481 63.353951 0
39.375919 61.987179 0.68999726
64 64 -0
57.551968 63.46508 -0.89255226
56.208141 63.3536 -0.86602932
64 64 -0
56.011124 63.337257 -0.4467541
55.981487 63.334797 -0.22471105
56.045406 63.340099 0
39.409431 61.960007 0.68912667
64 64 -0
57.437637 63.447613 -0.90846997
56.208927 63.344185 -0.86602932
56.019634 63.328251 -0.66757303
64 64 -0
55.966774 63.323803 -0.22514604
56.009895 63.327431 0
39.401569 61.929424 0.68941671
64 64 -0
57.62328 63.455479 -0.88286066
56.219841 63.335636 -0.86490464
64 64 -0
64 64 -0
55.977943 63.31498 -0.22485603
56.062588 63.322208 0
39.414436 61.900585 0.68912667
64 64 -0
57.339012 63.423096 -0.92231321
56.22065 63.326237 -0.86490464
64 64 -0
64 64 -0
55.983952 63.305737 -0.22471105
56.104877 63.316208 0
39.448067 61.873573 0.68825555
64 64 -0
57.564632 63.434803 -0.89116657
56.246777 63.319057 -0.86209077
56.011883 63.298428 -0.66842979
55.988663 63.296391 -0.44819528
55.995159 63.296959 -0.22442049
56.022766 63.299385 0
55.576069 63.260151 0.23616995
64 64 -0
57.530331 63.423912 -0.89601237
56.242546 63.309242 -0.86265308
56.038319 63.291054 -0.66628873
56.051327 63.292213 -0.4447369
55.964947 63.284523 -0.22529159
56.065094 63.293438 0
55.597675 63.25182 0.23558939
64 64 -0
57.431087 63.407074 -0.9098556
56.223145 63.298038 -0.86490464
56.013599 63.279125 -0.66842979
55.995533 63.277496 -0.44790727
64 64 -0
56.060757 63.283382 0
55.614117 63.243069 0.23515384
64 64 -0
57.531742 63.408279 -0.89601237
56.254372 63.291424 -0.86152625
56.019608 63.269947 -0.66800058
64 64 -0
55.951187 63.263687 -0.2257266
56.05645 63.273315 0
55.589165 63.230568 0.23587939
64 64 -0
57.478237 63.387486 -0.90362686
56.230793 63.270329 -0.86434227
56.031609 63.251621 -0.66714549
56.044552 63.252838 -0.44531292
55.952991 63.24424 -0.2257266
56.011593 63.249741 0
39.376171 61.68737 0.69072282
64 64 -0
57.558899 63.387211 -0.89255226
56.256989 63.263351 -0.86152625
56.022305 63.241024 -0.66800058
56.02486 63.241264 -0.44646609
55.959076 63.235008 -0.2255816
56.043587 63.243046 0
39.378983 61.657619 0.69072282
64 64 -0
57.519691 63.37558 -0.89808953
56.232578 63.251556 -0.86434227
56.018101 63.230888 -0.66842979
56.056667 63.234608 -0.4447369
55.960007 63.225292 -0.2255816
56.028976 63.231937 0
39.381832 61.627872 0.69072282
64 64 -0
57.585365 63.374084 -0.88909209
56.253719 63.244144 -0.86209077
56.003723 63.219753 -0.66971248
56.03186 63.222496 -0.44617808
55.929905 63.212547 -0.22645271
56.060986 63.225338 0
39.400215 61.59964 0.69028783
64 64 -0
57.591133 63.366825 -0.88839793
56.209129 63.230289 -0.86715621
56.065983 63.216148 -0.66457689
56.007072 63.210327 -0.44761926
55.956738 63.205353 -0.2257266
56.072296 63.21677 0
39.392803 61.568897 0.69057781
64 64 -0
57.581909 63.358086 -0.88978362
56.215137 63.221382 -0.86659169
56.03117 63.202984 -0.66757303
56.018337 63.201702 -0.44704211
55.983555 63.198223 -0.22500104
56.042164 63.204082 0
39.426773 61.542267 0.68970722
64 64 -0
57.577702 63.349823 -0.89047509
56.251461 63.215561 -0.86265308
56.006603 63.190769 -0.66971248
56.039894 63.194141 -0.44588894
55.979362 63.188015 -0.22514604
55.980988 63.188179 0
55.664207 63.156109 0.23399271
64 64 -0
57.58807 63.346962 -0.88909209
56.226662 63.208305 -0.86546701
56.007095 63.185944 -0.66971248
56.030079 63.188282 -0.44646609
55.96434 63.181587 -0.2255816
56.069504 63.192299 0
55.669884 63.151596 0.23384772
64 64 -0
57.598854 63.340244 -0.88770646
56.232674 63.199432 -0.86490464
56.002979 63.175758 -0.67014003
56.036205 63.179184 -0.44617808
55.960171 63.171345 -0.2257266
56.05497 63.181118 0
55.670914 63.141533 0.23384772
64 64 -0
57.464928 63.318459 -0.90639281
56.223549 63.188995 -0.86602932
56.014187 63.16716 -0.66928494
56.042366 63.170097 -0.44588894
56.002529 63.165943 -0.22456548
56.019722 63.167736 0
55.656467 63.129852 0.23428272
64 64 -0
57.570518 63.321617 -0.89186072
56.214417 63.178532 -0.86715621
56.015198 63.157513 -0.66928494
56.022797 63.158314 -0.44704211
55.988029 63.154644 -0.22500104
56.08802 63.165195 0
55.688522 63.123043 0.23341216
64 64 -0
57.521461 63.308525 -0.89878106
56.265957 63.174519 -0.86152625
55.97538 63.143505 -0.67270863
56.039234 63.150322 -0.44617808
56.009727 63.147171 -0.22442049
56.068329 63.153427 0
55.679245 63.111897 0.23370272
64 64 -0
57.56221 63.305004 -0.89324373
56.221493 63.160267 -0.86659169
56.022358 63.138767 -0.66885734
56.014557 63.137928 -0.44761926
55.964268 63.132496 -0.2257266
56.00209 63.136581 0
55.680325 63.101845 0.23370272
64 64 -0
57.528133 63.293415 -0.89808953
56.278069 63.156933 -0.86040157
56.043819 63.131359 -0.66714549
56.031036 63.129963 -0.4467541
56.042801 63.131248 -0.22354993
56.054871 63.132565 0
55.676254 63.091228 0.23384772
64 64 -0
57.548943 63.287796 -0.89532089
56.269001 63.146488 -0.86152625
56.02956 63.120056 -0.66842979
55.996094 63.11636 -0.44877243
56.012875 63.118214 -0.22442049
56.040421 63.121254 0
55.661877 63.079464 0.23428272
64 64 -0
57.544827 63.279446 -0.89601237
56.259926 63.136021 -0.86265308
56.051037 63.112701 -0.66671795
56.002304 63.107262 -0.44848442
56.029423 63.110291 -0.22398548
56.06218 63.113945 0
55.673313 63.070541 0.23399271
64 64 -0
57.530739 63.269958 -0.89808953
56.281174 63.128948 -0.86040157
56.006207 63.097919 -0.67056924
56.039375 63.101662 -0.44646609
56.040844 63.101826 -0.22369492
56.047733 63.102604 0
55.674442 63.060478 0.23399271
64 64 -0
57.556564 63.264988 -0.89462674
56.282234 63.119621 -0.86040157
56.032803 63.091167 -0.66842979
56.030197 63.090874 -0.44704211
56.010963 63.088676 -0.22456548
56.08503 63.097126 0
55.665268 63.049244 0.23428272
64 64 -0
57.627232 63.265247 -0.88493782
56.258064 63.107388 -0.86321545
56.033905 63.081543 -0.66842979
56.041573 63.082428 -0.44646609
56.022385 63.080215 -0.22427548
56.039574 63.082195 0
55.65609 63.037983 0.23457327
64 64 -0
57.523468 63.245354 -0.89947253
56.269234 63.099209 -0.86209077
56.040134 63.072514 -0.66800058
56.032421 63.071613 -0.44704211
55.992542 63.066967 -0.22514604
56.051041 63.073784 0
55.68306 63.030907 0.23384772
64 64 -0
57.499474 63.234592 -0.9029327
56.290516 63.092247 -0.8598392
56.020866 63.060493 -0.66971248
56.048946 63.063801 -0.44617808
56.045277 63.06337 -0.22369492
56.057327 63.064789 0
55.679081 63.020252 0.23399271
64 64 -0
57.535267 63.230888 -0.89808953
56.291618 63.082932 -0.8598392
56.0424 63.05328 -0.66800058
56.039818 63.052975 -0.4467541
56.005131 63.048847 -0.22485603
56.027462 63.051502 0
55.675117 63.009586 0.23413771
64 64 -0
57.541195 63.223679 -0.89739537
56.28265 63.072407 -0.86096388
56.033344 63.042439 -0.66885734
56.035835 63.04274 -0.44704211
56.016617 63.040428 -0.22456548
56.007942 63.039387 0
55.665989 62.998283 0.23442827
64 64 -0
57.522217 63.213455 -0.90016401
56.27874 63.062469 -0.86152625
56.044712 63.034054 -0.66800058
56.036999 63.033115 -0.44704211
56.028088 63.032036 -0.22427548
56.076279 63.037888 0
55.667206 62.988216 0.23442827
64 64 -0
57.552567 63.213188 -0.89601237
56.294426 63.05965 -0.8598392
56.02491 63.02676 -0.66971248
56.027306 63.02705 -0.44761926
56.033829 63.027847 -0.22413048
56.035526 63.028053 0
55.667816 62.983181 0.23442827
64 64 -0
57.573441 63.207851 -0.89324373
56.300625 63.050964 -0.85927469
56.031181 63.01775 -0.66928494
56.038765 63.018684 -0.44704211
56.014378 63.015678 -0.22471105
56.047028 63.019703 0
55.669052 62.973114 0.23442827
64 64 -0
57.509678 63.192032 -0.90224117
56.311852 63.042915 -0.85815001
56.027287 63.007488 -0.66971248
56.045086 63.009705 -0.4467541
56.025898 63.007317 -0.22442049
56.07922 63.013954 0
55.685776 62.964977 0.23399271
64 64 -0
57.600262 63.195454 -0.88978362
56.333183 63.03616 -0.8558985
56.033581 62.998497 -0.66928494
56.046288 63.000095 -0.4467541
56.001328 62.994442 -0.22514604
56.018444 62.996593 0
55.666409 62.952335 0.23457327
64 64 -0
57.526588 63.178246 -0.90016401
56.31419 63.024338 -0.85815001
56.034798 62.988873 -0.66928494
56.026974 62.987877 -0.44790727
56.02832 62.988049 -0.22442049
56.071289 62.993504 0
55.683151 62.944233 0.23413771
64 64 -0
57.567398 63.175526 -0.89462674
56.320408 63.015697 -0.8575877
56.036022 62.979248 -0.66928494
56.038456 62.979561 -0.44733125
56.034698 62.979076 -0.22427548
56.067352 62.983265 0
55.674114 62.932861 0.23442827
64 64 -0
57.548496 63.16518 -0.89739537
56.306499 63.004463 -0.85927469
56.027088 62.968307 -0.67014003
56.024319 62.967949 -0.44819528
56.005024 62.965454 -0.22514604
56.068588 62.973679 0
55.675407 62.922802 0.23442827
64 64 -0
57.53458 63.155434 -0.89947253
56.327862 62.997803 -0.85702318
56.013065 62.95668 -0.67142433
56.03582 62.959652 -0.44761926
56.03204 62.95916 -0.22442049
56.028545 62.958702 0
55.681885 62.913418 0.23428272
64 64 -0
57.600269 63.156147 -0.89047509
56.308926 62.985874 -0.85927469
56.024502 62.948372 -0.67056924
56.03196 62.949356 -0.44790727
56.017841 62.947495 -0.22485603
56.045296 62.951115 0
55.662594 62.90065 0.23486328
64 64 -0
57.53664 63.139812 -0.89947253
56.340374 62.980602 -0.8558985
56.035965 62.94009 -0.66971248
56.04348 62.941093 -0.44733125
56.013973 62.937164 -0.22500104
56.05172 62.942188 0
55.663929 62.890579 0.23486328
64 64 -0
57.537682 63.132004 -0.89947253
56.306351 62.966614 -0.8598392
56.037254 62.93047 -0.66971248
56.039642 62.93079 -0.44761926
56.004951 62.926132 -0.22529159
56.016891 62.927734 0
55.680714 62.88258 0.23442827
64 64 -0
57.469139 63.114761 -0.90916145
56.312653 62.958004 -0.85927469
56.028366 62.919468 -0.67056924
56.030701 62.919785 -0.44819528
56.016563 62.91787 -0.22500104
55.997581 62.915295 0
55.697525 62.874622 0.23399271
64 64 -0
57.584538 63.122505 -0.89324373
56.32901 62.950779 -0.8575877
56.009331 62.907055 -0.67228109
56.021751 62.908752 -0.44877243
56.017876 62.908222 -0.22500104
56.050457 62.912678 0
55.673149 62.861073 0.23471828
64 64 -0
57.540871 63.108582 -0.89947253
56.335331 62.942207 -0.85702318
56.025917 62.899506 -0.67099679
56.048691 62.902649 -0.44733125
56.029488 62.899998 -0.22471105
56.036301 62.90094 0
55.664227 62.84959 0.23500884
64 64 -0
57.551884 63.102161 -0.89808953
56.316483 62.930145 -0.85927469
56.052673 62.89341 -0.66885734
56.039787 62.891617 -0.44790727
56.015396 62.888222 -0.22514604
56.027336 62.889881 0
55.665623 62.839516 0.23500884
64 64 -0
57.607635 63.102051 -0.89047509
56.322807 62.921566 -0.85871238
56.03368 62.880951 -0.67056924
56.04113 62.882 -0.44790727
56.001301 62.876404 -0.2255816
55.997746 62.875904 0
55.692776 62.833065 0.23428272
64 64 -0
57.544147 63.085175 -0.89947253
56.298962 62.908726 -0.86152625
56.024883 62.869888 -0.67142433
56.052719 62.873833 -0.44733125
56.018108 62.868927 -0.22514604
56.019726 62.869156 0
55.683891 62.821568 0.23457327
64 64 -0
57.515446 63.073112 -0.90362686
56.315365 62.901577 -0.8598392
56.026253 62.860252 -0.67142433
56.028488 62.860573 -0.44877243
56.00404 62.857079 -0.2255816
56.046856 62.863197 0
55.669884 62.809315 0.23500884
64 64 -0
57.635204 63.086308 -0.88701493
56.326099 62.89838 -0.85871238
56.026943 62.855434 -0.67142433
56.054775 62.859432 -0.44733125
56.015011 62.853722 -0.22529159
56.047543 62.858391 0
55.675762 62.805023 0.23486328
64 64 -0
57.507214 63.059925 -0.90500981
56.30732 62.886196 -0.86096388
56.033409 62.846539 -0.67099679
56.025452 62.845387 -0.44906044
56.006126 62.842587 -0.2255816
56.028324 62.845802 0
55.692627 62.797195 0.23442827
64 64 -0
57.602673 63.065853 -0.89186072
56.288555 62.873966 -0.86321545
56.044979 62.838398 -0.67014003
56.031967 62.836498 -0.44877243
56.002392 62.83218 -0.2257266
56.076092 62.842941 0
55.678673 62.784908 0.23486328
64 64 -0
57.529358 63.047161 -0.90224117
56.335167 62.871311 -0.85815001
56.041294 62.828037 -0.67056924
56.043625 62.828381 -0.44819528
56.014084 62.824028 -0.2254366
56.0569 62.830334 0
55.680149 62.774857 0.23486328
64 64 -0
57.52058 63.037868 -0.90362686
56.321449 62.85981 -0.8598392
56.037643 62.817665 -0.67099679
56.045044 62.818768 -0.44819528
56.030937 62.816669 -0.22500104
56.058319 62.820736 0
55.66621 62.762512 0.23529883
64 64 -0
57.521748 63.030041 -0.90362686
56.327873 62.851288 -0.85927469
56.028931 62.806526 -0.67185187
56.031124 62.806854 -0.44906044
56.016949 62.804733 -0.2254366
56.059746 62.811142 0
55.657421 62.750904 0.23558939
64 64 -0
57.567589 63.028957 -0.89739537
56.31419 62.839741 -0.86096388
56.045593 62.799194 -0.67056924
56.017223 62.79491 -0.4499256
56.023529 62.795864 -0.22529159
56.05603 62.80077 0
55.669224 62.742378 0.23529883
64 64 -0
57.603477 63.026466 -0.89255226
56.330673 62.832748 -0.85927469
56.036911 62.78804 -0.67142433
56.034031 62.787601 -0.44906044
55.999306 62.782318 -0.22601716
56.016338 62.784908 0
55.67588 62.733093 0.23515384
64 64 -0
57.624496 63.021782 -0.88978362
56.342125 62.825024 -0.85815001
56.028221 62.776859 -0.67228109
56.025269 62.776405 -0.44963759
56.016201 62.775017 -0.2255816
56.022949 62.776051 0
55.656872 62.719883 0.23573439
64 64 -0
57.581062 63.007179 -0.89601237
56.32848 62.813442 -0.8598392
56.04493 62.769585 -0.67099679
56.042091 62.769146 -0.44877243
56.048492 62.770134 -0.22471105
56.070724 62.773575 0
55.663555 62.710598 0.23558939
64 64 -0
57.597141 63.001743 -0.89393526
56.319885 62.802608 -0.86096388
56.0312 62.757599 -0.67228109
56.038479 62.758736 -0.44906044
56.029446 62.757324 -0.22529159
56.036209 62.758381 0
55.665119 62.700523 0.23558939
64 64 -0
57.593403 62.993229 -0.89462674
56.321339 62.793327 -0.86096388
56.047928 62.750362 -0.67099679
56.029755 62.747509 -0.44963759
56.025822 62.746891 -0.2254366
56.037716 62.748756 0
55.671844 62.691261 0.23544383
64 64 -0
57.624348 62.990196 -0.89047509
56.327816 62.784847 -0.86040157
56.02916 62.737541 -0.67270863
56.046608 62.740307 -0.44877243
56.027344 62.737255 -0.2254366
56.03923 62.73914 0
55.673431 62.681202 0.23544383
64 64 -0
57.580982 62.975376 -0.8967039
56.334305 62.776375 -0.8598392
56.035755 62.728722 -0.67228109
56.04303 62.729881 -0.44906044
56.01862 62.725986 -0.2257266
56.04076 62.729519 0
55.669884 62.670319 0.23558939
64 64 -0
57.577278 62.966824 -0.89739537
56.355858 62.770344 -0.8575877
56.042381 62.719917 -0.67185187
56.034348 62.718624 -0.44963759
56.020164 62.716343 -0.2257266
56.021748 62.716599 0
55.686897 62.662731 0.23515384
58.412712 63.094288 -0.93317521
57.632999 62.967892 -0.88978362
56.32225 62.755417 -0.86152625
56.033787 62.708656 -0.67270863
56.041023 62.709831 -0.44934845
56.016579 62.705868 -0.22587216
56.048988 62.711121 0
55.662872 62.648533 0.23587939
64 64 -0
57.634251 62.960201 -0.88978362
56.338791 62.748596 -0.8598392
56.030293 62.698208 -0.67313623
56.047688 62.701046 -0.44906044
56.023293 62.697063 -0.2257266
56.045418 62.700676 0
55.669636 62.639297 0.23573439
64 64 -0
57.600235 62.950676 -0.89462674
56.349586 62.745613 -0.85871238
56.041203 62.695053 -0.67228109
56.033154 62.693733 -0.4499256
56.039452 62.694763 -0.22529159
56.051338 62.696712 0
55.675583 62.635101 0.23558939
64 64 -0
57.537136 62.932308 -0.90362686
56.341072 62.734715 -0.8598392
56.032665 62.683762 -0.67313623
56.034737 62.684105 -0.4499256
56.020523 62.681759 -0.22587216
56.058067 62.687962 0
55.682381 62.625896 0.23544383
58.53849 63.090958 -0.91280186
57.602787 62.935211 -0.89462674
56.342606 62.72546 -0.8598392
56.03426 62.674137 -0.67313623
56.051647 62.677032 -0.44906044
56.032383 62.673824 -0.2255816
56.054508 62.677509 0
55.678905 62.61499 0.23558939
58.344604 63.051659 -0.94539738
57.623856 62.930798 -0.89186072
56.329128 62.713688 -0.86152625
56.040928 62.665363 -0.67270863
56.037941 62.66486 -0.4499256
56.039112 62.665058 -0.2254366
56.081795 62.672215 0
55.665222 62.60236 0.23602439
58.410263 63.048775 -0.93480361
57.611633 62.912872 -0.89393526
56.357304 62.699417 -0.85871238
56.02393 62.642685 -0.67442054
56.046288 62.646492 -0.44963759
56.01675 62.641464 -0.22616215
56.074753 62.651337 0
55.658371 62.580479 0.23631495
58.387039 63.037846 -0.9388808
57.59811 62.902607 -0.89601237
56.338848 62.686749 -0.86096388
56.04076 62.635654 -0.67313623
56.037739 62.635136 -0.45021361
56.044006 62.636208 -0.2254366
56.081516 62.642639 0
55.68058 62.573914 0.23573439
58.787632 63.100029 -0.87205517
57.594498 62.89402 -0.8967039
56.365471 62.681816 -0.85815001
56.037361 62.625164 -0.67356378
56.039394 62.625515 -0.45021361
56.035427 62.624828 -0.2257266
56.067787 62.630417 0
55.656708 62.559441 0.23645996
58.41861 63.029366 -0.93398941
57.5909 62.885422 -0.89739537
56.357067 62.670853 -0.85927469
56.028904 62.613781 -0.67442054
56.035969 62.615013 -0.45050162
56.037094 62.615208 -0.2257266
56.03867 62.615482 0
55.67382 62.552032 0.23602439
58.560989 63.047356 -0.91035622
57.54776 62.869884 -0.90362686
56.358681 62.661617 -0.85927469
56.050812 62.607697 -0.67270863
56.032539 62.604496 -0.45079073
56.049 62.607376 -0.2254366
56.071121 62.611252 0
55.665329 62.540176 0.23631495
58.523197 63.033913 -0.9168759
57.583721 62.868195 -0.89878106
56.365303 62.653267 -0.85871238
56.032276 62.594524 -0.67442054
56.02914 62.593971 -0.45107877
56.040462 62.595966 -0.2257266
56.083046 62.603481 0
55.672211 62.53101 0.23616995
58.441635 63.0126 -0.93072957
57.594986 62.862198 -0.89739537
56.341923 62.639603 -0.86152625
56.049149 62.587593 -0.67313623
56.030846 62.584339 -0.45107877
56.042164 62.586349 -0.2257266
56.074501 62.592094 0
55.679123 62.521858 0.23602439
58.369839 62.992825 -0.94295484
57.606232 62.856224 -0.89601237
56.373577 62.635715 -0.85815001
56.055912 62.578888 -0.67270863
56.058018 62.579266 -0.44963759
56.028526 62.57399 -0.22616215
56.035217 62.575188 0
55.680916 62.511806 0.23602439
58.400257 62.991283 -0.93806344
57.568115 62.841385 -0.9015497
56.375229 62.626503 -0.85815001
56.052586 62.568382 -0.67313623
56.03429 62.565086 -0.45107877
56.055824 62.568966 -0.2254366
56.098415 62.576637 0
55.68272 62.501755 0.23602439
58.557106 63.012745 -0.91198772
57.569519 62.833614 -0.9015497
56.356895 62.613663 -0.86040157
56.039162 62.55603 -0.67442054
56.041115 62.556385 -0.45079073
56.05756 62.559368 -0.2254366
56.08989 62.565231 0
55.669189 62.488922 0.23645996
58.470779 62.990185 -0.92665553
57.536396 62.819538 -0.90639281
56.373577 62.607166 -0.85871238
56.035866 62.54549 -0.67484808
56.042866 62.546768 -0.45079073
56.028641 62.54417 -0.22630715
56.091629 62.555676 0
55.665916 62.477924 0.23660494
58.574097 63.002277 -0.90954202
57.626644 62.82806 -0.89393526
56.370274 62.597034 -0.85927469
56.052784 62.538654 -0.67356378
56.044628 62.537155 -0.45079073
56.045723 62.537357 -0.22587216
56.04731 62.537651 0
55.657528 62.465977 0.2368955
58.516365 62.988235 -0.9193216
57.632282 62.825119 -0.89324373
56.356125 62.589661 -0.86096388
56.04356 62.53199 -0.67442054
56.045513 62.532349 -0.45079073
56.026169 62.528782 -0.22645271
56.08403 62.539455 0
55.689133 62.466595 0.23602439
58.469002 62.972584 -0.92746967
57.609047 62.812843 -0.8967039
56.382812 62.585064 -0.85815001
56.03019 62.519562 -0.67570484
56.037128 62.520851 -0.45136678
56.048389 62.522942 -0.22587216
56.070446 62.527039 0
55.660324 62.450859 0.2368955
58.470245 62.965904 -0.92746967
57.60556 62.804203 -0.89739537
56.359554 62.57119 -0.86096388
56.042088 62.511822 -0.67484808
56.049084 62.51313 -0.45079073
56.029747 62.509514 -0.22645271
56.082455 62.519371 0
55.677528 62.443649 0.23645996
58.481209 62.961048 -0.92584133
57.646435 62.803898 -0.89186072
56.381264 62.56572 -0.85871238
56.048935 62.503159 -0.67442054
56.050884 62.503525 -0.45079073
56.041779 62.501812 -0.22616215
56.058678 62.504993 0
55.669212 62.431671 0.23674995
58.458187 62.94978 -0.92991537
57.583805 62.784077 -0.90085816
56.392979 62.558407 -0.8575877
56.050747 62.493553 -0.67442054
56.047623 62.492958 -0.45107877
56.033371 62.490257 -0.22645271
56.086056 62.500244 0
55.681316 62.423542 0.23645996
58.503155 62.95142 -0.92258149
57.644421 62.787609 -0.89255226
56.38475 62.547314 -0.85871238
56.022324 62.478176 -0.67698753
56.049446 62.483353 -0.45107877
56.045422 62.482582 -0.22616215
56.082764 62.489708 0
55.673027 62.411545 0.23674995
58.412205 62.927071 -0.93806344
57.650814 62.780876 -0.89186072
56.396484 62.540028 -0.8575877
56.049374 62.473377 -0.67484808
56.051285 62.473747 -0.45107877
56.052361 62.473953 -0.22601716
56.079491 62.47916 0
55.669834 62.400501 0.2368955
58.45718 62.928761 -0.93072957
57.642448 62.771301 -0.89324373
56.398254 62.530842 -0.8575877
56.066353 62.466698 -0.67356378
56.058212 62.465122 -0.45079073
56.023605 62.458435 -0.22688772
56.025112 62.458725 0
55.676888 62.391426 0.23674995
58.473042 62.924896 -0.92828387
57.619316 62.758831 -0.8967039
56.380081 62.517776 -0.8598392
56.042999 62.452206 -0.67570484
56.044853 62.452568 -0.45165479
56.050972 62.453758 -0.22616215
56.072979 62.458038 0
55.689034 62.383354 0.23645996
58.493729 62.922016 -0.92502713
57.551895 62.737629 -0.90639281
56.386879 62.509548 -0.85927469
56.034805 62.440624 -0.67655993
56.041656 62.441963 -0.4519428
56.037544 62.441158 -0.22659771
56.085052 62.450459 0
55.675686 62.370316 0.2368955
58.490192 62.91441 -0.92584133
57.661716 62.751175 -0.89116657
56.398647 62.502316 -0.85815001
56.056847 62.434971 -0.67484808
56.058754 62.435345 -0.45107877
56.029243 62.429531 -0.22688772
56.02565 62.428822 0
55.667473 62.358253 0.23718551
58.535141 62.916405 -0.9185074
57.574631 62.725948 -0.90362686
56.380524 62.489178 -0.86040157
56.04866 62.423374 -0.67570484
56.055584 62.424747 -0.45136678
56.026054 62.418892 -0.22703272
56.073502 62.428299 0
55.679649 62.350204 0.2368955
58.594627 62.92141 -0.90872782
57.61554 62.72604 -0.89808953
56.372398 62.477985 -0.86152625
56.040512 62.411758 -0.67655993
56.052425 62.414135 -0.45165479
56.033062 62.410275 -0.22688772
56.049889 62.413631 0
55.681648 62.340153 0.2368955
58.469936 62.88958 -0.92991537
57.666286 62.728207 -0.89116657
56.399151 62.47377 -0.85871238
56.042435 62.402142 -0.67655993
56.049278 62.403519 -0.4519428
56.0299 62.399628 -0.22703272
56.051811 62.404026 0
55.68877 62.331127 0.23674995
58.573029 62.903454 -0.91280186
57.643242 62.715588 -0.89462674
56.405975 62.465591 -0.85815001
56.034298 62.390495 -0.67741668
56.046127 62.392883 -0.45223194
56.02673 62.388966 -0.22717828
56.094559 62.402668 0
55.680595 62.319027 0.2370405
58.492012 62.880157 -0.92665553
57.620197 62.702908 -0.89808953
56.417805 62.458447 -0.85702318
56.056374 62.38496 -0.67570484
56.048077 62.383274 -0.45223194
56.028683 62.379333 -0.22717828
56.045498 62.382751 0
55.687721 62.310009 0.2368955
58.44009 62.862602 -0.9356209
57.636524 62.698215 -0.89601237
56.404732 62.446228 -0.85871238
56.043255 62.37228 -0.67698753
56.044971 62.372631 -0.45251995
56.045925 62.372826 -0.22674271
56.093349 62.382526 0
55.674507 62.296844 0.23733051
58.518936 62.87183 -0.92258149
57.618443 62.686481 -0.89878106
56.361824 62.427834 -0.86377782
56.055275 62.364735 -0.67613238
56.057087 62.365108 -0.4519428
56.017365 62.356934 -0.22761327
56.054523 62.364582 0
55.69183 62.289928 0.2368955
58.524456 62.869518 -0.92176729
57.638893 62.686684 -0.89601237
56.417503 62.434517 -0.8575877
56.046219 62.357861 -0.67698753
56.037811 62.356125 -0.45309597
56.013256 62.351055 -0.22775882
56.091202 62.367149 0
55.672504 62.280704 0.23747607
58.554874 62.868938 -0.9168759
57.586441 62.667774 -0.90362686
56.379597 62.417088 -0.86209077
56.04821 62.348251 -0.67698753
56.034725 62.345451 -0.45338511
56.01017 62.340351 -0.22790383
56.077885 62.354416 0
55.679691 62.271706 0.23733051
58.536892 62.858315 -0.9201358
57.661732 62.675423 -0.89324373
56.42131 62.416199 -0.8575877
56.04517 62.337593 -0.67741668
56.041809 62.336891 -0.45309597
56.022366 62.332825 -0.22761327
56.054409 62.339523 0
55.681786 62.26165 0.23733051
58.562458 62.8568 -0.91606176
57.633884 62.661572 -0.89739537
56.388432 62.399727 -0.86152625
56.052223 62.329041 -0.67698753
56.06913 62.332596 -0.45165479
56.024387 62.323189 -0.22761327
56.025848 62.323498 0
55.688972 62.25267 0.23718551
58.641224 62.866596 -0.90302229
57.660046 62.659073 -0.89393526
56.405273 62.393681 -0.8598392
56.059265 62.320499 -0.67655993
56.071152 62.323013 -0.45165479
56.031498 62.314629 -0.22746827
56.094078 62.327862 0
55.686012 62.241554 0.23733051
58.512047 62.832344 -0.92502713
57.597878 62.63784 -0.9029327
56.407219 62.384506 -0.8598392
56.046234 62.307701 -0.67784429
56.063053 62.311279 -0.45223194
56.028461 62.303921 -0.22761327
56.08593 62.316147 0
55.67289 62.228264 0.23776607
58.552132 62.833992 -0.9185074
57.653484 62.641651 -0.89532089
56.424088 62.378525 -0.85815001
56.053299 62.299164 -0.67741668
56.085335 62.306023 -0.45107877
56.025421 62.293198 -0.22775882
56.067612 62.302227 0
55.675034 62.218204 0.23776607
58.466568 62.808685 -0.93317521
57.645329 62.631874 -0.8967039
56.431015 62.370441 -0.8575877
56.040318 62.286324 -0.67869937
56.087387 62.296459 -0.45107877
56.032585 62.28466 -0.22761327
56.079838 62.294834 0
55.68227 62.20924 0.23762107
58.540485 62.817692 -0.92095
57.646984 62.624199 -0.8967039
56.423065 62.359146 -0.85871238
56.047405 62.277794 -0.67827183
56.064178 62.281425 -0.45251995
56.024494 62.272831 -0.22790383
56.087006 62.286369 0
55.67429 62.196991 0.23791106
58.638496 62.832134 -0.90465379
57.668262 62.620792 -0.89393526
56.439957 62.353237 -0.85702318
56.034439 62.264908 -0.67955613
56.091526 62.277344 -0.45107877
56.011349 62.259876 -0.22833939
56.109425 62.281242 0
55.696785 62.191357 0.23733051
58.572319 62.810848 -0.91606176
57.665039 62.612072 -0.89462674
56.441952 62.344105 -0.85702318
56.046581 62.257484 -0.67869937
56.058258 62.26004 -0.45309597
56.02869 62.253563 -0.22790383
56.091171 62.267254 0
55.693886 62.18021 0.23747607
58.486877 62.785145 -0.93072957
57.686302 62.608734 -0.89186072
56.434021 62.332783 -0.85815001
56.063721 62.251186 -0.67741668
56.080574 62.254898 -0.4519428
56.030807 62.243935 -0.22790383
56.078014 62.254337 0
55.691021 62.16906 0.23762107
58.555908 62.793457 -0.9193216
57.604713 62.582649 -0.90362686
56.440998 62.324741 -0.8575877
56.055824 62.239376 -0.67827183
56.062485 62.240852 -0.45309597
56.027866 62.233181 -0.22804883
56.090282 62.247017 0
55.672943 62.154522 0.23820162
58.456051 62.764297 -0.9364351
57.694592 62.594574 -0.89116657
56.438072 62.314507 -0.85815001
56.027897 62.22308 -0.68083882
56.094902 62.238014 -0.45136678
56.02494 62.22242 -0.22819383
56.077179 62.234066 0
55.680248 62.145592 0.23805663
58.51543 62.770573 -0.92665553
57.652237 62.57708 -0.89739537
56.425236 62.302032 -0.8598392
56.075134 62.223557 -0.67698753
56.0718 62.222809 -0.45280796
56.05751 62.219604 -0.22732328
56.048836 62.217659 0
55.677429 62.134403 0.23820162
58.507286 62.761776 -0.92828387
57.653961 62.569412 -0.89739537
56.442169 62.296238 -0.85815001
56.062256 62.210594 -0.67827183
56.0891 62.216644 -0.4519428
56.024174 62.202007 -0.22833939
56.076378 62.213776 0
55.689838 62.126637 0.23791106
58.590736 62.77372 -0.91443026
57.670357 62.565067 -0.89532089
56.444233 62.287106 -0.85815001
56.034393 62.194195 -0.68083882
56.086201 62.20594 -0.45223194
56.046627 62.196968 -0.22775882
56.093777 62.207657 0
55.692108 62.1166 0.23791106
58.581829 62.768257 -0.91606176
57.671227 62.561245 -0.89532089
56.430397 62.27916 -0.8598392
56.055511 62.193935 -0.67912692
56.077206 62.198868 -0.45280796
56.022385 62.186405 -0.22848439
56.049187 62.192497 0
55.698311 62.112732 0.23776607
58.549583 62.753998 -0.92176729
57.638744 62.545773 -0.90016401
56.432484 62.270016 -0.8598392
56.057697 62.184338 -0.67912692
56.079388 62.189297 -0.45280796
56.034721 62.179085 -0.22819383
56.107197 62.195652 0
55.695534 62.101543 0.23791106
58.62336 62.764027 -0.90954202
57.694283 62.550449 -0.89255226
56.44944 62.26429 -0.85815001
56.054878 62.173588 -0.67955613
56.056381 62.173931 -0.45424914
56.041988 62.170624 -0.22804883
56.104294 62.184948 0
55.702896 62.092674 0.23776607
58.586327 62.748623 -0.91606176
57.691154 62.541702 -0.89324373
56.402042 62.243725 -0.86377782
56.032085 62.158207 -0.68169558
56.083786 62.170158 -0.45280796
56.059399 62.16452 -0.22761327
56.091293 62.171894 0
55.69001 62.079136 0.23820162
58.457855 62.711872 -0.93806344
57.692921 62.534081 -0.89324373
56.453659 62.246048 -0.85815001
56.064331 62.15556 -0.67912692
56.096073 62.162937 -0.45223194
56.031242 62.147869 -0.22848439
56.088425 62.16116 0
55.692337 62.069099 0.23820162
58.589367 62.735546 -0.91606176
57.636066 62.51276 -0.9015497
56.45084 62.235775 -0.85871238
56.07156 62.147137 -0.67869937
56.093266 62.15221 -0.45251995
56.048672 62.141788 -0.22804883
56.08559 62.150417 0
55.689621 62.05788 0.23834662
58.605343 62.732403 -0.91361606
57.69648 62.518845 -0.89324373
56.45792 62.227818 -0.85815001
56.053814 62.132862 -0.68041122
56.105583 62.145027 -0.4519428
56.040794 62.129803 -0.22833939
56.072624 62.137283 0
55.691975 62.04784 0.23834662
58.544342 62.711109 -0.92420983
57.65921 62.501999 -0.89878106
56.460068 62.218704 -0.85815001
56.061066 62.124443 -0.67998368
56.077618 62.128349 -0.45367312
56.032955 62.117798 -0.2286294
56.105286 62.134888 0
55.69434 62.037804 0.23834662
58.497799 62.693092 -0.93236107
57.656151 62.493179 -0.89947253
56.482002 62.214291 -0.8558985
56.05835 62.113663 -0.68041122
56.100014 62.123562 -0.45251995
56.060513 62.114178 -0.22790383
56.097404 62.12294 0
55.696716 62.027767 0.23834662
58.523438 62.692192 -0.92828387
57.706768 62.497169 -0.89255226
56.444622 62.195766 -0.86040157
56.075619 62.107647 -0.67912692
56.087189 62.110413 -0.45338511
56.042576 62.099758 -0.22848439
56.09462 62.112186 0
55.699104 62.017738 0.23834662
58.568275 62.695957 -0.92095
57.669556 62.480194 -0.89808953
56.461636 62.190201 -0.85871238
56.057941 62.093281 -0.68083882
56.079426 62.098438 -0.45396113
56.054996 62.092571 -0.22819383
56.09185 62.101421 0
55.701508 62.00771 0.23834662
58.593876 62.695194 -0.9168759
57.661652 62.470196 -0.89947253
56.488525 62.187054 -0.8558985
56.050262 62.081276 -0.68169558
56.076706 62.087658 -0.45424914
56.042145 62.079315 -0.2286294
56.084023 62.089424 0
55.719078 62.001343 0.23791106
58.489784 62.663021 -0.93480361
57.63913 62.456623 -0.9029327
56.461098 62.170792 -0.85927469
56.062572 62.074093 -0.68083882
56.089069 62.080521 -0.45367312
56.049519 62.070927 -0.22848439
56.086338 62.079861 0
55.696236 61.985207 0.23863718
58.510612 62.661049 -0.93154377
57.670238 62.45607 -0.89878106
56.428749 62.153252 -0.86321545
56.05492 62.062069 -0.68169558
56.061249 62.063614 -0.45540231
56.041767 62.058861 -0.22877438
56.033054 62.056736 0
55.698677 61.975174 0.23863718
58.613049 62.679138 -0.91443026
57.696468 62.454395 -0.89532089
56.465542 62.152576 -0.85927469
56.082195 62.058582 -0.67955613
56.083691 62.058949 -0.45424914
56.034012 62.046768 -0.22906494
56.116291 62.06694 0
55.680939 61.960194 0.23921774
58.662636 62.68446 -0.90628219
57.712959 62.450386 -0.89324373
56.457901 62.141041 -0.86040157
56.089546 62.050247 -0.67912692
56.091061 62.050621 -0.45396113
56.056564 62.042118 -0.22848439
56.083252 62.048698 0
55.688469 61.951393 0.23907217
58.525909 62.640228 -0.92991537
57.691437 62.432945 -0.8967039
56.456356 62.126148 -0.86096388
56.088097 62.034672 -0.67955613
56.074524 62.031303 -0.45511431
56.060123 62.027725 -0.22848439
56.101959 62.038116 0
55.702274 61.938835 0.23878218
58.503582 62.627628 -0.93398941
57.644646 62.413166 -0.90362686
56.429031 62.109646 -0.86434227
56.0606 62.017654 -0.68212312
56.091972 62.025486 -0.45424914
56.037308 62.011837 -0.22920994
56.08918 62.024792 0
55.694695 61.926292 0.23907217
58.586746 62.641441 -0.9201358
57.700104 62.418922 -0.89601237
56.446114 62.104214 -0.86265308
56.063 62.008064 -0.68212312
56.08432 62.013412 -0.4548263
56.04475 62.003483 -0.22906494
56.096619 62.016499 0
55.661919 61.907402 0.2400883
58.569218 62.630066 -0.92339563
57.721481 62.416222 -0.89324373
56.482906 62.103786 -0.85871238
56.090298 62.004753 -0.67998368
56.096764 62.006382 -0.45424914
56.042133 61.992603 -0.22920994
56.104061 62.008224 0
55.64933 61.893517 0.24052386
58.613998 62.634438 -0.91606176
57.781761 62.423435 -0.88493782
56.485203 62.094707 -0.85871238
56.062866 61.987629 -0.68255067
56.094151 61.99556 -0.45453829
56.044567 61.982986 -0.22920994
56.05603 61.985893 0
55.631733 61.878319 0.24110441
58.630028 62.631596 -0.91361606
57.725327 62.401054 -0.89324373
56.477654 62.083115 -0.8598392
56.060314 61.976768 -0.68297988
56.086563 61.983456 -0.45511431
56.026867 61.968243 -0.22979051
56.083683 61.982723 0
55.629272 61.866928 0.24124941
58.545498 62.603035 -0.92828387
57.688377 62.383514 -0.89878106
56.455364 62.067726 -0.86265308
56.04287 61.962078 -0.68469173
56.068962 61.968761 -0.45626748
56.039406 61.961193 -0.22949995
56.11639 61.980911 0
38.983929 57.593071 0.7212007
58.604618 62.611225 -0.9185074
57.690334 62.375889 -0.89878106
56.492161 62.067478 -0.85871238
56.060257 61.956306 -0.68340743
56.066418 61.957893 -0.45655549
56.046902 61.952869 -0.22935495
56.083546 61.962303 0
39.00679 57.566738 0.72076511
58.725937 62.635658 -0.89813405
57.745743 62.382092 -0.89116657
56.474819 62.053318 -0.86096388
56.072685 61.949287 -0.68255067
56.093925 61.954784 -0.45511431
56.044353 61.941959 -0.22949995
56.106171 61.957951 0
38.984386 57.528732 0.72163624
58.493187 62.568344 -0.93806344
57.7477 62.374535 -0.89116657
56.457504 62.039112 -0.86321545
56.090061 61.943584 -0.68126798
56.071373 61.938725 -0.45655549
56.02673 61.92712 -0.2300805
56.048195 61.932701 0
38.97715 57.494591 0.72207123
58.619263 62.594177 -0.9168759
57.662277 62.344147 -0.90362686
56.489372 62.037704 -0.8598392
56.062756 61.926243 -0.68383497
56.073872 61.929146 -0.45655549
56.034264 61.9188 -0.2299355
56.126244 61.942829 0
38.954849 57.456474 0.72294235
58.62574 62.588932 -0.91606176
57.722519 62.351784 -0.89532089
56.472088 62.023468 -0.86209077
56.075191 61.919258 -0.68297988
56.096394 61.924828 -0.45540231
56.041805 61.910492 -0.22979051
56.133762 61.934639 0
38.98288 57.431496 0.7223618
58.60833 62.577396 -0.9193216
57.753632 62.351883 -0.89116657
56.46957 62.013077 -0.86265308
56.082687 61.910999 -0.68255067
56.093887 61.913956 -0.45569143
56.024235 61.895576 -0.23037106
56.060768 61.905216 0
38.995857 57.402596 0.72221678
58.672165 62.587349 -0.90872782
57.65863 62.318615 -0.90500981
56.491627 62.00919 -0.86040157
56.045517 61.890907 -0.68597442
56.086426 61.901752 -0.45626748
56.031803 61.887272 -0.23022605
56.083427 61.900959 0
38.983753 57.367062 0.72279739
58.57357 62.554188 -0.92584133
57.762478 62.338081 -0.89047509
56.484226 61.997505 -0.86152625
56.077827 61.889225 -0.68340743
56.098953 61.894855 -0.45569143
56.024326 61.874969 -0.23051606
56.106091 61.896755 0
38.996822 57.338181 0.72265184
58.580093 62.548908 -0.92502713
57.759647 62.32925 -0.89116657
56.501362 61.992363 -0.8598392
56.065502 61.875671 -0.68469173
56.071529 61.877285 -0.45742065
56.051998 61.872055 -0.22979051
56.048302 61.871063 0
38.979774 57.30125 0.72337794
58.700321 62.577667 -0.90465379
57.702507 62.309872 -0.89947253
56.492771 61.985203 -0.86096388
56.066788 61.870876 -0.68469173
56.087807 61.876518 -0.45655549
56.028191 61.860519 -0.23051606
56.044567 61.864914 0
38.968781 57.282097 0.72381294
58.649559 62.55711 -0.91361606
57.709393 62.30357 -0.89878106
56.470684 61.969521 -0.86377782
56.064411 61.859959 -0.68511927
56.07539 61.862919 -0.45742065
56.015724 61.846828 -0.23095162
56.047153 61.855301 0
38.961861 57.247799 0.72424847
58.63699 62.546768 -0.91606176
57.759869 62.30909 -0.89186072
56.468224 61.959091 -0.86434227
56.022411 61.838287 -0.68897057
56.087975 61.856052 -0.4568435
56.033386 61.841259 -0.23051606
56.110035 61.86203 0
39.020187 57.23114 0.72279739
58.586277 62.526001 -0.92502713
57.771606 62.304192 -0.89047509
56.495224 61.956669 -0.86152625
56.064659 61.839439 -0.68554688
56.095558 61.847851 -0.45655549
56.041008 61.833 -0.23037106
56.092537 61.847031 0
39.028385 57.200958 0.72279739
58.654823 62.537727 -0.91361606
57.696224 62.275482 -0.9015497
56.473175 61.940895 -0.86434227
56.057381 61.827145 -0.68640196
56.098164 61.838303 -0.45655549
56.033619 61.820644 -0.23066106
56.054977 61.826488 0
39.061699 57.17765 0.72207123
58.656593 62.531269 -0.91361606
57.727352 62.275848 -0.89739537
56.500183 61.938538 -0.86152625
56.079796 61.822987 -0.68469173
56.105766 61.830124 -0.45626748
56.041264 61.812397 -0.23051606
56.102776 61.829304 0
39.095009 57.154411 0.72134572
58.629776 62.516914 -0.9185074
57.690746 62.257584 -0.9029327
56.439007 61.911892 -0.8688432
56.067596 61.809322 -0.68597442
56.078484 61.812328 -0.45799667
56.028877 61.79863 -0.23095162
56.100391 61.818378 0
39.103298 57.124321 0.72134572
58.688732 62.526287 -0.90872782
57.731537 62.260696 -0.89739537
56.4758 61.912266 -0.86490464
56.02573 61.787388 -0.68982571
56.096073 61.806904 -0.45713264
56.051575 61.794556 -0.23037106
56.062912 61.797703 0
39.081566 57.085903 0.72221678
58.657196 62.510582 -0.91443026
57.733643 62.25312 -0.89739537
64 64 -0
56.048191 61.783268 -0.68811381
56.063862 61.787636 -0.45914984
56.029221 61.777977 -0.23109663
56.075615 61.790913 0
39.094963 57.057201 0.72207123
58.730389 62.52412 -0.90220809
57.682606 62.230663 -0.90500981
56.495552 61.898201 -0.86321545
56.050877 61.773659 -0.68811381
56.091442 61.785023 -0.45770866
56.036911 61.769749 -0.23095162
56.088303 61.784142 0
39.108368 57.028511 0.72192627
58.651287 62.494995 -0.91606176
57.800667 62.25565 -0.88839793
56.483414 61.885006 -0.86490464
56.063446 61.766834 -0.68725872
56.089149 61.774067 -0.45799667
56.034615 61.758724 -0.23109663
56.095993 61.775993 0
39.106796 56.995625 0.72221678
58.676888 62.495255 -0.91198772
57.797935 62.246792 -0.88909209
56.49086 61.877304 -0.86434227
56.061214 61.755852 -0.68768626
56.06694 61.757469 -0.45943898
56.042324 61.750511 -0.23095162
56.053612 61.753704 0
39.085281 56.957069 0.72308737
58.697731 62.494225 -0.90872782
57.650448 62.196812 -0.91054714
56.483665 61.865459 -0.86546701
56.054047 61.743454 -0.68854302
56.089561 61.75354 -0.45828581
56.040054 61.739479 -0.23109663
56.101391 61.756901 0
39.038811 56.911354 0.72468406
58.623497 62.466122 -0.92176729
57.763611 62.220802 -0.89462674
56.520462 61.866138 -0.86152625
56.066662 61.736675 -0.68768626
56.072384 61.738308 -0.45943898
56.032787 61.727009 -0.23138718
56.099106 61.74593 0
39.027405 56.875496 0.72526461
58.639614 62.463715 -0.9193216
57.770584 62.214649 -0.89393526
56.508385 61.852901 -0.86321545
56.064472 61.725677 -0.68811381
56.070152 61.727306 -0.45972699
56.04554 61.720253 -0.23109663
56.126846 61.743553 0
39.085999 56.859646 0.72381294
58.660477 62.462708 -0.91606176
57.782379 62.209896 -0.89255226
56.545174 61.853695 -0.85927469
56.047489 61.710407 -0.68982571
56.097755 61.72488 -0.45828581
56.048302 61.71064 -0.23109663
56.104576 61.726845 0
39.204506 56.861176 0.72062016
58.7953 62.494713 -0.89324272
57.741173 62.189842 -0.89878106
56.528244 61.839043 -0.86152625
56.06012 61.703651 -0.68897057
56.090584 61.712463 -0.45886183
56.041077 61.698143 -0.23138718
56.122334 61.721645 0
55.64695 61.584156 0.24284554
58.720245 62.469547 -0.90628219
57.766357 62.193043 -0.89532089
56.544182 61.838768 -0.8598392
56.061508 61.698853 -0.68897057
56.111839 61.713444 -0.45770866
56.027512 61.688999 -0.23182218
56.083717 61.705292 0
55.663372 61.583447 0.24241053
58.698372 62.456261 -0.91035622
57.672215 62.157463 -0.90916145
56.546799 61.829762 -0.8598392
56.074162 61.692139 -0.68811381
56.089779 61.696686 -0.45914984
56.025307 61.67791 -0.23196773
56.111481 61.703003 0
55.641354 61.566113 0.24313609
58.681263 62.444305 -0.91361606
57.727406 62.165306 -0.9015497
56.529915 61.815052 -0.86209077
56.067089 61.679676 -0.68897057
56.097527 61.68858 -0.45886183
56.043083 61.672657 -0.23153217
56.074295 61.681786 0
55.669235 61.563309 0.24241053
58.668915 62.433697 -0.91606176
57.763329 62.167633 -0.8967039
56.566696 61.816055 -0.85815001
56.050198 61.664303 -0.69068247
56.090393 61.676113 -0.45943898
56.060867 61.667439 -0.23109663
56.082092 61.673676 0
55.667206 61.551781 0.24255553
58.704002 62.437054 -0.91035622
57.779991 62.16436 -0.89462674
56.549843 61.801323 -0.86040157
56.07272 61.660515 -0.68897057
56.118027 61.673882 -0.45799667
56.038773 61.650494 -0.23182218
56.084908 61.664108 0
55.685127 61.546127 0.24211997
58.772236 62.450321 -0.89894825
57.787018 62.158272 -0.89393526
56.581749 61.800987 -0.85702318
56.050945 61.643642 -0.69111001
56.101006 61.658482 -0.45914984
56.031643 61.63792 -0.23211274
56.122673 61.664902 0
55.688099 61.536083 0.24211997
58.764648 62.441185 -0.90057659
57.808483 62.15649 -0.89116657
56.550316 61.781876 -0.86096388
56.048882 61.632576 -0.69153756
56.093914 61.645981 -0.45972699
56.044476 61.631264 -0.23182218
56.080608 61.642021 0
38.97139 56.547794 0.72932798
58.709702 62.417866 -0.91035622
57.777061 62.138947 -0.89601237
56.543251 61.769958 -0.86209077
56.032074 61.617085 -0.69324946
56.08189 61.631985 -0.46059212
56.04734 61.621651 -0.23182218
56.083462 61.632454 0
38.980412 56.517555 0.72932798
58.702141 62.408627 -0.91198772
57.836979 62.14875 -0.88770646
56.570301 61.768265 -0.85927469
56.044785 61.610409 -0.69239432
56.114494 61.631348 -0.45886183
56.06514 61.616524 -0.23138718
56.091309 61.624386 0
38.979507 56.484337 0.72961849
58.751404 62.416508 -0.90383649
57.820007 62.135509 -0.89047509
56.573006 61.759289 -0.85927469
56.042767 61.599319 -0.69282186
56.092606 61.614353 -0.46030301
56.048122 61.600933 -0.23196773
56.039387 61.598297 0
38.933891 56.437603 0.73121464
58.682354 62.388664 -0.91606176
57.707016 62.093121 -0.90708697
56.546528 61.74147 -0.86265308
56.065327 61.595661 -0.69111001
56.110329 61.609299 -0.45943898
56.051029 61.591328 -0.23196773
56.047272 61.590187 0
38.903259 56.395264 0.73237574
58.755245 62.403828 -0.90383649
57.810127 62.116196 -0.89255226
56.5201 61.723595 -0.86602932
56.053497 61.581589 -0.69239432
56.098392 61.595253 -0.46030301
56.053944 61.581726 -0.23196773
56.10994 61.598766 0
38.887611 56.35738 0.73310131
58.742989 62.393158 -0.90628219
57.73563 62.085251 -0.90362686
56.552006 61.723465 -0.86265308
56.046616 61.568989 -0.69324946
56.086456 61.581169 -0.46116817
