# .PCD v0.7 - Point Cloud Data file format
VERSION 0.7
FIELDS x y z
SIZE 4 4 4
TYPE F F F
COUNT 1 1 1
WIDTH 1606
HEIGHT 1
VIEWPOINT 0 0 0 1 0 0 0
POINTS 1606
DATA ascii
88.075188 99.42556 1.1962175
67.272926 68.828499 -0.96169668
67.821739 69.638161 -0.93961656
68.543716 70.703285 -0.89698637
69.625534 72.299278 -0.83575553
71.472702 75.024384 -0.74223912
76.220825 82.029213 -0.60829473
85.737434 96.068947 0
88.084846 99.532051 1.1988298
67.228333 68.775131 -0.95028871
67.761528 69.563797 -0.92646486
68.515701 70.679314 -0.89304781
69.629883 72.327332 -0.83789498
71.462273 75.037682 -0.74252719
76.184479 82.022446 -0.60756916
85.716156 96.121048 0
88.105934 99.655853 1.2020231
67.239136 68.803604 -0.95517695
67.768837 69.589149 -0.92992765
68.507622 70.684761 -0.89304781
69.605469 72.312851 -0.83575553
71.443138 75.038109 -0.74195004
76.177216 82.058693 -0.60829473
85.700607 96.181793 0
88.141273 99.801277 1.2059414
67.153328 68.688568 -0.93154377
67.762077 69.593697 -0.92992765
68.493866 70.681763 -0.89192092
69.595413 72.319618 -0.83575553
71.438461 75.059975 -0.7428152
76.149582 82.064758 -0.60800415
85.673325 96.225266 0
88.161797 99.925285 1.2091342
67.158676 68.708794 -0.93480361
67.732956 69.564903 -0.92439038
68.499939 70.70829 -0.89473486
69.596802 72.34343 -0.83746743
71.404915 75.038879 -0.74079686
76.107483 82.049232 -0.60698861
85.640175 96.260086 0
88.19075 100.06235 1.2127626
67.251938 68.860512 -0.96414232
67.756912 69.615273 -0.93200213
68.49749 70.722176 -0.89586169
69.586716 72.350182 -0.83746743
71.400208 75.060722 -0.74166203
76.076996 82.050888 -0.60655308
85.612755 96.303513 0
88.213623 100.1909 1.2161009
67.268013 68.897339 -0.97066206
67.741776 69.6073 -0.92992765
68.506287 70.75296 -0.89923793
69.58802 72.374008 -0.83917928
71.389702 75.073952 -0.74195004
76.066711 82.082756 -0.60713363
85.596825 96.364243 0
88.239098 100.32385 1.2195837
67.188148 68.790169 -0.94865721
67.732216 69.607628 -0.92923349
68.467155 70.711876 -0.89304781
69.560822 72.355103 -0.83661067
71.367729 75.069969 -0.74108601
76.050613 82.105972 -0.6074236
85.55481 96.385971 0
88.267166 100.46127 1.2232121
67.226097 68.859909 -0.96169668
67.722664 69.607956 -0.92854202
68.481514 70.751122 -0.89754874
69.542213 72.348999 -0.83532798
71.360062 75.087471 -0.74166203
76.008614 82.090218 -0.60640806
85.538689 96.446678 0
88.289207 100.59016 1.2265505
67.190216 68.818481 -0.95273441
67.715881 69.61245 -0.92854202
68.453728 70.726883 -0.89361012
69.549126 72.381363 -0.83789498
71.349518 75.100662 -0.74195004
75.972404 82.083054 -0.60568249
85.522453 96.507401 0
88.319565 100.73213 1.2303238
67.184387 68.822327 -0.95273441
67.709099 69.616936 -0.92854202
68.459595 70.753464 -0.89642406
69.538994 72.388062 -0.83789498
71.336098 75.109535 -0.74195004
75.964859 82.119186 -0.60640806
85.508972 96.572464 0
88.338158 100.85689 1.2335166
67.170403 68.813789 -0.95028871
67.682991 69.592079 -0.92369622
68.448639 70.754601 -0.89586169
69.517555 72.377602 -0.83618313
71.32267 75.118393 -0.74195004
75.948669 82.142303 -0.60669804
85.466736 96.594093 0
88.365067 100.99477 1.2371449
67.183571 68.846519 -0.95599115
67.703781 69.638466 -0.93061912
68.437683 70.75573 -0.89529932
69.535622 72.427177 -0.84046358
71.314911 75.135887 -0.74252719
75.901062 82.117638 -0.60539192
85.438766 96.637405 0
88.394524 101.13712 1.2409183
67.166885 68.833839 -0.95273441
67.677711 69.613556 -0.92577332
68.440651 70.778076 -0.89754874
69.508553 72.408089 -0.83789498
71.318459 75.170677 -0.74425638
75.904793 82.171127 -0.60669804
85.407883 96.676353 0
88.409439 101.25784 1.243966
67.182663 68.870758 -0.95925099
67.673668 69.622192 -0.92646486
68.421349 70.766434 -0.89529932
69.498383 72.414734 -0.83789498
71.276665 75.136215 -0.74137402
75.857246 82.146347 -0.60539192
85.376915 96.715256 0
88.446838 101.41347 1.2481749
67.198372 68.90773 -0.96577072
67.683319 69.651855 -0.93061912
68.415939 70.776024 -0.89586169
69.488213 72.421371 -0.83789498
71.277321 75.166664 -0.7428152
75.829643 82.151962 -0.60510194
85.34874 96.758507 0
88.452682 101.52135 1.2507871
67.189743 68.907448 -0.96495652
67.673752 69.6521 -0.92992765
68.407745 70.781357 -0.89586169
69.483635 72.436615 -0.83875173
71.263824 75.175446 -0.7428152
75.816193 82.179298 -0.60553694
85.31765 96.797379 0
88.480957 101.66415 1.2545605
67.103149 68.786865 -0.94050914
67.653267 69.635475 -0.92646486
68.418892 70.816513 -0.89980024
69.479019 72.451843 -0.83960682
71.239059 75.166855 -0.74166203
75.808357 82.215378 -0.60626304
85.309151 96.871155 0
88.525894 101.83324 1.259205
67.191292 68.93589 -0.96903056
67.64373 69.635674 -0.92577332
68.388588 70.787727 -0.89529932
69.463234 72.449844 -0.83875173
71.248032 75.210342 -0.74396837
75.744011 82.164169 -0.6040858
85.275063 96.905609 0
88.550697 101.97195 1.2628334
67.129074 68.852509 -0.95191711
67.661392 69.678017 -0.93200213
68.383141 70.797287 -0.89586169
69.441887 72.439178 -0.83703989
71.223267 75.201706 -0.7428152
75.747398 82.217651 -0.60539192
85.255035 96.961922 0
88.57238 102.1064 1.2663162
67.101814 68.823021 -0.94539738
67.646393 69.669792 -0.92992765
68.355675 70.772659 -0.89192092
69.451118 72.475967 -0.84003443
71.220917 75.227829 -0.74396837
75.691643 82.179382 -0.60365027
85.206741 96.974442 0
88.58535 102.22784 1.2693639
67.128014 68.876701 -0.95517695
67.636826 69.66996 -0.92923349
68.358467 70.795029 -0.89417249
69.432564 72.469589 -0.83875173
71.210136 75.240891 -0.74425638
75.66687 82.189125 -0.60350525
85.178131 97.017563 0
88.645752 102.42374 1.274879
67.130402 68.886917 -0.95680845
67.636108 69.676392 -0.92992765
68.381767 70.840439 -0.89980024
69.430214 72.477196 -0.83917928
71.192184 75.227829 -0.74310321
75.672691 82.222412 -0.60437584
85.144142 97.008446 0
88.692612 102.54802 1.2785072
67.103203 68.857376 -0.95028871
67.640045 69.697678 -0.93269366
68.348877 70.80719 -0.89473486
69.411674 72.470764 -0.83789498
71.181404 75.240875 -0.74339229
75.631088 82.205864 -0.6033603
85.10424 97.033966 0
88.707565 102.67416 1.2817
67.110611 68.881958 -0.95436275
67.584633 69.625908 -0.92023605
68.362495 70.846725 -0.89923793
69.401436 72.477295 -0.83789498
71.176147 75.262627 -0.74425638
75.609077 82.219902 -0.6033603
85.0755 97.077003 0
88.733429 102.81796 1.2854739
67.088806 68.860687 -0.94947451
67.593979 69.655655 -0.92439038
68.34877 70.843422 -0.89811325
69.404953 72.505478 -0.84003443
71.17086 75.284386 -0.74512154
75.561974 82.194443 -0.60205418
85.055046 97.133186 0
88.758972 102.96185 1.2892473
67.125259 68.931206 -0.96251088
67.624741 69.719315 -0.93407929
68.337769 70.844368 -0.89754874
69.389183 72.503342 -0.83917928
71.154449 75.288681 -0.74483353
75.54554 82.217178 -0.60234416
85.00943 97.149818 0
88.759171 103.06635 1.2917145
67.106102 68.914093 -0.95843679
67.596382 69.689766 -0.92854202
68.310501 70.81955 -0.89361012
69.392616 72.53154 -0.84131873
71.132507 75.284195 -0.74396837
75.523514 82.23111 -0.60234416
84.999954 97.223579 0
88.736931 103.13577 1.2930207
67.102791 68.92202 -0.95925099
67.573456 69.668648 -0.92439038
68.302254 70.824753 -0.89361012
69.365883 72.512001 -0.83875173
71.118874 75.292801 -0.74396837
75.493164 82.231827 -0.60190862
84.943138 97.222504 0
89.573639 104.56796 1.3393176
67.067909 68.879745 -0.95028871
67.582626 69.698441 -0.92854202
68.312935 70.860046 -0.89754874
69.355591 72.518478 -0.83875173
71.132751 75.345184 -0.74685073
75.468361 82.24131 -0.60176361
84.922371 97.278633 0
89.5578 104.65163 1.3410592
67.088264 68.925323 -0.95843679
67.554413 69.668755 -0.92300469
68.320847 70.891098 -0.90092713
69.35347 72.537979 -0.84003443
71.094307 75.314354 -0.74425638
75.451843 82.263962 -0.60205418
84.893204 97.321533 0
89.580429 104.79695 1.3448325
67.08493 68.933235 -0.95925099
67.552887 69.681564 -0.92439038
68.293648 70.86615 -0.89698637
69.351318 72.557503 -0.84131873
71.072411 75.309769 -0.74339229
75.410469 82.246941 -0.60103804
84.875008 97.382057 0
89.616539 104.96443 1.349332
67.102516 68.974716 -0.96658802
67.572563 69.728416 -0.93131065
68.293419 70.88427 -0.89867556
69.340973 72.563965 -0.84131873
71.083374 75.357811 -0.7459867
75.385666 82.25631 -0.60089302
84.867699 97.460236 0
89.652267 105.13204 1.3538309
67.088669 68.965866 -0.96414232
67.555038 69.715683 -0.92854202
68.274361 70.872192 -0.89642406
69.317062 72.548615 -0.83917928
71.075104 75.375137 -0.74656272
75.380066 82.296524 -0.60176361
84.846497 97.516373 0
89.676651 105.28214 1.3577492
67.048798 68.914993 -0.95354861
67.550774 69.724236 -0.92923349
68.266052 70.87735 -0.89642406
69.322968 72.581207 -0.84174627
71.050446 75.366089 -0.74540955
75.330559 82.266106 -0.60031247
84.860855 97.629997 0
89.708939 105.44563 1.3621037
67.089661 68.994331 -0.96821642
67.554413 69.74559 -0.93200213
68.265762 70.89547 -0.89811325
69.307198 72.578903 -0.84089118
71.042152 75.383408 -0.7459867
75.305748 82.275368 -0.60016745
84.820206 97.655182 0
89.716248 105.56946 1.3651509
67.036911 68.922348 -0.95354861
67.536926 69.732803 -0.92923349
68.260094 70.904938 -0.89867556
69.291428 72.576569 -0.84003443
71.025673 75.387497 -0.74569756
75.283661 82.289017 -0.60016745
84.815056 97.737892 0
89.750587 105.73761 1.3696504
66.98951 68.85865 -0.94050914
67.522118 69.724266 -0.92715901
68.267723 70.936043 -0.90205181
69.294525 72.604828 -0.84217548
71.022751 75.413597 -0.74685073
75.245209 82.27607 -0.59929639
84.790634 97.789612 0
89.768219 105.87935 1.3732787
67.032753 68.942299 -0.95599115
67.536186 69.762711 -0.93269366
68.243401 70.915215 -0.89867556
69.284119 72.611221 -0.84217548
71.008957 75.422073 -0.74685073
75.244858 82.325081 -0.60045749
84.777016 97.859077 0
89.815437 106.0699 1.3785032
66.985504 68.87851 -0.94295484
67.516129 69.745583 -0.92923349
68.216469 70.889992 -0.89473486
69.271027 72.613205 -0.84174627
70.989754 75.421722 -0.74627471
75.220001 82.334229 -0.60031247
84.755104 97.915222 0
89.807991 106.17198 1.3808254
67.054283 69.004478 -0.96658802
67.519638 69.76696 -0.93200213
68.216087 70.908096 -0.89642406
69.263298 72.623962 -0.84217548
70.986725 75.447823 -0.74742788
75.181587 82.321144 -0.59944135
84.741226 97.984711 0
89.840935 106.34064 1.3853244
66.955711 68.856155 -0.9372493
67.510063 69.76693 -0.93131065
68.207733 70.913185 -0.89642406
69.260872 72.643463 -0.84345812
70.959442 75.434166 -0.7459867
75.164848 82.343529 -0.59973192
84.735329 98.067551 0
89.905945 106.56273 1.3915654
66.962662 68.880844 -0.94132334
67.490074 69.749725 -0.92785048
68.212563 70.939987 -0.89923793
69.250427 72.649811 -0.84345812
70.948303 75.446983 -0.74627471
75.153465 82.374779 -0.60031247
84.726555 98.145966 0
89.978523 106.79832 1.398241
67.025887 68.998604 -0.96332818
67.511696 69.80114 -0.9354623
68.206802 70.949409 -0.89980024
69.234657 72.647377 -0.84260303
70.939819 75.464211 -0.74685073
75.101646 82.339333 -0.59871578
84.728401 98.242218 0
90.012909 106.97195 1.4028856
66.996841 68.964157 -0.95599115
67.504684 69.805374 -0.9354623
68.193153 70.945801 -0.89867556
69.229507 72.662476 -0.84345812
70.942009 75.499168 -0.74858105
75.074112 82.343842 -0.59842581
84.735435 98.347458 0
90.041542 107.13681 1.4072394
66.995018 68.988335 -0.95925099
67.482903 69.800934 -0.93338782
68.160667 70.929779 -0.89529932
69.208557 72.675087 -0.84345812
70.916855 75.52034 -0.74886906
75.013695 82.343811 -0.59755468
84.764893 98.584877 0
90.13517 107.52931 1.4179795
66.905197 68.852013 -0.93236107
67.493927 69.835266 -0.93823093
68.173164 70.969666 -0.89980024
69.192802 72.672577 -0.84260303
70.900276 75.524261 -0.74858105
75.012878 82.392776 -0.59871578
84.79528 98.730499 0
90.146622 107.66786 1.4214623
66.89933 68.855522 -0.93236107
67.466293 69.805016 -0.93269366
68.164742 70.974701 -0.89980024
69.184944 72.683243 -0.84303057
70.878387 75.519257 -0.74771589
74.972008 82.374847 -0.59770024
84.782654 98.804764 0
90.17643 107.83774 1.4259617
66.997147 69.033134 -0.96577072
67.461853 69.813522 -0.93338782
68.151115 70.971001 -0.89867556
69.169205 72.680695 -0.84217548
70.888283 75.567558 -0.75031024
74.957764 82.401474 -0.59813523
84.777863 98.892456 0
90.197884 107.99435 1.4300251
66.968346 68.998505 -0.95843679
67.447136 69.804756 -0.93131065
68.145279 70.980377 -0.89923793
69.177055 72.717819 -0.84517002
70.858459 75.549194 -0.74858105
74.930222 82.405777 -0.59784526
84.791496 99.011513 0
90.224304 108.16002 1.434379
66.929565 68.9468 -0.94784302
67.458023 69.839142 -0.93615645
68.121307 70.959152 -0.89586169
69.158676 72.710831 -0.84388733
70.857674 75.579727 -0.75002223
74.900024 82.405548 -0.59740967
84.725311 98.996307 0
90.239777 108.30792 1.4381523
66.921547 68.940063 -0.94621468
67.418732 69.780762 -0.92646486
68.137802 70.996635 -0.90036476
69.1325 72.678589 -0.84046358
70.85331 75.588318 -0.75031024
74.888901 82.412132 -0.59740967
85.9123 101.05167 0
90.300301 108.47137 1.4429418
66.96077 69.020226 -0.96088248
67.434685 69.823776 -0.93269366
68.119019 70.984123 -0.89811325
69.132446 72.702477 -0.84217548
70.831429 75.583229 -0.74944615
74.853455 82.402893 -0.59668416
85.848999 101.04674 0
90.317825 108.62399 1.4468607
66.959709 69.032318 -0.96251088
67.453087 69.871185 -0.93961656
68.128601 71.019745 -0.90205181
69.132339 72.726372 -0.84388733
70.822662 75.600388 -0.75002223
74.823303 82.402557 -0.59624857
85.820053 101.10002 0
90.295494 108.7095 1.4486018
66.881119 68.912254 -0.9388808
67.423141 69.836403 -0.93338782
68.099548 70.989662 -0.89754874
69.116592 72.723701 -0.84303057
70.811256 75.613083 -0.75031024
74.811569 82.433548 -0.59682912
85.804176 101.17575 0
90.225685 108.71435 1.4477313
66.942558 69.03093 -0.96088248
67.385689 69.788559 -0.92508185
68.101364 71.012154 -0.89980024
69.106049 72.729874 -0.84303057
70.784164 75.598984 -0.74886906
74.773552 82.419693 -0.59595859
85.793396 101.26047 0
96.444794 119.4713 1.794742
66.829384 68.850883 -0.92584133
67.419144 69.861992 -0.93615645
68.100571 71.030281 -0.90148944
69.098076 72.740471 -0.84345812
70.764938 75.598244 -0.74829298
74.732956 82.401268 -0.59494245
85.766724 101.31825 0
95.157639 117.41864 1.7271101
66.920448 69.020935 -0.95762265
67.42971 69.896469 -0.94099957
68.084404 71.022049 -0.89980024
69.090103 72.751076 -0.84388733
70.766518 75.633224 -0.75002223
74.742073 82.468132 -0.59668416
85.768707 101.42551 0
95.150558 117.55508 1.7303034
66.929253 69.050102 -0.96251088
67.415039 69.887604 -0.93892509
68.091217 71.05336 -0.90317863
69.079521 72.757217 -0.84388733
70.755051 75.645866 -0.75031024
74.704102 82.454117 -0.59581304
85.793983 101.57333 0
95.135361 117.67809 1.7330607
66.940475 69.083595 -0.96821642
67.392838 69.865654 -0.93477076
68.082695 71.058296 -0.90317863
69.079208 72.781113 -0.84559757
70.746162 75.662979 -0.75088739
74.684402 82.47155 -0.59595859
85.831963 101.74382 0
95.083481 117.73816 1.7337862
66.912109 69.048615 -0.96088248
67.370712 69.843681 -0.93061912
68.08432 71.080833 -0.9054302
69.060913 72.773911 -0.84431487
70.732063 75.671127 -0.75088739
74.65947 82.479935 -0.59581304
85.830551 101.84682 0
94.964005 117.68114 1.7307384
66.896149 69.034988 -0.95762265
67.406174 69.921684 -0.94238526
68.080826 71.094566 -0.90655488
69.063103 72.802269 -0.84645432
70.728271 75.697189 -0.75204051
74.62159 82.465775 -0.59494245
85.821129 101.93633 0
94.74884 117.45727 1.7223212
66.902359 69.059921 -0.96169668
67.379051 69.890976 -0.93684793
68.057083 71.073051 -0.90317863
69.039688 72.786118 -0.84431487
70.708977 75.696327 -0.75146341
74.601852 82.483101 -0.59508747
85.83226 102.062 0
94.591141 117.33209 1.7170962
66.839798 68.964745 -0.94295484
67.369438 69.890701 -0.93615645
68.053574 71.086761 -0.90430331
69.026527 72.78775 -0.84388733
70.699982 75.713409 -0.75204051
74.571777 82.482376 -0.59465247
85.84568 102.19225 0
94.493134 117.31038 1.7152095
66.902359 69.088379 -0.96577072
67.354858 69.881691 -0.93407929
68.042496 71.087242 -0.903741
69.018448 72.798271 -0.84431487
70.680695 75.712509 -0.75146341
74.554581 82.504158 -0.59494245
85.83046 102.27287 0
94.639816 117.71732 1.7271101
66.854668 69.018845 -0.95191711
67.33287 69.859581 -0.92992765
68.056534 71.131874 -0.90880638
69.012878 72.81324 -0.84517002
70.67421 75.734062 -0.75232857
74.529648 82.512383 -0.59479743
85.784203 102.29922 0
94.562042 117.73172 1.7263845
66.816902 68.9664 -0.94132334
67.357964 69.920334 -0.93892509
68.02285 71.092575 -0.90317863
69.002228 72.81929 -0.84517002
70.667686 75.755623 -0.75319368
74.486763 82.48893 -0.59363633
85.745621 102.33911 0
91.061607 111.71159 1.5319077
66.813324 68.974098 -0.94213748
67.348328 69.920013 -0.93823093
68.019272 71.10627 -0.90430331
68.994095 72.829796 -0.84559757
70.645836 75.75016 -0.75232857
74.489998 82.546814 -0.59508747
85.709518 102.38346 0
91.026962 111.78496 1.5332139
66.89959 69.141098 -0.9731046
67.333786 69.91095 -0.93615645
68.020668 71.12883 -0.90655488
68.988472 72.84478 -0.84645432
70.644341 75.780701 -0.75376976
74.429291 82.491592 -0.59291077
85.675911 102.43234 0
90.979416 111.83569 1.5337944
66.854614 69.075676 -0.96006829
67.329102 69.91935 -0.93684793
68.017044 71.142548 -0.9076817
68.985329 72.864227 -0.84773862
70.630096 75.788727 -0.75376976
74.432411 82.549469 -0.5943619
85.647308 102.49025 0
90.906311 111.84108 1.5329238
66.891998 69.156723 -0.97473609
67.292496 69.87085 -0.92854202
67.988525 71.111938 -0.90317863
68.979637 72.879189 -0.84859377
70.620918 75.805756 -0.75434685
74.399818 82.54393 -0.59378135
85.618614 102.54816 0
90.919662 112.00047 1.5369877
66.854401 69.104126 -0.96414232
67.31723 69.931747 -0.93753946
67.977448 71.11232 -0.90261632
68.953873 72.858322 -0.84602678
70.594009 75.791161 -0.75290459
74.377403 82.55648 -0.59378135
85.594879 102.61514 0
90.945343 112.18263 1.5417767
66.812119 69.042809 -0.95191711
67.317398 69.948906 -0.93961656
67.98864 71.152611 -0.90711719
68.940659 72.85981 -0.84559757
70.589836 75.817192 -0.75405777
74.352448 82.564468 -0.59363633
85.565956 102.67303 0
90.955444 112.33771 1.5456955
66.813232 69.059166 -0.95436275
67.312645 69.957291 -0.94030809
67.962715 71.12635 -0.90317863
68.92746 72.86129 -0.84517002
70.593155 75.856796 -0.7560761
74.314857 82.549721 -0.59276581
85.529327 102.71725 0
91.018234 112.58824 1.5526617
66.811905 69.071205 -0.95599115
67.305443 69.961288 -0.94030809
67.978745 71.175568 -0.90880638
68.919235 72.871719 -0.84559757
70.571297 75.851181 -0.75521094
74.299988 82.575798 -0.5932008
85.497665 102.77055 0
91.037628 112.76173 1.5571606
66.798607 69.06163 -0.95354861
67.303093 69.974068 -0.94169372
67.972527 71.184814 -0.90936875
68.920937 72.900139 -0.84773862
70.571991 75.886284 -0.7569412
74.272514 82.57914 -0.59291077
85.450806 102.79649 0
91.104416 113.02176 1.5644172
66.861694 69.190544 -0.97718179
67.261955 69.916527 -0.93200213
67.96875 71.198517 -0.91049558
68.90274 72.892586 -0.84645432
70.542641 75.867027 -0.75521094
74.250061 82.591537 -0.59291077
85.401405 102.81783 0
91.12043 113.19099 1.5687711
66.783989 69.064049 -0.95273441
67.298317 69.999619 -0.94446236
67.933121 71.154312 -0.90430331
68.90683 72.925484 -0.84902132
70.523315 75.865868 -0.75463492
74.227585 82.603912 -0.59291077
85.37204 102.8756 0
91.191162 113.46054 1.5763184
66.796867 69.102074 -0.95925099
67.288651 69.999191 -0.9437682
67.934242 71.176888 -0.90655488
68.886169 72.913399 -0.84730941
70.516434 75.887352 -0.75550002
74.195107 82.598022 -0.59233022
85.32254 102.89681 0
91.223801 113.66195 1.5816879
66.819153 69.157501 -0.96903056
67.250114 69.945923 -0.93477076
67.93045 71.190567 -0.9076817
68.872932 72.914795 -0.84688187
70.514465 75.917908 -0.7569412
74.167641 82.601204 -0.59203964
85.268044 102.90886 0
91.24353 113.84073 1.5863323
66.812912 69.160904 -0.96903056
67.259735 69.98069 -0.93961656
67.938774 71.226532 -0.91162032
68.86216 72.920677 -0.84688187
70.502541 75.930305 -0.75722927
74.150131 82.622612 -0.59233022
85.228477 102.94823 0
91.265366 114.02419 1.5911218
66.783081 69.120872 -0.96088248
67.25251 69.984627 -0.93961656
67.915482 71.204498 -0.90824407
68.863632 72.949097 -0.84902132
70.478233 75.919975 -0.7560761
74.115219 82.61203 -0.59160465
85.171463 102.95555 0
91.261963 114.16211 1.5944597
66.776886 69.124229 -0.96088248
67.214203 69.931206 -0.93061912
67.923729 71.240509 -0.91218477
68.852814 72.954971 -0.84902132
70.46875 75.936882 -0.75665212
74.0952 82.628807 -0.59174967
85.109497 102.95366 0
91.287994 114.35492 1.599539
66.763641 69.114532 -0.95843679
67.273811 70.05867 -0.94999701
67.890808 71.200523 -0.90655488
68.824913 72.929222 -0.84602678
70.454323 75.944687 -0.75665212
74.077614 82.650131 -0.59203964
85.054993 102.96539 0
91.380295 114.67131 1.6085374
66.805153 69.19886 -0.97392195
67.215355 69.959099 -0.93407929
67.903351 71.234184 -0.91049558
68.829269 72.950211 -0.84773862
70.456932 75.966797 -0.75780529
74.061417 82.647072 -0.59174967
85.021561 102.95979 0
91.49527 114.95767 1.6171002
66.789505 69.184837 -0.97066206
67.246185 70.033676 -0.94515389
67.899422 71.247841 -0.91162032
68.820885 72.960556 -0.84816617
70.452271 75.992813 -0.75895846
74.041336 82.663788 -0.59189469
84.954742 102.94849 0
91.554321 115.21511 1.6242119
66.748177 69.122856 -0.95843679
67.205681 69.975685 -0.9354623
67.89547 71.261513 -0.91274714
68.819763 72.984467 -0.84987807
70.442673 76.009727 -0.75953561
74.011406 82.66217 -0.5914591
84.89045 102.94168 0
91.595596 115.4407 1.6303076
66.786293 69.208992 -0.97392195
67.238693 70.054764 -0.94722837
67.872307 71.239319 -0.90936875
68.796791 72.967651 -0.84773862
70.423271 76.008369 -0.75895846
73.986397 82.66967 -0.59131414
84.823738 102.93018 0
91.624107 115.64354 1.635677
66.745094 69.146927 -0.96169668
67.184158 69.970146 -0.93338782
67.887474 71.288841 -0.91499871
68.800446 73.000618 -0.85030562
70.403893 76.007004 -0.75838244
73.971176 82.695488 -0.59174967
84.730141 102.86805 0
91.70108 115.93825 1.6439497
66.729591 69.132782 -0.95843679
67.200493 70.01828 -0.94030809
67.859581 71.257637 -0.91049558
68.777519 72.983749 -0.84816617
70.394234 76.023857 -0.75895846
73.911972 82.638687 -0.58957243
84.673386 102.87469 0
91.743225 116.16897 1.6501904
66.753487 69.192848 -0.96903056
67.176765 69.991112 -0.9354623
67.853188 71.266777 -0.91105795
68.771461 72.998581 -0.84902132
70.3797 76.03157 -0.75895846
73.899185 82.669022 -0.59015298
84.665413 102.97322 0
91.72155 116.2805 1.6526576
66.765694 69.231133 -0.97555029
67.209389 70.070351 -0.94722837
67.851532 71.284912 -0.91274714
68.758194 72.999802 -0.84859377
70.374832 76.057564 -0.76011163
73.881477 82.690163 -0.59044355
84.676689 103.1086 0
86.256531 106.09674 1.3298842
66.708664 69.138275 -0.95762265
67.152916 69.981018 -0.93269366
67.833244 71.271576 -0.91049558
68.752106 73.014633 -0.84945053
70.372314 76.088135 -0.76155281
73.856468 82.697495 -0.59029853
84.704659 103.27628 0
86.193527 106.10062 1.3291585
66.732353 69.198425 -0.96821642
67.157372 70.007042 -0.93615645
67.838638 71.303185 -0.91387182
68.734039 73.006737 -0.84816617
70.352898 76.086678 -0.76097679
73.829025 82.70018 -0.59000802
84.729828 103.43947 0
86.103958 106.0538 1.3268363
66.769669 69.284912 -0.98370153
67.205994 70.117493 -0.95276564
67.827454 71.303322 -0.91330951
68.723152 73.012451 -0.84816617
70.335884 76.089767 -0.76068878
73.799187 82.698235 -0.58957243
84.749817 103.59358 0
86.029007 106.03446 1.3253852
66.703751 69.174339 -0.96251088
67.16143 70.050232 -0.94169372
67.818626 71.307938 -0.91330951
68.724152 73.040894 -0.85030562
70.318878 76.092834 -0.76040071
73.781403 82.719284 -0.589863
84.735703 103.6832 0
85.956543 106.0196 1.3240792
66.667809 69.120621 -0.95191711
67.1912 70.125229 -0.95276564
67.823883 71.3396 -0.91668791
68.710854 73.042046 -0.84987807
70.311432 76.114212 -0.7612648
73.749176 82.712646 -0.58928245
84.711792 103.75439 0
85.881737 106 1.3226274
66.686691 69.172096 -0.96088248
67.167618 70.097923 -0.94792253
67.810326 71.33519 -0.91556102
68.714119 73.075058 -0.85244507
70.292023 76.112656 -0.76068878
73.719368 82.710571 -0.58884686
84.685333 103.82095 0
85.819 106.00336 1.3219019
66.735001 69.280685 -0.98044163
67.144089 70.070549 -0.94307673
67.808472 71.353325 -0.91725022
68.696075 73.067085 -0.85116237
70.286896 76.138626 -0.76184195
73.713486 82.754616 -0.589863
84.673096 103.91524 0
85.749107 105.99277 1.3207408
66.66964 69.169777 -0.95925099
67.113739 70.02977 -0.93615645
67.783264 71.326309 -0.91330951
68.680397 73.063622 -0.85030562
70.269844 76.141602 -0.76155281
73.688431 82.761719 -0.58971798
84.651123 103.99107 0
85.684052 105.99133 1.3198702
66.649818 69.146637 -0.95436275
67.108742 70.037987 -0.93684793
67.774406 71.330879 -0.91330951
68.685898 73.101227 -0.85330182
70.269379 76.176773 -0.76328313
73.658615 82.759552 -0.58928245
84.62899 104.06688 0
85.621399 105.9944 1.3191446
66.661659 69.18502 -0.96088248
67.131233 70.099762 -0.94584537
67.774826 71.353516 -0.91556102
68.677238 73.11145 -0.85372937
70.240486 76.156715 -0.76155281
73.619324 82.738838 -0.58826631
84.597206 104.12419 0
85.568268 106.01585 1.3189991
66.745468 69.364227 -0.993478
67.119293 70.09462 -0.94446236
67.752052 71.33094 -0.91218477
68.654533 73.094246 -0.85158992
70.225792 76.164246 -0.76155281
73.591949 82.741203 -0.58797634
84.562943 104.17686 0
85.508011 106.02338 1.3184185
66.633392 69.160614 -0.95517695
67.095955 70.067093 -0.93961656
67.75705 71.362617 -0.91556102
68.645866 73.104431 -0.85201746
70.220497 76.190193 -0.76270598
73.569298 82.752777 -0.58797634
84.521469 104.21558 0
85.457214 106.04934 1.3184185
66.66526 69.238686 -0.96903056
67.099998 70.093185 -0.94307673
67.745842 71.362625 -0.91499871
68.632538 73.105469 -0.85158992
70.205757 76.197701 -0.76270598
73.551338 82.77359 -0.58826631
84.47995 104.25426 0
85.404037 106.0706 1.3182735
66.654457 69.233093 -0.96740222
67.085823 70.083496 -0.94099957
67.748436 71.389801 -0.91781259
68.628494 73.124779 -0.85287261
70.191017 76.205193 -0.76270598
73.530991 82.789742 -0.58841133
84.438354 104.29291 0
85.364944 106.11961 1.3189991
66.661514 69.262756 -0.97229046
67.080742 70.091713 -0.94169372
67.73262 71.380722 -0.91612339
68.61747 73.130363 -0.85287261
70.180939 76.221909 -0.76328313
73.505943 82.796616 -0.58826631
84.410797 104.35938 0
85.318726 106.15468 1.3192897
66.646248 69.248306 -0.96903056
67.059822 70.068542 -0.93753946
67.737434 71.41246 -0.91950178
68.599503 73.1222 -0.85158992
70.161507 76.220116 -0.76270598
73.487907 82.817375 -0.58855689
84.35498 104.37006 0
85.284149 106.21288 1.3203052
66.662354 69.312134 -0.97962433
67.069878 70.125267 -0.94515389
67.70813 71.398758 -0.91668791
68.584335 73.147041 -0.85287261
70.141228 76.253471 -0.76385915
73.426102 82.807724 -0.58754075
84.28302 104.47032 0
85.221657 106.34317 1.3227725
66.633835 69.271141 -0.97147626
67.071442 70.146927 -0.94792253
67.690102 71.385048 -0.91443634
68.559517 73.125031 -0.85030562
70.137985 76.284035 -0.76530141
73.389435 82.791214 -0.58667022
84.255043 104.5367 0
85.182098 106.39203 1.3234986
66.669342 69.358368 -0.98695827
67.055061 70.132668 -0.94515389
67.706093 71.439522 -0.92062646
68.566803 73.167297 -0.85372937
70.116211 76.277542 -0.7644363
73.375992 82.821152 -0.58725077
84.208366 104.5658 0
85.16098 106.47807 1.3253852
66.618896 69.273064 -0.97066206
67.0298 70.100403 -0.93961656
67.688057 71.425789 -0.9183749
68.537453 73.136024 -0.85030562
70.103676 76.289551 -0.76472431
73.348618 82.823151 -0.5869602
84.138496 104.54823 0
85.105011 106.49429 1.3250947
66.608131 69.267357 -0.96903056
67.08699 70.234451 -0.9596886
67.681335 71.434792 -0.91893727
68.54464 73.178307 -0.85372937
70.093414 76.306198 -0.76530141
73.318947 82.820457 -0.58652467
84.080254 104.55388 0
92.257339 121.06824 1.778487
66.589622 69.237923 -0.96332818
67.018738 70.105881 -0.93961656
67.681351 71.446136 -0.92006409
68.545921 73.194862 -0.85501367
70.085976 76.309883 -0.76530141
73.302971 82.816772 -0.58623463
84.060356 104.57533 0
92.268921 121.17848 1.7813897
66.581093 69.236603 -0.96251088
67.044624 70.177025 -0.94999701
67.661118 71.427788 -0.91725022
68.525726 73.181931 -0.85330182
70.077957 76.331131 -0.76616549
73.294006 82.855957 -0.58710521
84.036629 104.6509 0
98.474205 133.94228 2.1777451
66.60965 69.310699 -0.97555029
67.028305 70.162682 -0.94722837
67.67231 71.473251 -0.92231566
68.510094 73.178162 -0.85244507
70.063049 76.338463 -0.76616549
73.257469 82.839203 -0.58623463
84.005859 104.71245 0
98.385078 133.97455 2.1774547
66.570618 69.247276 -0.96332818
67.038513 70.202385 -0.95276564
67.638687 71.427483 -0.91612339
68.517075 73.22049 -0.85586876
70.052696 76.35508 -0.76674265
73.232422 82.845711 -0.58608967
84.000153 104.82539 0
98.300507 134.01604 2.1774547
66.58596 69.294792 -0.97147626
67.013405 70.169983 -0.94722837
67.625252 71.422745 -0.91499871
68.510437 73.235176 -0.85672551
70.037758 76.362389 -0.76674265
73.200516 82.838173 -0.58550906
84.046745 105.04596 0
98.206757 134.03876 2.1768742
66.590378 69.320129 -0.97555029
66.994965 70.15107 -0.9437682
67.660774 71.518501 -0.92625636
68.494774 73.231384 -0.85586876
70.027344 76.378967 -0.76731867
73.186844 82.867966 -0.58608967
84.060928 105.20118 0
98.119827 134.07538 2.176729
66.555893 69.26545 -0.96495652
66.99411 70.168228 -0.94584537
67.618393 71.454338 -0.91781259
68.481377 73.232193 -0.85544121
70.019157 76.400208 -0.76818383
73.175385 82.90242 -0.58681518
84.070229 105.34712 0
99.548737 137.23476 2.2735322
66.558136 69.286331 -0.96821642
66.99102 70.180862 -0.94722837
67.602745 71.444977 -0.91612339
68.465744 73.228348 -0.85458446
70.001923 76.402817 -0.76789576
73.13443 82.876076 -0.58565408
84.040657 105.41351 0
99.457962 137.27298 2.2733872
66.528122 69.24044 -0.95925099
67.009712 70.238708 -0.95553434
67.595963 71.453918 -0.91668791
68.461281 73.247612 -0.85586876
69.989174 76.414719 -0.76818383
73.129684 82.924545 -0.58681518
83.986084 105.42833 0
99.378433 137.3345 2.2739677
66.519646 69.239037 -0.95843679
66.965202 70.165474 -0.9437682
67.57373 71.430771 -0.91330951
68.456787 73.266884 -0.85715312
69.971931 76.417282 -0.76789576
73.084282 82.888718 -0.58536351
84.707504 107.05659 0
99.289795 137.3772 2.2739677
66.509048 69.233177 -0.95680845
66.990288 70.236923 -0.95415133
67.588921 71.485497 -0.91950178
68.438927 73.258369 -0.85586876
69.954681 76.419815 -0.76760668
73.061447 82.899681 -0.58536351
84.680206 107.13319 0
99.187622 137.39166 2.2730966
66.556007 69.347694 -0.97718179
66.987076 70.249573 -0.95553434
67.590828 71.512741 -0.92231566
68.427734 73.263725 -0.85586876
69.953056 76.455017 -0.769337
73.043091 82.919998 -0.58565408
84.699898 107.30843 0
99.089951 137.41536 2.272516
66.53891 69.328453 -0.9731046
66.960098 70.212418 -0.94930553
67.566444 71.484962 -0.9183749
68.423164 73.282974 -0.85715312
69.938004 76.462196 -0.769337
73.026932 82.944992 -0.58608967
84.721436 107.48846 0
99.016869 137.49055 2.2735322
66.48793 69.237755 -0.95599115
66.956902 70.22506 -0.95069116
67.574837 71.525986 -0.92287797
68.409744 73.283684 -0.85672551
69.918495 76.460007 -0.76875985
73.01741 82.984039 -0.5869602
84.722466 107.62629 0
98.910202 137.49525 2.2723711
66.530258 69.343521 -0.97473609
66.940788 70.210495 -0.94792253
67.533127 71.461418 -0.91443634
68.40731 73.307564 -0.85843742
69.91008 76.481186 -0.76962501
72.976669 82.957352 -0.5857991
84.714287 107.74538 0
98.808029 137.50919 2.2714999
66.52169 69.34211 -0.97392195
66.976112 70.304771 -0.96176308
67.539291 71.497841 -0.9183749
68.391678 73.303589 -0.85758066
69.897202 76.492989 -0.76991302
72.955978 82.972878 -0.58594412
84.69474 107.84099 0
98.703659 137.51831 2.2704844
66.529961 69.37645 -0.97962433
66.959946 70.290199 -0.95899445
67.525902 71.49292 -0.91725022
68.380432 73.308884 -0.85758066
69.875504 76.486076 -0.76904893
72.941895 83.002495 -0.58652467
84.668343 107.92245 0
98.603737 137.53668 2.2697589
66.456299 69.236305 -0.95354861
66.965134 70.321037 -0.96314877
67.53627 71.538582 -0.92231566
68.364822 73.304886 -0.85672551
69.866997 76.507202 -0.76991302
72.916725 83.008583 -0.58637965
84.643997 108.00867 0
98.50824 137.56433 2.2693233
66.51487 69.378067 -0.97881019
66.955368 70.320076 -0.96245724
67.514236 71.515221 -0.91893727
68.364449 73.333405 -0.85886496
69.858452 76.528343 -0.77077818
72.898155 83.02877 -0.58667022
84.60183 108.05716 0
98.408318 137.58243 2.2685978
66.481224 69.322868 -0.96821642
66.926529 70.278152 -0.95553434
67.507309 71.524078 -0.91950178
68.34449 73.320053 -0.85715312
69.841125 76.530731 -0.77049017
72.886131 83.063049 -0.58739579
84.550774 108.08673 0
98.321579 137.62866 2.2687428
66.470627 69.316902 -0.96658802
66.906258 70.254395 -0.9513827
67.513199 71.560555 -0.92344034
68.341881 73.343925 -0.85886496
69.834702 76.556541 -0.77164334
72.854332 83.054924 -0.58681518
84.523811 108.16817 0
98.215065 137.63239 2.2675817
66.45797 69.306427 -0.96414232
66.94931 70.367172 -0.96799457
67.499786 71.55558 -0.92231566
68.32843 73.344505 -0.85843742
69.817352 76.558899 -0.77135527
72.83786 83.079758 -0.58725077
84.516365 108.29211 0
98.112968 137.64539 2.266711
66.453621 69.313873 -0.96495652
66.886925 70.252281 -0.94999701
67.494911 71.569023 -0.92344034
68.317139 73.349731 -0.85843742
69.802177 76.565918 -0.77135527
72.808258 83.076263 -0.58681518
84.482468 108.35941 0
98.019592 137.67709 2.2664206
66.430664 69.280914 -0.95843679
66.883568 70.264893 -0.9513827
67.494263 71.591705 -0.9256919
68.30368 73.350266 -0.85800821
69.786987 76.572914 -0.77135527
72.802582 83.124664 -0.58797634
84.448441 108.42667 0
97.928375 137.71344 2.2662754
66.465508 69.373703 -0.97473609
66.863434 70.240997 -0.94722837
67.474495 71.572838 -0.92287797
68.303093 73.378799 -0.86014926
69.780411 76.598686 -0.77250737
72.783798 83.144722 -0.58826631
84.362183 108.38037 0
97.824112 137.72131 2.2652595
66.456963 69.372185 -0.97392195
66.872589 70.280952 -0.95276564
67.459 71.563156 -0.92118877
68.293892 73.388657 -0.86057681
69.765182 76.605667 -0.77250737
72.760658 83.155319 -0.58826631
84.252258 108.28189 0
97.739334 137.77158 2.2655499
66.446365 69.36615 -0.97229046
66.871239 70.298126 -0.95484281
67.464615 71.599709 -0.92512953
68.284668 73.398506 -0.86100441
69.749947 76.612625 -0.77250737
72.728882 83.14698 -0.58768576
84.092957 108.07428 0
97.658798 137.83121 2.2661304
66.414459 69.304642 -0.96088248
66.844566 70.249619 -0.94722837
67.455818 71.592552 -0.92400485
68.270485 73.382401 -0.85929251
69.74662 76.625519 -0.77308452
72.734543 83.190086 -0.58884686
84.081406 108.11956 0
97.63356 137.8941 2.2674367
66.383537 69.25354 -0.95110291
66.849457 70.280472 -0.9513827
67.459236 71.624481 -0.92738104
68.267632 73.406258 -0.86100441
69.73777 76.646591 -0.77394962
72.724236 83.229034 -0.58971798
84.030243 108.14854 0
97.398247 137.61288 2.2575676
66.405701 69.319466 -0.96251088
66.881142 70.370766 -0.96453178
67.433266 71.591614 -0.92287797
68.252029 73.402061 -0.86014926
69.726746 76.662933 -0.7745257
72.709557 83.258499 -0.59029853
84.009048 108.24384 0
97.433472 137.92783 2.2659855
66.393181 69.308861 -0.96006829
66.834274 70.287346 -0.9513827
67.442886 71.637451 -0.92794341
68.244888 73.416542 -0.86100441
69.715698 76.679283 -0.77510279
72.69696 83.292694 -0.5910241
83.968414 108.29646 0
97.566223 138.46085 2.2810788
66.380684 69.298218 -0.95762265
66.826675 70.290764 -0.9513827
67.425323 71.623062 -0.9256919
68.246124 73.449753 -0.86357135
69.698242 76.68145 -0.77481371
72.684288 83.326889 -0.59174967
83.95327 108.40601 0
97.812744 139.25029 2.3040094
66.388428 69.332672 -0.96332818
66.837524 70.335381 -0.95761144
67.401573 71.594742 -0.92175329
68.234703 73.45488 -0.86357135
69.685036 76.693054 -0.77510279
72.671547 83.361076 -0.59247524
83.922997 108.48233 0
97.791901 139.4476 2.308799
66.418251 69.416794 -0.97799599
66.809418 70.292999 -0.95069116
67.39447 71.603485 -0.92231566
68.214905 73.441238 -0.8618595
69.665474 76.69046 -0.7745257
72.641792 83.3573 -0.59203964
83.879852 108.53014 0
97.724014 139.54059 2.3103957
66.387589 69.365517 -0.96821642
66.791611 70.273453 -0.94722837
67.389404 71.616859 -0.92344034
68.203491 73.44632 -0.8618595
69.65435 76.706757 -0.77510279
72.631073 83.396225 -0.59291077
83.895851 108.71104 0
97.647507 139.61452 2.3114119
66.373085 69.350327 -0.96495652
66.802338 70.318115 -0.9534598
67.388443 71.639526 -0.9256919
68.20665 73.484253 -0.86485571
69.651573 76.741943 -0.77683204
72.599205 83.387634 -0.59233022
83.894569 108.85399 0
112.2817 172.85519 3.3257389
66.364624 69.348671 -0.96414232
66.79673 70.32608 -0.95415133
67.375099 71.634331 -0.92456716
68.180656 73.456451 -0.8618595
69.62989 76.734566 -0.77596688
72.588379 83.426521 -0.5932008
85.115692 111.76274 0
114.74515 178.78325 3.504977
66.384071 69.410324 -0.97473609
66.793129 70.338631 -0.95553434
67.369972 71.647697 -0.9256919
68.185791 73.499084 -0.86528325
69.620758 76.755569 -0.77683204
72.564896 83.43689 -0.5932008
85.043266 111.75488 0
114.60222 178.83496 3.5046864
66.379517 69.417725 -0.97555029
66.777397 70.323624 -0.95276564
67.381165 71.698296 -0.9313218
68.163986 73.480637 -0.8631438
69.609505 76.771812 -0.77740806
72.549767 83.466255 -0.59378135
84.979263 111.76597 0
114.42164 178.80087 3.5017841
66.382881 69.44323 -0.97962433
66.749634 70.281021 -0.94584537
67.357597 71.669785 -0.92738104
68.156647 73.495071 -0.86400056
69.587845 76.764374 -0.77654403
72.540825 83.509903 -0.59479743
84.92363 111.79607 0
114.30373 178.90932 3.5032353
66.362465 69.414406 -0.97392195
66.758095 70.321129 -0.9513827
67.348328 71.673836 -0.92738104
68.149277 73.509491 -0.86485571
69.578621 76.785332 -0.77740806
72.525558 83.539261 -0.59537804
84.845047 111.77359 0
96.7285 139.00864 2.2855778
66.350006 69.403656 -0.97147626
66.768463 70.365868 -0.95761144
67.341072 71.682533 -0.92794341
68.137779 73.514496 -0.86485571
69.569359 76.806297 -0.77827322
72.493652 83.530487 -0.59479743
84.778999 111.77966 0
96.619194 139.00525 2.2842717
66.33168 69.379288 -0.96658802
66.754784 70.355392 -0.95553434
67.339874 71.705215 -0.93019497
68.120155 73.505356 -0.86357135
69.551826 76.808273 -0.77798522
72.482445 83.569336 -0.59566802
83.785645 109.64624 0
96.530617 139.04938 2.2844172
66.319298 69.368477 -0.96414232
66.74511 70.354111 -0.95484281
67.328545 71.704582 -0.9296326
68.120888 73.538612 -0.86614001
69.536346 76.814972 -0.77798522
72.450546 83.560486 -0.59508747
83.806847 109.84689 0
96.439911 139.08864 2.2844172
66.297173 69.334961 -0.95762265
66.783066 70.463409 -0.97076052
67.32325 71.717926 -0.93075728
68.10936 73.543587 -0.86614001
69.522903 76.826401 -0.77827322
72.441299 83.604095 -0.59610355
83.823479 110.0381 0
96.369705 139.17551 2.2858684
66.349205 69.473999 -0.98207003
66.7258 70.351517 -0.9534598
67.301903 71.693924 -0.92738104
68.097824 73.548546 -0.86614001
69.511482 76.842583 -0.77885032
72.429901 83.642929 -0.59697413
83.773994 110.07639 0
88.464424 121.00579 1.7324802
66.317314 69.417755 -0.97147626
66.722061 70.364021 -0.95484281
67.300598 71.716599 -0.9296326
68.080223 73.539322 -0.86485571
69.495964 76.849228 -0.77885032
72.39798 83.633987 -0.59639359
83.798134 110.28687 0
88.401657 121.04965 1.7329156
66.303017 69.402359 -0.96821642
66.694695 70.321159 -0.94792253
67.293259 71.72525 -0.93019497
68.070709 73.548965 -0.86528325
69.476372 76.846336 -0.77827322
72.394638 83.691933 -0.59784526
83.709534 110.23415 0
88.330673 121.07431 1.7327707
66.292625 69.396049 -0.96658802
66.69883 70.352112 -0.95207417
67.275978 71.710518 -0.92794341
68.049126 73.530258 -0.8631438
69.46489 76.862473 -0.77885032
72.362709 83.68293 -0.59726471
83.714714 110.40165 0
88.265755 121.11323 1.7330607
66.31308 69.462532 -0.97799599
66.693108 70.359978 -0.95276564
67.260719 71.700447 -0.92625636
68.049629 73.563515 -0.86571246
69.459427 76.892883 -0.78029156
72.351074 83.721725 -0.59813523
83.721542 110.57401 0
90.328407 126.17664 1.8857396
66.285339 69.415222 -0.96903056
66.675667 70.340118 -0.94930553
67.255356 71.713737 -0.92738104
68.042053 73.57785 -0.86656755
69.445854 76.904236 -0.78057957
72.325218 83.72702 -0.59799027
83.653114 110.56904 0
90.243156 126.18447 1.8850141
66.269211 69.395203 -0.96495652
66.683563 70.380348 -0.95484281
67.236183 71.694244 -0.92456716
68.030479 73.582733 -0.86656755
69.432266 76.915565 -0.78086758
72.311447 83.761009 -0.59871578
83.564545 110.51599 0
90.163971 126.20654 1.8847235
66.281799 69.44352 -0.9731046
66.660332 70.346565 -0.94930553
67.250458 71.754387 -0.9313218
68.012939 73.573387 -0.86528325
69.412659 76.91259 -0.78029156
72.295601 83.790207 -0.59929639
83.526428 110.58279 0
90.106865 126.28125 1.8860296
66.284752 69.469093 -0.97718179
66.662331 70.372925 -0.95276564
67.241089 71.758316 -0.9313218
68.007309 73.592445 -0.86656755
69.397057 76.919121 -0.78029156
72.273682 83.805008 -0.59944135
83.478157 110.62556 0
90.04361 126.34152 1.8869008
66.253441 69.412529 -0.96658802
66.644989 70.352982 -0.94930553
67.227806 71.752831 -0.93019497
67.99572 73.597275 -0.86656755
69.385414 76.935173 -0.78086758
72.255737 83.829391 -0.59987694
83.495827 110.82685 0
89.958282 126.34897 1.8861752
66.258263 69.442635 -0.97147626
66.66423 70.421043 -0.95899445
67.21843 71.756729 -0.93019497
67.984116 73.602097 -0.86656755
69.371765 76.946465 -0.78115666
72.223808 83.820152 -0.59929639
83.457184 110.89363 0
101.18306 153.61469 2.7096539
66.244133 69.427086 -0.96821642
66.643051 70.391815 -0.95415133
67.210999 71.765297 -0.93075728
67.970551 73.602165 -0.86614001
69.362045 76.96727 -0.78202075
72.215744 83.868492 -0.60045749
83.394531 110.90268 0
101.15021 153.84203 2.715169
66.240852 69.428436 -0.96821642
66.644936 70.407326 -0.95622849
67.214066 71.786026 -0.93300885
67.980423 73.642532 -0.86956376
69.348289 76.956177 -0.78115666
72.203735 83.873459 -0.60045749
83.336403 110.84221 0
101.06023 153.77798 2.7125561
66.222099 69.420113 -0.96577072
66.612312 70.371902 -0.94999701
67.189461 71.779678 -0.9313218
67.943474 73.618866 -0.86656755
69.322845 76.983406 -0.78202075
72.163574 83.912453 -0.60103804
83.262634 110.98512 0
101.11323 154.52602 2.7324395
66.243591 69.49144 -0.97799599
66.634972 70.449371 -0.96107161
67.187744 71.802345 -0.93357337
67.929909 73.618874 -0.86614001
69.301292 76.975479 -0.78115666
72.147369 83.941551 -0.60161859
83.217667 111.03728 0
101.06474 154.71991 2.7369385
66.208992 69.425468 -0.96577072
66.630966 70.461853 -0.96245724
67.178314 71.80619 -0.93357337
67.926025 73.642632 -0.86785185
69.283653 76.977074 -0.78086758
72.117386 83.936935 -0.60118306
83.192215 111.13759 0
101.01977 154.92346 2.7417278
66.2043 69.432724 -0.96658802
66.623154 70.465027 -0.96245724
67.15741 71.781761 -0.93019497
67.914375 73.647369 -0.86785185
69.275749 77.002617 -0.78202075
72.106964 83.980438 -0.60219914
64 64 0
64 64 0
66.216263 69.481201 -0.97473609
66.615341 70.468193 -0.96245724
67.144203 71.776161 -0.92907023
67.908485 73.666359 -0.86913455
69.254227 76.994614 -0.78115666
72.086708 83.999847 -0.60248917
83.023621 111.04874 0
99.761658 152.44482 2.6643727
66.202248 69.465538 -0.97147626
66.590645 70.429466 -0.95622849
67.134804 71.779953 -0.92907023
67.88913 73.652046 -0.86742431
69.244308 77.015327 -0.78202075
72.064484 84.014442 -0.60263473
64 64 0
64 64 0
66.193802 69.463608 -0.97066206
66.584747 70.437248 -0.95691997
67.125397 71.783737 -0.92907023
67.888939 73.685318 -0.8699913
69.230515 77.026474 -0.78230983
72.046104 84.03862 -0.60306972
82.801254 110.82408 0
64 64 0
66.194542 69.484619 -0.97392195
66.58255 70.45433 -0.95899445
67.125427 71.811089 -0.93188417
67.875328 73.685242 -0.86956376
69.22245 77.051971 -0.78346193
72.025749 84.057991 -0.6033603
82.920616 111.28651 0
64 64 0
66.213547 69.551537 -0.98532987
66.567322 70.43882 -0.95622849
67.12352 71.83374 -0.93413568
67.865524 73.694687 -0.8699913
69.195183 77.029457 -0.78173274
72.001503 84.067673 -0.6033603
82.886597 111.36736 0
64 64 0
66.186752 69.50367 -0.97636449
66.576218 70.483879 -0.96245724
67.108421 71.823341 -0.93244648
67.853806 73.699348 -0.8699913
69.194717 77.074181 -0.78403908
71.992607 84.115967 -0.60452139
82.681374 111.0177 0
64 64 0
66.163727 69.464951 -0.96903056
66.588692 70.538292 -0.97006905
67.102707 71.836548 -0.93357337
67.843971 73.708763 -0.87041885
69.165581 77.046776 -0.78202075
71.954895 84.091782 -0.60350525
64 64 0
64 64 0
66.160751 69.476768 -0.97066206
66.549484 70.462074 -0.95830297
67.089508 71.830826 -0.93244648
67.834122 73.718178 -0.87084639
69.161209 77.081886 -0.78375101
71.945877 84.140053 -0.60466641
82.670837 111.32413 0
64 64 0
66.174026 69.529968 -0.97962433
66.541679 70.465149 -0.95830297
67.074463 71.820366 -0.93075728
67.816742 73.708481 -0.86956376
69.15107 77.102547 -0.7846151
71.919632 84.144806 -0.60452139
64 64 0
64 64 0
66.149315 69.486572 -0.97147626
66.532036 70.463547 -0.95761144
67.077988 71.857201 -0.93469805
67.818115 73.746536 -0.8725583
69.129578 77.094322 -0.78375101
71.910454 84.193069 -0.60568249
64 64 0
64 64 0
66.153465 69.516785 -0.97636449
66.53334 70.489967 -0.96107161
67.057404 71.83252 -0.9313218
67.797005 73.727234 -0.87041885
69.125038 77.129417 -0.78548026
71.876595 84.178391 -0.60495639
64 64 0
64 64 0
66.166512 69.570061 -0.98532987
66.514587 70.464973 -0.95691997
67.05162 71.845673 -0.93244648
67.792694 73.750954 -0.87213069
69.109169 77.135597 -0.78548026
71.865395 84.221802 -0.60597253
64 64 0
99.654846 155.66808 2.7469523
66.138344 69.517365 -0.97555029
66.526718 70.519455 -0.96453178
67.045815 71.858841 -0.93357337
67.777199 73.745964 -0.8712756
69.089561 77.132126 -0.78490418
71.839073 84.226456 -0.60582751
64 64 0
99.540314 155.70142 2.7466624
66.140572 69.542999 -0.97962433
66.502571 70.480385 -0.95830297
67.034477 71.857758 -0.93300885
67.770966 73.764877 -0.8725583
69.073685 77.138268 -0.78490418
71.822121 84.255302 -0.60640806
64 64 0
64 64 0
66.128555 69.531754 -0.97718179
66.494736 70.483406 -0.95830297
67.023163 71.856682 -0.93244648
67.755478 73.75985 -0.87170315
69.065239 77.163696 -0.78605735
71.806969 84.288986 -0.60713363
64 64 0
64 64 0
66.132484 69.562004 -0.98207003
66.477921 70.46299 -0.95484281
67.022758 71.884048 -0.93526036
67.743683 73.764381 -0.87170315
69.043777 77.155312 -0.78519225
71.786163 84.308098 -0.6074236
64 64 0
64 64 0
66.148697 69.624603 -0.9926638
66.486229 70.508163 -0.96107161
67.011421 71.88295 -0.93469805
67.73188 73.768898 -0.87170315
69.031563 77.171051 -0.78576827
71.765335 84.327209 -0.60771418
82.264694 111.81123 0
64 64 0
66.117279 69.562531 -0.98125583
66.474792 70.501793 -0.9596886
66.998283 71.877098 -0.93357337
67.729202 73.797386 -0.8738426
69.023003 77.196465 -0.78692144
71.751854 84.365707 -0.60858476
64 64 0
64 64 0
66.100037 69.537338 -0.97636449
66.454483 70.471931 -0.95484281
66.985153 71.871201 -0.93244648
67.71373 73.79229 -0.87298745
69.012558 77.217041 -0.7877866
71.721718 84.360504 -0.60814971
64 64 0
64 64 0
66.089851 69.530632 -0.97473609
66.475037 70.549988 -0.96591741
66.982826 71.893814 -0.93469805
67.701889 73.796776 -0.87298745
68.994759 77.218246 -0.78749853
71.70446 84.389259 -0.60873032
64 64 0
64 64 0
66.072723 69.505409 -0.96984792
66.435303 70.46846 -0.9534598
66.971497 71.892662 -0.93413568
67.700905 73.830055 -0.87555444
68.976967 77.219437 -0.78721052
71.690804 84.427727 -0.60960084
64 64 0
64 64 0
66.074745 69.531044 -0.97392195
66.459198 70.555954 -0.96591741
66.972664 71.924789 -0.93751192
67.687218 73.82972 -0.8751269
68.971886 77.254494 -0.78893977
71.667938 84.441864 -0.60974586
64 64 0
64 64 0
66.095741 69.60762 -0.98695827
66.437225 70.521317 -0.96038014
66.955971 71.909332 -0.93526036
67.675339 73.834167 -0.8751269
68.955864 77.26049 -0.78893977
71.637772 84.436508 -0.60931027
64 64 0
64 64 0
66.051025 69.50824 -0.96903056
66.436348 70.543068 -0.96314877
66.944641 71.908142 -0.93469805
67.665245 73.843407 -0.87555444
68.939842 77.266472 -0.78893977
71.614891 84.450607 -0.60945582
81.857834 111.95914 0
64 64 0
66.066711 69.570961 -0.97962433
66.423203 70.531891 -0.96107161
66.940384 71.925987 -0.93638724
67.660492 73.867088 -0.87726635
68.9328 77.296677 -0.79038095
71.597404 84.479279 -0.61003643
81.894005 112.23442 0
64 64 0
66.068497 69.586121 -0.98207003
66.414024 70.519234 -0.95899445
66.93383 71.923004 -0.93582487
67.65097 73.859673 -0.8764112
68.921181 77.289963 -0.78980488
