# .PCD v0.7 - Point Cloud Data file format
VERSION 0.7
FIELDS x y z
SIZE 4 4 4
TYPE F F F
COUNT 1 1 1
WIDTH 1918
HEIGHT 1
VIEWPOINT 0 0 0 1 0 0 0
POINTS 1918
DATA ascii
105.22798 104.83137 0
110.01433 109.57167 1.8086743
105.32268 105.02417 0
109.9076 109.57598 1.8066427
105.40588 105.20624 0
109.90407 109.68273 1.8086743
105.4924 105.39225 0
109.79366 109.68312 1.8064977
105.64478 105.64478 0
109.74944 109.74944 1.8069327
105.75248 105.8535 0
109.6978 109.80836 1.8070782
105.81937 106.02198 0
109.59843 109.81935 1.8053365
105.87123 106.17589 0
109.55035 109.88178 1.8056265
106.04732 106.45573 0
109.44734 109.88879 1.8037399
106.09474 106.60648 0
109.38091 109.93259 1.8033048
106.24417 106.86119 0
109.32538 109.98739 1.8033048
106.30548 107.02726 0
109.23697 110.00876 1.8019981
106.40654 107.23441 0
109.19227 110.07452 1.8024337
106.44162 107.37489 0
109.07478 110.06595 1.7999665
106.53824 107.57884 0
108.99731 110.09808 1.799096
95.359978 96.204895 0
108.9597 110.17102 1.7998215
95.313797 96.235298 0
108.91475 110.2365 1.8002571
95.253082 96.250679 0
108.87692 110.30939 1.8009826
95.199615 96.273453 0
108.84984 110.39348 1.8021437
95.15699 96.307381 0
108.90917 110.56732 1.8067876
107.36507 109.07509 0
109.04742 110.82378 1.8146249
107.52101 109.4016 0
109.34367 111.30301 1.8300089
107.64238 109.63846 0
109.40141 111.47795 1.8346533
107.79557 109.90959 0
109.45162 111.64558 1.8390073
107.93741 110.16985 0
109.43342 111.74187 1.8406034
108.08226 110.43428 0
114.1808 116.85821 2.0355158
108.11559 110.58199 0
113.97038 116.7641 2.0295651
108.30949 110.90009 0
113.82452 116.73756 2.0262275
108.43484 111.14677 0
113.62888 116.65781 2.0208573
108.56679 111.40138 0
111.3974 114.41204 1.932472
108.77296 111.73613 0
111.36845 114.50339 1.9337782
108.84682 111.9308 0
111.28253 114.53401 1.932762
108.79598 111.99258 0
111.23918 114.61012 1.9334881
108.7486 112.0581 0
111.30193 114.80026 1.9385676
108.61612 112.03205 0
111.52345 115.16199 1.9501781
108.54034 112.06683 0
111.50751 115.26892 1.9520649
108.45751 112.09386 0
111.36087 115.2347 1.9485815
64 64 -0
108.41701 112.16667 0
111.41167 115.41414 1.953226
64 64 -0
108.30945 112.16669 0
111.14193 115.24574 1.9446632
64 64 -0
108.24417 112.21252 0
110.99564 115.21077 1.9411799
64 64 -0
108.16831 112.24675 0
110.87758 115.20619 1.9388576
108.09945 112.28854 0
110.84021 115.28966 1.9398737
108.02705 112.32641 0
107.44647 111.68914 1.8017082
107.95462 112.36417 0
107.35736 111.70699 1.800402
64 64 -0
107.90091 112.36374 0
107.2971 111.69855 1.799096
64 64 -0
107.8145 112.38589 0
107.1348 111.63527 1.794742
64 64 -0
107.77344 112.4581 0
106.96573 111.56395 1.7900976
107.69046 112.48389 0
106.81778 111.51546 1.7863243
107.61445 112.51729 0
106.75338 111.55943 1.7860336
107.54536 112.55833 0
106.66812 111.58009 1.7848725
107.45891 112.5799 0
106.67297 111.70134 1.7874854
107.40018 112.63237 0
106.67413 111.81879 1.7899525
107.31715 112.65755 0
106.69924 111.96346 1.7934353
107.24796 112.69818 0
106.66886 112.0461 1.7945964
107.16493 112.72314 0
106.57977 112.06262 1.7932904
107.10603 112.77526 0
106.48036 112.06731 1.7915487
107.04018 112.81949 0
106.47037 112.17318 1.7935809
106.96397 112.85193 0
106.52538 112.35323 1.7983699
106.93923 112.94292 0
106.59373 112.54911 1.8037399
116.60466 124.10609 0
106.69932 112.78825 1.8107065
116.63469 124.28723 0
106.77021 112.98857 1.8162216
116.58232 124.37435 0
106.81337 113.15778 1.8205755
107.34052 113.8846 0
106.78121 113.24085 1.8217366
107.36543 114.03526 0
106.65701 113.21789 1.8189788
107.28111 114.06007 0
106.53973 113.20256 1.8165115
107.26818 114.16751 0
106.29358 113.03749 1.8085293
107.2245 114.23947 0
106.09872 112.931 1.8027242
107.26207 114.4062 0
105.96851 112.89902 1.7996765
103.12901 109.70224 0
105.81813 112.84311 1.7957577
103.04388 109.65863 0
105.7886 112.86836 1.7957577
64 64 -0
103.02921 109.75328 0
105.7093 112.8951 1.7948871
102.99077 109.82024 0
105.62997 112.92171 1.7940159
102.92527 109.85541 0
105.52039 112.91255 1.7918392
102.88329 109.91829 0
106.66685 114.38641 1.8439417
64 64 -0
107.01599 114.92336 0
106.63277 114.46969 1.8451028
102.66823 109.88873 0
106.51483 114.45361 1.8426355
102.6362 109.96332 0
64 64 0
102.64752 110.08974 0
105.69826 113.72794 1.8124477
102.73874 110.31205 0
105.53812 113.65871 1.8080938
102.96619 110.6985 0
110.2291 119.40264 2.0151973
102.95635 110.80157 0
110.13219 119.42252 2.0138912
102.86319 110.80455 0
110.07515 119.4902 2.0143261
114.59608 125.08498 0
105.05233 113.56274 1.7973542
102.40519 110.48105 0
108.76917 118.18324 1.9629499
102.29936 110.58177 0
108.48628 118.10663 1.9562738
102.30246 110.70045 0
108.34506 118.06792 1.9529355
64 64 -0
102.18998 110.67821 0
108.19743 118.0209 1.9493071
64 64 -0
102.04141 110.61143 0
108.05 117.97363 1.9456793
101.77805 110.40308 0
103.79831 112.88458 1.7604908
101.6596 110.37192 0
103.72284 112.91248 1.7597653
101.44955 110.22731 0
103.65388 112.94832 1.7593297
101.30207 110.15918 0
103.56532 112.95982 1.7580236
101.09602 110.01784 0
103.42786 112.91049 1.7545402
101.06168 110.03212 0
103.3266 112.84525 1.7513474
100.94737 110.00383 0
103.26431 112.88869 1.7512025
100.82992 109.97125 0
103.20845 112.94014 1.7513474
100.93032 110.21089 0
103.30177 113.17828 1.7581686
101.40004 110.91478 0
109.61734 121.2226 2.043788
101.25587 110.84995 0
109.27 120.92789 2.0313067
101.10542 110.77669 0
109.12045 120.88076 2.0276785
100.96814 110.71944 0
109.00977 120.88226 2.0257919
100.80846 110.63334 0
108.92169 120.91214 2.0249212
100.71024 110.62462 0
105.01772 116.09543 1.8517789
100.62173 110.62802 0
104.95795 116.14903 1.8519239
102.27621 112.85597 0
104.8949 116.19849 1.8519239
102.20113 112.88168 0
104.803 116.21101 1.8506178
102.12283 112.90317 0
104.70793 116.21928 1.8491662
100.29369 110.67299 0
110.41234 123.68538 2.1115649
100.18623 110.651 0
104.44147 116.13684 1.8427806
100.13303 110.69882 0
104.31802 116.10757 1.8400228
100.10202 110.77541 0
103.1882 114.774 1.7912587
100.05817 110.83549 0
103.19022 114.90368 1.7941614
100.00789 110.88728 0
103.05588 114.85619 1.7908231
99.887909 110.84811 0
102.94701 114.84148 1.7886465
101.19961 112.68215 0
102.82874 114.81416 1.7860336
101.38055 113.04166 0
102.69172 114.76186 1.7825509
101.50396 113.32709 0
102.56116 114.71756 1.7793576
100.17371 111.69699 0
102.2612 114.44945 1.7683281
100.10977 111.73235 0
101.82711 114.00246 1.7510569
100.06461 111.79257 0
101.89813 114.22234 1.7571524
102.93022 115.65494 0
101.79272 114.14565 1.7536696
102.83963 115.6645 0
103.61819 116.70013 1.8413289
102.73346 115.65308 0
103.56073 116.75629 1.8416195
102.65854 115.68317 0
103.48139 116.78326 1.8408939
102.5525 115.67145 0
103.37407 116.7726 1.8388617
102.4776 115.70129 0
103.31028 116.82014 1.8388617
102.38409 115.70596 0
103.24643 116.8676 1.8388617
102.34016 115.7774 0
103.24746 117.00269 1.8419094
102.37344 115.95348 0
103.23279 117.11695 1.8442317
102.51746 116.28055 0
103.26105 117.28983 1.8485856
102.51591 116.41093 0
101.26715 114.71168 1.757588
102.48333 116.49942 0
101.27344 114.84888 1.7607808
102.39836 116.51646 0
101.25185 114.94841 1.7626674
107.03335 123.00513 0
101.1382 114.922 1.7602003
106.95284 123.04446 0
102.64491 117.12264 1.8346533
64 64 -0
100.79247 114.70489 0
102.55017 117.12723 1.8332016
64 64 -0
100.71897 114.73244 0
102.48595 117.17377 1.8332016
100.66983 114.79366 0
64 64 0
100.57498 114.79147 0
101.49492 116.06898 1.7919842
106.71983 123.4762 0
101.36832 116.02561 1.7889365
106.60246 123.46432 0
102.87617 118.26318 1.8642601
106.51848 123.49881 0
102.93446 118.48347 1.8702106
110.62457 129.41167 0
102.89574 118.56856 1.8715168
64 64 0
102.89302 118.70445 1.8745645
64 64 0
99.198593 113.63499 1.6993901
64 64 0
99.162598 113.71143 1.7005512
64 64 0
99.126564 113.72418 1.7002611
110.39832 130.01813 0
99.042145 113.85993 1.7020023
110.35139 130.12103 0
98.9431 113.84692 1.7001156
105.21621 122.94702 0
98.802444 113.77412 1.6961973
105.21939 123.10352 0
100.10375 115.76833 1.7626674
105.17766 123.196 0
99.943245 115.67113 1.7578779
105.25742 123.46379 0
99.744522 115.51814 1.7512025
105.30994 123.69336 0
99.611267 115.45872 1.747719
105.2496 123.76036 0
102.04648 119.11984 1.8705007
105.09177 123.68584 0
101.86198 118.99457 1.8646957
104.91945 123.58957 0
101.61311 118.77467 1.8556973
104.83565 123.6218 0
101.47935 118.72146 1.8523589
64 64 -0
104.51403 123.30579 0
101.36925 118.70235 1.8501823
64 64 -0
104.30753 123.15685 0
101.25337 118.67445 1.847715
104.15118 123.08068 0
96.788353 112.2466 1.6291465
105.35886 125.01616 0
96.753357 112.32059 1.6303076
105.3055 125.09628 0
96.590164 112.20515 1.6250825
105.27821 125.21519 0
96.465073 112.1454 1.6217448
105.28554 125.38594 0
96.369179 112.12854 1.619858
105.33311 125.61732 0
96.258881 112.08992 1.6172452
105.34546 125.797 0
96.238319 112.18501 1.6191319
105.19565 125.73434 0
96.13681 112.1591 1.6169553
104.77498 125.26414 0
95.344391 111.09476 1.5799468
104.69473 125.22374 0
95.25264 111.01846 1.5767534
104.66386 125.33795 0
95.178574 111.0302 1.5758829
104.85956 125.79514 0
95.133194 111.08518 1.5764635
104.79059 125.85315 0
95.061974 111.10107 1.5757378
104.67578 125.84151 0
96.849808 113.94327 1.6694927
104.69525 126.03423 0
96.806549 114.00901 1.6703638
104.77414 126.31855 0
95.394638 111.98306 1.6014262
104.85809 126.61186 0
95.31675 111.99049 1.6004102
104.83351 126.7397 0
95.219055 111.96732 1.5983785
104.69817 126.69731 0
95.172386 112.02243 1.5989585
104.47812 126.52362 0
95.1567 112.1255 1.6011357
104.29526 126.40633 0
95.735588 113.14975 1.6339353
78.912933 87.15741 -0.76924592
104.17756 126.38934 0
95.729637 113.27107 1.6366931
78.856865 87.131699 -0.76779479
104.05995 126.37215 0
95.605499 113.20882 1.6333553
64 64 -0
64 64 0
95.582451 113.30386 1.635242
64 64 -0
115.69472 144.91653 0
95.564819 113.40766 1.6374186
64 64 -0
115.49063 144.81213 0
95.572113 113.55095 1.640902
64 64 -0
115.43203 144.93579 0
96.802658 115.61977 1.7080978
78.622261 87.071793 -0.7628603
64 64 0
98.548462 118.51244 1.8024337
78.574936 87.058685 -0.76184422
64 64 0
96.51123 115.43533 1.6993901
78.555374 87.089478 -0.76227975
64 64 0
96.396408 115.39105 1.6966327
78.521927 87.098236 -0.76198924
64 64 0
96.2845 115.35097 1.69402
78.494011 87.115768 -0.76198924
141.21971 187.15385 0
96.153412 115.27986 1.6903917
78.460564 87.124466 -0.7616992
140.97978 187.10144 0
95.90683 115.02348 1.6806682
78.44384 87.128792 -0.76155418
64 64 0
95.697067 114.75624 1.6712344
78.418625 87.150635 -0.7616992
64 64 0
95.55056 114.65776 1.6667354
78.398872 87.18129 -0.76213479
64 64 0
95.437225 114.61197 1.6639776
78.37632 87.207497 -0.76242477
95.348679 114.60574 1.6625265
78.353722 87.233681 -0.76271474
95.353065 114.74969 1.6660099
78.303841 87.21563 -0.76155418
95.348969 114.88046 1.6690576
78.27578 87.232895 -0.76155418
95.32827 114.9847 1.6712344
78.255836 87.263412 -0.76198924
95.217766 114.94276 1.6686221
78.227715 87.280617 -0.76198924
140.72922 189.55096 0
95.096573 114.8829 1.6654294
78.204987 87.306679 -0.76227975
140.52869 189.56358 0
94.967453 114.80951 1.661801
78.182213 87.332695 -0.76256979
140.3661 189.63818 0
94.862854 114.77583 1.6594788
78.164787 87.367592 -0.76315033
140.19534 189.69919 0
94.801476 114.81309 1.6594788
78.158051 87.420273 -0.76431143
140.05957 189.8179 0
94.726616 114.82803 1.6587532
78.145844 87.464073 -0.76518255
139.89136 189.88297 0
94.659805 114.85622 1.6584626
78.160316 87.552391 -0.76750422
139.7392 189.97458 0
94.544792 114.80416 1.6555604
78.16658 87.627426 -0.76939088
64 64 0
94.488724 114.84994 1.6558504
78.282043 87.885376 -0.77722818
64 64 0
94.400589 114.84215 1.6543993
78.625351 88.594276 -0.79914325
95.589752 117.12195 1.7260946
78.56646 88.562752 -0.79754657
93.063034 113.00766 1.5912669
78.539413 88.584808 -0.79769158
64 64 0
93.069931 113.15457 1.5948951
64 64 -0
64 64 0
93.042198 113.24338 1.5966369
64 64 -0
64 64 0
92.998474 113.3053 1.5975074
64 64 -0
92.941505 113.34479 1.5976524
64 64 -0
64 64 0
92.850388 113.3259 1.5959113
64 64 -0
64 64 0
92.878242 113.44204 1.599104
64 64 -0
64 64 0
92.831558 113.49934 1.5998297
64 64 -0
64 64 0
92.761284 113.51617 1.599249
64 64 -0
64 64 0
92.677994 113.51042 1.5979429
64 64 -0
64 64 0
92.60775 113.52704 1.5973624
64 64 -0
64 64 0
92.503792 113.48502 1.5948951
64 64 -0
64 64 0
92.420677 113.47887 1.5935891
64 64 -0
64 64 0
92.293724 113.39594 1.5898157
64 64 -0
64 64 0
92.213394 113.39398 1.5886546
64 64 0
92.107391 113.34675 1.5860418
64 64 0
93.485001 115.9111 1.667316
73.527992 80.82222 -0.53993726
64 64 0
93.440186 115.97836 1.6683321
73.50766 80.833725 -0.53993726
64 64 0
93.382469 116.02293 1.6686221
73.497513 80.863312 -0.54051781
64 64 0
93.470047 116.32555 1.6771849
64 64 -0
64 64 0
93.437332 116.41548 1.6789266
64 64 -0
64 64 0
93.33844 116.38754 1.6768949
64 64 -0
64 64 0
93.244713 116.36852 1.6751533
64 64 -0
64 64 0
93.057526 116.18134 1.6680416
73.387901 80.906761 -0.54008281
64 64 0
92.933899 116.10736 1.6645582
73.342285 80.87262 -0.53863114
64 64 0
92.878471 116.15593 1.6649938
73.2817 80.811104 -0.53630888
64 64 0
93.277596 117.02786 1.6916983
64 64 -0
64 64 0
93.263618 117.15424 1.6946006
64 64 -0
64 64 0
93.379425 117.51754 1.70505
73.143349 80.703339 -0.53180999
64 64 0
93.621651 118.11368 1.7229012
73.100754 80.673325 -0.53050387
73.162994 80.787354 0
93.611023 118.2498 1.7260946
73.073151 80.670609 -0.53006834
73.132751 80.780121 0
93.555389 118.30379 1.7266752
73.043083 80.663284 -0.52948779
64 64 0
93.482315 118.32576 1.7262396
73.010574 80.651352 -0.52876222
64 64 0
92.219635 116.14927 1.6559954
72.995575 80.647659 -0.52847219
64 64 0
92.197998 116.1846 1.6565759
72.97052 80.649353 -0.52818167
72.953079 80.616974 0
92.134926 116.21863 1.6565759
72.940559 80.641869 -0.52760106
72.925606 80.614044 0
92.091484 116.28922 1.657737
72.917992 80.648087 -0.5274561
72.893234 80.60186 0
92.018463 116.30479 1.6571565
72.895424 80.654266 -0.52731109
72.873161 80.612595 0
91.940559 116.31111 1.656286
64 64 -0
72.870407 80.655823 -0.52702051
64 64 0
91.848022 116.28979 1.6545442
72.847839 80.661942 -0.52687556
72.837875 80.643188 0
92.913246 118.44843 1.7217406
64 64 -0
72.830132 80.677208 -0.52702051
72.812889 80.644646 0
92.862022 118.51087 1.7226112
72.802696 80.674095 -0.52658552
72.79277 80.655289 0
92.813118 118.57788 1.7236273
72.787384 80.693909 -0.52687556
72.789612 80.698143 0
92.781036 118.67703 1.725659
72.759956 80.690704 -0.52643996
72.767014 80.704147 0
92.731857 118.74399 1.7266752
72.751839 80.724312 -0.52716607
72.780602 80.779282 0
92.670502 118.78786 1.7269651
72.731621 80.734879 -0.52716607
72.803658 80.872932 0
92.580246 118.7764 1.7255139
72.713791 80.750015 -0.52731109
72.79528 80.906662 0
94.415886 122.4667 1.8406034
72.693542 80.760536 -0.52731109
72.782028 80.931122 0
94.460075 122.72484 1.8475701
72.678055 80.780251 -0.52760106
72.742439 80.904739 0
94.477417 122.93238 1.8529395
72.669685 80.813812 -0.52832663
72.702919 80.878281 0
94.487152 123.12621 1.8578739
72.656494 80.83815 -0.52876222
64 64 0
104.83916 143.43817 2.4945681
72.640884 80.857849 -0.52905273
64 64 0
104.72418 143.45047 2.493407
72.632332 80.891418 -0.5297783
64 64 0
94.402695 123.49083 1.8658562
72.618996 80.915726 -0.53021389
64 64 0
94.31192 123.49049 1.8646957
72.615021 80.958549 -0.53122944
64 64 0
94.24942 123.54559 1.8652756
72.615654 81.010666 -0.53253555
64 64 0
94.17276 123.57284 1.8649856
72.616173 81.062813 -0.53384167
64 64 0
94.124176 123.65564 1.8664367
72.579193 81.040733 -0.53282613
64 64 0
94.094147 123.77555 1.8690495
72.536224 80.980919 -0.53079444
64 64 0
94.018341 123.71479 1.8665823
72.46447 80.888992 -0.52760106
64 64 0
93.990402 123.83928 1.8693396
72.432449 80.875977 -0.52687556
64 64 0
64 64 0
72.373146 80.85907 -0.5257144
64 64 0
64 64 0
72.352768 80.869171 -0.5257144
64 64 0
64 64 0
72.334679 80.883911 -0.52585942
64 64 0
64 64 0
72.309685 80.884644 -0.52556944
64 64 0
64 64 0
72.31675 80.950661 -0.52731109
64 64 0
64 64 0
64 64 -0
64 64 0
64 64 0
64 64 -0
64 64 0
64 64 0
64 64 -0
64 64 0
64 64 0
64 64 -0
64 64 -0
64 64 0
64 64 0
64 64 -0
64 64 0
64 64 0
64 64 -0
64 64 0
64 64 0
64 64 -0
64 64 0
64 64 0
64 64 -0
64 64 0
102.51125 144.44846 2.4909396
64 64 -0
64 64 0
102.46773 144.60748 2.4944232
64 64 -0
64 64 0
102.36807 144.64923 2.494278
64 64 -0
64 64 0
102.23274 144.61571 2.4918108
64 64 -0
64 64 0
102.08865 144.56317 2.4887631
64 64 -0
64 64 0
101.94919 144.51982 2.4860053
64 64 -0
64 64 0
101.79221 144.43863 2.4820869
64 64 -0
64 64 0
101.71932 144.4097 2.4804902
64 64 -0
64 64 0
101.5583 144.3187 2.4762814
64 64 -0
101.46123 144.36401 2.4762814
64 64 -0
64 64 -0
64 64 0
101.43198 144.55533 2.4807808
64 64 -0
101.34772 144.62878 2.4816513
64 64 -0
64 64 0
101.25899 144.69272 2.4822319
64 64 -0
64 64 0
86.123726 112.06643 1.4777735
64 64 -0
64 64 0
86.056961 112.07423 1.477193
64 64 -0
64 64 0
86.037758 112.18591 1.4798052
64 64 -0
64 64 0
85.996765 112.25034 1.4809663
64 64 -0
64 64 0
85.9664 112.33838 1.4828531
64 64 -0
64 64 0
85.907974 112.36488 1.4828531
64 64 -0
64 64 0
85.883736 112.4671 1.4851753
64 64 -0
64 64 0
85.861412 112.57407 1.4876425
64 64 -0
85.792068 112.57674 1.486917
64 64 -0
85.735481 112.60778 1.487062
64 64 -0
85.727509 112.74793 1.4905453
64 64 -0
64 64 -0
86.216515 114.00748 0
85.666481 112.76941 1.4904003
64 64 -0
86.113922 113.93911 0
85.586487 112.74802 1.4889486
64 64 -0
86.040962 113.93723 0
85.546455 112.81685 1.4902548
64 64 -0
85.959648 113.91619 0
85.502106 112.87616 1.4912709
64 64 -0
64 64 0
85.430511 112.87355 1.4904003
64 64 -0
64 64 0
85.363121 112.88036 1.4898198
64 64 -0
64 64 0
85.289513 112.87279 1.4888036
64 64 -0
95.686584 136.86078 2.2189627
64 64 -0
95.697723 137.12787 2.2259288
64 64 -0
64 64 0
95.749489 137.49051 2.2357976
64 64 -0
85.820114 114.67511 0
95.707939 137.63861 2.239136
85.713715 114.59622 0
95.446785 137.27573 2.2269449
85.695549 114.72292 0
95.155899 136.84065 2.2125764
85.654648 114.79696 0
95.035263 136.80177 2.2102547
64 64 -0
64 64 -0
85.623779 114.89493 0
94.981812 136.92053 2.2127221
64 64 -0
64 64 -0
85.570389 114.9402 0
95.027412 137.27373 2.2223003
64 64 -0
64 64 -0
85.464302 114.86073 0
95.500565 138.64215 2.2626472
64 64 -0
85.386688 114.84825 0
84.851105 113.57486 1.5020109
85.03952 114.19245 0
84.791183 113.60002 1.5020109
64 64 -0
84.900604 114.03053 0
94.724991 137.5475 2.2260737
64 64 -0
84.842148 114.06056 0
94.54422 137.36391 2.219398
64 64 -0
84.78363 114.09052 0
94.399788 137.26636 2.2153342
64 64 -0
84.677353 114.00497 0
94.293365 137.25983 2.2140281
64 64 -0
84.581215 113.94328 0
94.177109 137.2291 2.2119963
64 64 -0
84.542603 114.02109 0
93.202202 135.10715 2.1468318
64 64 -0
84.939522 115.1634 0
93.153664 135.23376 2.1495895
64 64 -0
84.858025 115.14046 0
93.059723 135.24969 2.149009
64 64 -0
84.687485 115.07495 0
94.428665 139.12476 2.2636633
64 64 -0
84.627701 115.10474 0
94.330086 139.14221 2.2630827
64 64 -0
84.51738 115.0089 0
85.551422 117.57967 1.6128913
84.346924 114.67354 0
85.4842 117.50588 1.6102791
64 64 -0
84.237343 114.57727 0
85.406013 117.49802 1.6092629
84.183929 114.62103 0
87.483528 122.89639 1.7707952
84.387962 115.31288 0
92.858025 136.63052 2.1826797
84.320198 115.32295 0
92.818069 136.78613 2.1863079
83.73288 114.01604 0
92.772057 136.92725 2.1895008
84.11232 115.15879 0
92.685822 136.9668 2.1896458
84.088455 115.27997 0
92.591942 136.98688 2.1892102
84.022697 115.29451 0
92.482948 136.96814 2.1876142
83.964478 115.32835 0
92.355202 136.90079 2.1845663
83.847893 115.2117 0
92.268967 136.93985 2.1847112
83.754128 115.15311 0
92.169586 136.94485 2.1838408
83.673615 115.12837 0
92.167274 137.20195 2.1905169
83.501892 114.86538 0
92.08252 137.24564 2.1908069
83.213814 114.29574 0
93.358902 140.85239 2.2976239
83.160431 114.33838 0
93.253075 140.85381 2.2966077
83.588684 115.65112 0
93.141762 140.84052 2.2951567
83.540977 115.7137 0
93.070938 140.93401 2.2968984
83.465637 115.70317 0
92.970634 140.94962 2.2963178
83.410461 115.74615 0
92.895882 141.03322 2.2977691
83.351562 115.77931 0
92.79187 141.03888 2.2968984
83.212715 115.59781 0
92.680634 141.02493 2.2954473
110.78448 190.11052 0
96.788742 152.71269 0
96.683327 152.75713 0
64 64 -0
96.606354 152.71335 0
64 64 0
96.500931 152.75757 0
64 64 0
96.391876 152.79189 0
64 64 0
96.284561 152.83096 0
64 64 0
96.191376 152.90906 0
110.16658 191.50702 3.7872586
67.450729 73.566635 -0.84773862
96.085693 152.95279 0
81.934494 113.7207 1.476177
67.451317 73.604607 -0.85073316
95.983475 153.0062 0
81.879677 113.757 1.4766124
67.432785 73.589432 -0.84902132
95.868881 153.02516 0
81.784508 113.68073 1.4737097
67.443619 73.656433 -0.85458446
95.775269 153.10281 0
81.715744 113.6777 1.4729842
67.454292 73.723495 -0.86014926
64 64 -0
95.671066 153.15096 0
109.38496 191.75421 3.7863874
67.43911 73.717972 -0.85929251
64 64 -0
95.561592 153.18427 0
109.22017 191.77957 3.785517
67.439316 73.75602 -0.86228871
64 64 -0
95.462456 153.24687 0
109.06573 191.83414 3.785517
67.456444 73.842514 -0.86956376
64 64 -0
95.358047 153.29463 0
108.94051 191.97183 3.7879841
67.464897 73.904839 -0.87469935
95.239815 153.30298 0
82.048462 115.59383 1.5265377
67.471504 73.962334 -0.87940574
95.135315 153.35049 0
81.972435 115.57635 1.5253772
67.447685 73.932587 -0.8764112
95.018791 153.36346 0
81.899872 115.56857 1.524506
67.427284 73.912468 -0.87427014
91.62661 143.9023 0
81.839249 115.59506 1.5246511
67.373512 73.79525 -0.86357135
64 64 -0
91.533432 143.94547 0
81.797195 115.67554 1.5263927
67.275047 73.546806 -0.84131873
67.051041 72.893829 -0.52401316
91.386147 143.83096 0
79.938889 110.46207 1.3718271
67.130707 73.162109 -0.80708295
67.057022 72.946457 -0.52689552
64 64 0
79.887779 110.49605 1.3722626
67.020386 72.874283 -0.78140658
67.04454 72.945251 -0.52660751
64 64 0
79.814842 110.46603 1.3708116
64 64 -0
67.027084 72.929321 -0.52545434
64 64 0
81.146805 114.57979 1.4915608
64 64 -0
67.003059 72.893768 -0.523148
64 64 0
81.080696 114.58571 1.4911258
64 64 -0
66.980766 72.86306 -0.52112967
64 64 0
81.024529 114.62108 1.4915608
64 64 -0
66.967178 72.840347 -0.51968849
82.256424 118.39276 0
81.002213 114.65601 1.492287
64 64 -0
66.954857 72.83902 -0.51940048
82.200584 118.4444 0
81.059616 115.03136 1.5027364
64 64 -0
66.945808 72.847488 -0.51968849
81.878296 117.69598 0
81.053764 115.21957 1.5076709
64 64 -0
66.944878 72.880493 -0.52141768
81.659409 117.25317 0
79.536102 110.85021 1.3785032
64 64 -0
66.945503 72.918434 -0.52343601
81.386124 116.64188 0
80.907112 115.19154 1.5056387
64 64 -0
66.939575 72.936737 -0.52430117
81.08506 115.941 0
80.83551 115.18233 1.5047681
64 64 -0
66.92878 72.940277 -0.52430117
80.842438 115.4126 0
80.763947 115.173 1.5038975
64 64 -0
66.90995 72.919228 -0.52285999
80.578506 114.81439 0
80.674698 115.10924 1.5014304
64 64 -0
66.892776 72.903061 -0.52170682
80.345001 114.30475 0
80.571175 115.00084 1.4976565
64 64 -0
66.853348 72.817947 -0.51651698
80.117569 113.80947 0
80.427948 114.76866 1.4902548
64 64 -0
66.828415 72.777084 -0.51392263
79.899323 113.33846 0
80.291679 114.55602 1.4834336
64 64 -0
66.789879 72.729706 -0.51075226
67.548424 75.103233 0
80.212173 114.7289 1.4873525
64 64 -0
66.785606 72.752785 -0.51190543
67.525536 75.077759 0
80.396713 115.52095 1.5099932
64 64 -0
66.734398 72.627945 -0.50441039
67.542023 75.17627 0
80.348579 115.5853 1.5112993
64 64 -0
66.742645 72.690414 -0.50786877
67.515984 75.140839 0
79.737274 113.86557 1.460358
64 64 -0
66.733696 72.698677 -0.50815791
67.497841 75.130196 0
79.681679 113.89941 1.460793
64 64 -0
66.758713 72.815506 -0.51478779
67.478172 75.11454 0
70.301575 84.136772 0.58927572
64 64 -0
66.708046 72.69043 -0.50729275
67.452347 75.078979 0
70.275696 84.13942 0.58913076
64 64 -0
66.706741 72.723335 -0.50902194
67.448212 75.112961 0
70.240578 84.112236 0.58811462
64 64 -0
66.682457 72.682121 -0.50642759
67.451683 75.171829 0
70.228539 84.159485 0.58927572
64 64 -0
66.671967 72.685356 -0.50642759
67.413696 75.09639 0
70.205704 84.171959 0.58942074
64 64 -0
66.654572 72.647408 -0.50412124
67.416153 75.128296 0
70.179794 84.130997 0.58811462
64 64 -0
66.66227 72.709976 -0.50758076
67.398148 75.1175 0
70.152428 84.128517 0.58782464
64 64 -0
64 64 -0
67.392288 75.146492 0
70.109947 84.076279 0.58608294
64 64 -0
64 64 -0
67.375793 75.14061 0
70.132401 84.237808 0.59058183
64 64 -0
64 64 -0
67.362328 75.144684 0
78.11422 110.78259 1.3647159
64 64 -0
64 64 -0
70.05513 84.158226 -0.58783078
67.333893 75.098892 0
79.020447 114.00476 1.4581808
64 64 -0
64 64 -0
67.258324 74.895103 -0.31759527
67.335388 75.152771 0
75.784058 103.40321 1.1486145
64 64 -0
64 64 -0
67.246643 74.904007 -0.31774029
67.30854 75.1119 0
75.694916 103.27796 1.1445507
64 64 -0
66.587036 72.727226 -0.50729275
67.226082 74.883018 -0.31701472
67.28624 75.08596 0
75.620865 103.20238 1.1419384
64 64 -0
66.576485 72.730347 -0.50729275
67.189392 74.807159 -0.3146925
76.499474 106.35409 0
75.54554 103.12169 1.1391807
64 64 -0
66.580513 72.783073 -0.51017511
67.174866 74.806023 -0.31454751
76.396942 106.19438 0
75.493858 103.12065 1.1387451
64 64 -0
66.545212 72.701782 -0.50527442
67.153061 74.77993 -0.31367692
75.511642 103.35695 0
75.450958 103.14948 1.1391807
64 64 -0
66.566513 72.81411 -0.51161629
67.14003 74.78373 -0.31367692
75.46553 103.37582 0
75.397835 103.14333 1.1386001
64 64 -0
66.502579 72.6334 -0.50095087
67.121208 74.767555 -0.31309637
75.410706 103.36465 0
75.353424 103.16706 1.1388906
64 64 -0
66.500748 72.666229 -0.50268006
67.099548 74.741348 -0.31222525
75.335709 103.28339 0
75.31041 103.19572 1.1393256
64 64 -0
66.485985 72.65432 -0.5018149
67.083702 74.735107 -0.31193528
75.269554 103.23203 0
75.261612 103.20436 1.1391807
64 64 -0
66.506821 72.766747 -0.50815791
67.077873 74.763802 -0.31266081
75.217857 103.23062 0
75.21566 103.22293 1.1393256
64 64 -0
66.491974 72.754837 -0.50729275
67.057747 74.742523 -0.31193528
75.167587 103.23412 0
75.162567 103.21646 1.1387451
66.517654 72.885811 -0.7698527
66.496902 72.812576 -0.51046312
67.044769 74.746216 -0.31193528
75.123016 103.25761 0
75.112343 103.21993 1.138455
66.506912 72.888847 -0.7698527
66.480644 72.795692 -0.50931108
67.028954 74.739868 -0.3116447
75.072746 103.26099 0
75.05648 103.20333 1.1375846
66.536407 73.035194 -0.78226167
66.474205 72.813614 -0.51017511
67.014572 74.738525 -0.31149971
75.026703 103.27935 0
75.000671 103.18663 1.1367134
66.568321 73.191544 -0.79552907
66.457985 72.796661 -0.50902194
67.000198 74.73716 -0.3113547
74.984833 103.3127 0
74.956116 103.20992 1.137004
66.612236 73.392479 -0.81264615
66.450127 72.809608 -0.50959909
66.988617 74.745781 -0.31149971
74.937325 103.32594 0
74.911514 103.23312 1.1372939
66.602249 73.400574 -0.81307369
66.438103 72.807579 -0.50931108
66.970085 74.729347 -0.31091914
74.895355 103.35919 0
74.87381 103.28135 1.1383101
66.585442 73.383926 -0.81136346
66.430206 72.82048 -0.5098871
66.955734 74.727921 -0.31077415
74.842262 103.35226 0
74.824959 103.28946 1.1381651
66.561874 73.342468 -0.80751055
66.420914 72.8284 -0.51017511
66.940018 74.721451 -0.3104836
74.812592 103.43058 0
74.78022 103.31252 1.138455
66.55217 73.32917 -0.80622786
66.416939 72.834846 -0.51046312
66.936287 74.733261 -0.31077415
74.805252 103.49735 0
74.759209 103.32904 1.1387451
66.542244 73.337196 -0.80665541
66.419853 72.88768 -0.51334661
66.917854 74.716743 -0.3101936
74.758896 103.51541 0
74.706223 103.32198 1.1381651
66.529617 73.335312 -0.80622786
66.415878 72.915558 -0.51478779
66.914421 74.755379 -0.31120971
74.712494 103.5334 0
74.664131 103.35493 1.1387451
66.521011 73.348267 -0.80708295
66.410492 72.938446 -0.51594096
66.891953 74.723763 -0.3101936
74.667427 103.55637 0
74.608459 103.33769 1.1378745
66.504387 73.331474 -0.80537111
66.406395 72.966331 -0.51738214
66.881683 74.737282 -0.3104836
74.625023 103.58933 0
74.564957 103.36554 1.1383101
66.489143 73.319626 -0.80408841
66.398232 72.979233 -0.5179593
66.871391 74.750809 -0.31077415
74.56778 103.56696 0
74.529457 103.42346 1.1396161
66.475235 73.312691 -0.80323166
66.386047 72.977112 -0.51767015
66.855728 74.744217 -0.3104836
74.521301 103.58472 0
74.481812 103.43616 1.1396161
66.471855 73.345444 -0.80579865
66.401649 73.080009 -0.52343601
66.83876 74.732597 -0.31004858
74.466805 103.57225 0
74.439468 103.46889 1.1401968
66.477554 73.412987 -0.81136346
66.414375 73.172943 -0.52862471
66.831078 74.756119 -0.31062916
74.408386 103.5446 0
74.389122 103.47141 1.1399062
66.460976 73.396103 -0.80965161
66.46096 73.396034 -0.5413096
66.811501 74.734406 -0.30990359
74.364548 103.57224 0
74.340103 103.47891 1.1397612
66.436668 73.34938 -0.80537111
66.470482 73.479095 -0.54592228
66.798523 74.737793 -0.30990359
74.33773 103.66532 0
74.293701 103.4964 1.1399062
66.433105 73.382149 -0.80793971
66.468109 73.517113 -0.54793948
66.78685 74.746193 -0.31004858
74.304169 103.73322 0
74.24337 103.49876 1.1396161
66.421768 73.385078 -0.80793971
66.910255 75.278114 -0.64912486
66.781654 74.779732 -0.31091914
74.254852 103.7406 0
74.203423 103.54129 1.1404867
66.398941 73.343246 -0.80408841
66.885048 75.236534 -0.64653051
66.767334 74.778061 -0.31077415
74.213295 103.77816 0
74.160805 103.57373 1.1410673
66.871475 75.240013 -0.64653051
66.758171 74.796509 -0.31120971
74.166512 103.79551 0
74.112984 103.58598 1.1410673
66.856613 75.238464 -0.6462425
66.746399 74.804863 -0.3113547
74.119698 103.81281 0
74.070267 103.61832 1.1416478
66.840492 75.231865 -0.64566535
66.728249 74.788017 -0.31077415
74.075417 103.84015 0
74.023659 103.63548 1.1417929
66.82692 75.235291 -0.64566535
66.717743 74.801376 -0.31106415
74.02346 103.83714 0
73.975761 103.64757 1.1417929
68.263161 81.030411 -0.49030262
73.982903 103.87953 0
73.924065 103.64449 1.1413579
64 64 -0
68.242584 81.035553 -0.49030262
73.933449 103.88651 0
73.878662 103.66652 1.1416478
64 64 -0
64 64 -0
73.889 103.91364 0
73.830727 103.67843 1.1416478
64 64 -0
64 64 -0
73.844505 103.94072 0
73.795212 103.74075 1.1430995
64 64 -0
64 64 -0
73.793755 103.94247 0
73.748428 103.7576 1.1432445
68.15773 81.045746 -0.49001205
73.751656 103.97957 0
73.702835 103.77943 1.1435345
68.143745 81.033104 -0.48957649
73.727501 103.98546 0
73.683716 103.80548 1.1441151
68.12561 81.04821 -0.48986706
73.681625 104.00729 0
73.634392 103.81211 1.1439701
68.105003 81.053185 -0.48986706
73.635712 104.02907 0
73.583847 103.81361 1.1436795
68.067398 81.078224 -0.49030262
73.542564 104.06743 0
73.488815 103.84172 1.1438251
68.046753 81.08313 -0.49030262
73.491745 104.06882 0
73.450249 103.89362 1.1449862
68.032074 81.113289 -0.49102816
67.93364 80.695511 0
73.404419 103.91512 1.1452762
68.012573 81.123207 -0.49117318
67.908714 80.679985 0
73.356178 103.92645 1.1452762
67.99424 81.138153 -0.49146318
64 64 0
73.310295 103.94785 1.1455668
67.978218 81.163216 -0.49204373
67.861343 80.658966 0
73.258492 103.94388 1.1451312
67.965652 81.203468 -0.49305984
67.822502 80.582474 0
73.212555 103.96516 1.1454213
67.955315 81.25383 -0.49436596
67.795486 80.556625 0
73.163101 103.9712 1.1452762
68.633263 84.323914 -0.58217072
67.773163 80.551064 0
73.118263 103.99745 1.1457118
68.608704 84.329498 -0.58217072
67.753159 80.555611 0
73.07682 104.03883 1.1465824
68.584137 84.335052 -0.58217072
67.729721 80.544891 0
73.035294 104.0802 1.1474534
68.557289 84.330444 -0.58188075
67.702896 80.518921 0
72.986855 104.09109 1.1474534
68.533852 84.341003 -0.58202577
67.677277 80.497986 0
72.939537 104.10699 1.1475984
68.50927 84.346466 -0.58202577
67.657333 80.502419 0
72.889946 104.11269 1.1474534
68.483566 84.346825 -0.58188075
67.635155 80.496651 0
72.844818 104.13861 1.1478884
68.456749 84.342072 -0.58159018
67.616325 80.506111 0
72.798538 104.15944 1.1481791
68.428848 84.332214 -0.58115518
67.599709 80.525734 0
72.74559 104.14973 1.1475984
68.406479 84.347702 -0.58144516
67.575333 80.50972 0
72.703667 104.19073 1.148469
68.378609 84.337769 -0.58100963
67.557571 80.524216 0
72.65947 104.22154 1.1490495
68.367416 84.345505 -0.58115518
67.548676 80.531448 0
72.641716 104.25726 1.1499207
68.34391 84.355843 -0.5813002
67.528702 80.535721 0
72.590897 104.2575 1.1496301
68.319313 84.361076 -0.5813002
67.507637 80.534889 0
72.54332 104.27293 1.1497751
68.292557 84.356102 -0.58100963
67.491951 80.559486 0
72.489296 104.2578 1.1490495
68.270096 84.37146 -0.5813002
67.471939 80.56369 0
67.435287 80.388809 0.46765527
68.246536 84.381683 -0.58144516
67.461479 80.613731 0
67.410179 80.367516 0.46692973
68.230331 84.427513 -0.58260632
67.455124 80.684158 0
67.38829 80.361435 0.46663916
68.21508 84.478416 -0.58391243
67.441254 80.718895 0
67.359093 80.319717 0.46533304
68.199699 84.529312 -0.58521855
67.422089 80.728134 0
67.331039 80.283028 0.46417195
68.176964 84.544563 -0.58550906
67.399803 80.722069 0
67.303078 80.2463 0.46301082
68.137726 84.478271 -0.58347684
67.377533 80.71595 0
67.279327 80.229904 0.46243027
68.094566 84.391556 -0.58086461
71.690552 102.30009 0
67.259712 80.233856 0.46243027
68.060776 84.350624 -0.57955849
71.636116 102.26852 0
67.236031 80.217392 0.46184969
68.03315 84.340218 -0.57912296
71.584816 102.2522 0
67.209358 80.185623 0.46083415
68.007561 84.339981 -0.57897794
71.538589 102.26133 0
67.183769 80.15889 0.45996302
67.982986 84.34481 -0.57897794
71.493347 102.27551 0
67.160248 80.142319 0.45938247
67.956413 84.339417 -0.57868797
71.451073 102.30498 0
67.136772 80.125725 0.45880193
67.932823 84.349274 -0.57883298
71.41169 102.34972 0
67.117279 80.129501 0.45880193
67.908234 84.354019 -0.57883298
71.362404 102.34332 0
67.096809 80.128159 0.45865691
67.887527 84.379143 -0.57941353
71.318024 102.3624 0
67.070503 80.096146 0.4576408
67.860962 84.373604 -0.57912296
71.279411 102.41212 0
64 64 0
67.834427 84.36805 -0.57883298
71.232994 102.4209 0
67.029678 80.093323 0.45735079
67.812675 84.388 -0.57926852
71.184654 102.41939 0
67.010231 80.09697 0.45735079
67.7994 84.38517 -0.57912296
71.165253 102.44418 0
67.001457 80.103889 0.45749581
67.773827 84.384644 -0.57897794
71.117851 102.44769 0
66.981995 80.107498 0.45749581
67.752953 84.409637 -0.57955849
71.073273 102.46651 0
66.96347 80.116196 0.4576408
67.726418 84.403938 -0.57926852
71.031464 102.50063 0
66.947723 80.140221 0.45822135
67.701767 84.408424 -0.57926852
70.983078 102.49886 0
66.936569 80.189804 0.45952803
67.675255 84.402649 -0.57897794
70.94117 102.53287 0
66.927139 80.249588 0.46112415
67.654259 84.427536 -0.57955849
70.894608 102.54123 0
66.910248 80.268463 0.46155971
67.625938 84.411469 -0.57897794
70.852585 102.57515 0
66.894226 80.292435 0.46214026
67.601273 84.415833 -0.57897794
70.80777 102.59364 0
66.876343 80.306145 0.46243027
67.575706 84.415054 -0.57883298
70.761131 102.60184 0
66.849464 80.268661 0.46126914
67.543915 84.378403 -0.57767183
70.711815 102.59462 0
71.111542 104.89316 1.159209
67.517517 84.372414 -0.57738125
70.666946 102.61295 0
71.068314 104.93756 1.1602246
67.49202 84.371536 -0.57723629
71.069633 105.24236 0
71.014458 104.92046 1.159499
67.46479 84.360367 -0.5768007
71.01281 105.20982 0
70.967621 104.94428 1.1599346
67.44278 84.379913 -0.57723629
70.959541 105.19774 0
70.920738 104.96805 1.1603701
67.416435 84.373817 -0.57694626
70.917503 105.25231 0
70.866074 104.94562 1.159499
67.390961 84.372787 -0.5768007
70.871071 105.28117 0
70.820007 104.9744 1.1600796
67.364647 84.366623 -0.57651073
70.820335 105.28432 0
70.781502 105.04926 1.1619663
67.339195 84.365555 -0.57636571
70.769608 105.2874 0
70.737785 105.09332 1.1629823
67.313751 84.364449 -0.57622075
70.724731 105.32636 0
70.68145 105.06039 1.1618212
67.286659 84.353043 -0.57578516
70.672302 105.31904 0
70.634323 105.08383 1.1622568
66.810257 81.674149 -0.99736434
67.239914 84.376328 -0.57622075
70.577332 105.36589 0
69.208145 96.754852 0.92627203
66.779228 81.616211 -0.99390483
67.212051 84.359695 -0.57564014
70.529785 105.38924 0
69.160469 96.709793 0.9248209
66.749138 81.563354 -0.99073446
67.187447 84.363556 -0.57564014
70.476547 105.37653 0
69.108887 96.638985 0.92264366
66.738525 81.565018 -0.99073446
67.175941 84.370613 -0.57578516
70.453949 105.39584 0
69.070755 96.523979 0.91930592
66.710976 81.527412 -0.98842812
67.149734 84.364151 -0.57549459
69.078522 96.834427 0
69.023506 96.478714 0.91785425
66.684303 81.494881 -0.98640978
67.129074 84.393646 -0.57622075
69.026222 96.758247 0
68.98111 96.464233 0.91727424
66.661606 81.487869 -0.98583269
66.657959 81.463898 -0.49334985
68.98037 96.723129 0
68.940315 96.459946 0.91698366
66.635071 81.455284 -0.98381543
66.643059 81.508202 -0.49451095
68.918297 96.57988 0
68.901863 96.471024 0.91712868
66.600189 81.366379 -0.97862673
66.623444 81.521675 -0.49480152
68.871216 96.534309 0
68.86647 96.502609 0.91785425
66.572365 81.323441 -0.9760313
66.596161 81.483704 -0.49364039
68.827316 96.509293 0
68.829483 96.523895 0.91828978
66.561226 81.393082 -0.9797799
66.570496 81.455994 -0.49276984
68.789543 96.525391 0
68.794724 96.560562 0.9191609
66.545441 81.431984 -0.9817971
66.553902 81.489929 -0.49364039
68.74498 96.495117 0
68.753128 96.550903 0.91872537
66.526604 81.450409 -0.98266226
66.538727 81.534149 -0.49480152
68.707947 96.516281 0
68.717514 96.582336 0.91945088
66.501099 81.422714 -0.980932
66.521965 81.568062 -0.49567208
68.662003 96.475563 0
68.680359 96.603455 0.91988647
66.478592 81.415489 -0.98035592
66.502937 81.586533 -0.49610764
67.838066 90.967667 0
68.64389 96.629662 0.92046702
66.453934 81.392868 -0.97891474
66.477325 81.558678 -0.49523708
67.794571 90.894989 0
68.605186 96.640388 0.92061204
66.43148 81.385567 -0.97833765
66.454666 81.551361 -0.49494651
67.759193 90.878937 0
68.567902 96.661377 0.92104757
66.405502 81.352638 -0.97632039
66.434174 81.559448 -0.49509153
67.727425 90.888611 0
68.527718 96.661713 0.92090201
66.383827 81.350388 -0.9760313
64 64 -0
67.694931 90.893097 0
68.490372 96.682602 0.9213376
66.358673 81.32251 -0.97430205
64 64 -0
67.659622 90.876915 0
68.45018 96.682861 0.92119259
66.332207 81.28434 -0.97199571
64 64 -0
67.629929 90.901947 0
68.41346 96.708817 0.92177314
66.309265 81.271759 -0.97113061
64 64 -0
67.585007 90.813461 0
68.371872 96.698669 0.9213376
66.285675 81.254021 -0.96997744
64 64 -0
67.559441 90.869362 0
68.332359 96.703926 0.9213376
66.259445 81.215759 -0.96767217
64 64 -0
66.282135 81.38868 0
66.701691 84.585449 0.57984239
66.233307 81.177437 -0.96536583
66.029633 79.610878 -0.43965131
66.254417 81.339821 0
66.670784 84.542297 0.57853568
66.209908 81.159607 -0.96421266
64 64 -0
66.217506 81.218636 0
66.641312 84.509445 0.57752013
66.196251 81.135284 -0.96277148
65.964996 79.331032 -0.43166906
66.207771 81.225151 0
66.626938 84.495567 0.5770846
66.170982 81.101997 -0.96075314
65.956291 79.410736 -0.43384629
66.184982 81.212311 0
66.597595 84.462631 0.57606846
66.143867 81.053291 -0.95787078
65.926643 79.325417 -0.43137848
66.175224 81.302727 0
66.570923 84.450302 0.57563347
66.12645 81.081535 -0.95931196
65.91198 79.358681 -0.43224961
66.144669 81.227859 0
66.542999 84.427612 0.5749079
66.095688 81.001945 -0.95469928
65.890877 79.340347 -0.43166906
66.128311 81.266602 0
66.515137 84.404869 0.5741818
66.070755 80.968513 -0.95268101
65.872337 79.342621 -0.43166906
66.10051 81.212326 0
66.488594 84.392433 0.5737468
66.048393 80.955612 -0.95181692
65.855667 79.360359 -0.43210462
66.080338 81.220032 0
66.4627 84.385094 0.57345623
66.024826 80.932381 -0.95037466
65.838959 79.378052 -0.43253961
66.055199 81.186356 0
66.433754 84.351952 0.57244068
66.000114 80.898865 -0.9483574
65.81427 79.328667 -0.43108851
66.04422 81.27153 0
66.410378 84.365189 0.57273066
65.978485 80.890991 -0.94778031
65.792114 79.299889 -0.43021795
66.009422 81.155075 0
66.382744 84.342285 0.57200515
65.953911 80.857407 -0.94576305
65.775421 79.317513 -0.43065295
65.995285 81.214371 0
66.356369 84.329651 0.57156956
65.932358 80.849472 -0.9451859
65.75573 79.309334 -0.43036294
65.962029 81.108185 0
66.331802 84.332489 0.57156956
65.907913 80.815811 -0.94316763
65.733131 79.275291 -0.42934683
65.957199 81.250168 0
66.310165 84.361099 0.57229513
65.879517 80.74614 -0.93913209
65.716988 79.298035 -0.42992738
65.921844 81.12323 0
66.284981 84.358719 0.57215011
65.842735 80.599304 -0.93077189
65.699074 79.305252 -0.4300724
65.904022 81.151398 0
66.259804 84.356308 0.57200515
65.801224 80.406128 -0.91981733
65.67775 79.281471 -0.42934683
65.880455 81.127823 0
64 64 0
65.732826 79.960907 -0.89473778
65.663765 79.324821 -0.43050793
65.859756 81.130081 0
66.210045 84.356544 0.57186013
65.698082 79.818977 -0.88666564
65.645248 79.32682 -0.43050793
65.836838 81.111618 0
64 64 0
65.668045 79.71814 -0.88089979
65.630569 79.364975 -0.43152407
65.811218 81.067223 0
64 64 0
65.639336 79.627548 -0.87571108
65.614166 79.387611 -0.43210462
65.792763 81.090103 0
66.132988 84.333405 0.57098901
65.612457 79.552345 -0.87138748
65.600395 79.436066 -0.43341073
65.768356 81.05603 0
66.10627 84.315285 0.57040846
65.589447 79.513115 -0.86908114
65.582275 79.443153 -0.43355572
65.750931 81.089218 0
66.084373 84.343658 0.57113403
65.565483 79.463547 -0.86619771
65.566231 79.470901 -0.43428129
65.732895 81.117203 0
66.06031 84.351349 0.57127959
65.541138 79.408829 -0.86302727
65.549088 79.488304 -0.43471685
65.720505 81.202156 0
66.036758 84.364159 0.57156956
65.528244 79.373718 -0.861009
65.540245 79.4944 -0.43486184
65.704964 81.151405 0
66.023422 84.355057 0.57127959
65.512703 79.406448 -0.86273926
65.521523 79.496254 -0.43486184
66.024483 84.618752 0
65.998825 84.357483 0.57127959
65.492088 79.387672 -0.86158609
65.503296 79.50325 -0.43500686
66.003082 84.657455 0
65.975731 84.375381 0.57171458
65.474976 79.404892 -0.86245018
65.485062 79.510239 -0.43515241
65.974648 84.623581 0
65.952103 84.388115 0.57200515
65.460251 79.447868 -0.86475652
65.465828 79.506836 -0.43500686
65.951195 84.641502 0
65.92942 84.411156 0.5725857
65.456963 79.614441 -0.87398183
65.44709 79.508591 -0.43500686
65.926254 84.643845 0
65.905243 84.41864 0.57273066
65.461342 79.868568 -0.88810682
65.429306 79.520691 -0.4352974
65.898445 84.615051 0
65.880089 84.415756 0.5725857
65.465103 80.122757 -0.90223283
65.411018 79.52758 -0.43544242
65.876358 84.648438 0
65.855888 84.423187 0.57273066
65.446083 80.129662 -0.9025209
65.391792 79.524101 -0.4352974
65.852341 84.661057 0
65.831673 84.43058 0.57287568
65.427505 80.141708 -0.90309799
65.373032 79.525772 -0.4352974
65.828293 84.673653 0
65.808365 84.448318 0.57331127
65.407097 80.13311 -0.9025209
65.355629 79.542953 -0.43573296
65.808731 84.738052 0
65.783653 84.450485 0.57331127
65.386719 80.124496 -0.90194482
65.33284 79.497971 -0.43442628
65.778328 84.678009 0
65.758499 84.447449 0.57316625
65.363304 80.079773 -0.89935046
65.31279 79.484047 -0.43399128
65.757736 84.732002 0
65.735542 84.470276 0.5737468
65.322311 80.057236 -0.89790821
65.265564 79.368042 -0.43065295
65.709335 84.756943 0
65.686493 84.479584 0.57389182
65.30291 80.058823 -0.89790821
65.249931 79.405823 -0.43166906
65.683411 84.748604 0
65.66259 84.491959 0.5741818
65.282272 80.044922 -0.89704412
65.246216 79.593796 -0.43689352
65.65834 84.750618 0
65.639069 84.509499 0.57461739
65.264511 80.067093 -0.89819729
65.229004 79.616013 -0.43747407
65.632858 84.747421 0
65.614693 84.51664 0.57476234
65.240295 80.006714 -0.89473778
65.20813 79.591583 -0.43674853
65.607384 84.744202 0
65.59111 84.534126 0.57519794
65.218201 79.972092 -0.89271951
65.184547 79.530853 -0.43500686
65.585091 84.782455 0
65.566292 84.536034 0.57519794
65.197739 79.958076 -0.89185435
65.161888 79.480461 -0.43355572
65.561142 84.799911 0
65.542259 84.548286 0.57548845
65.175789 79.923416 -0.88983709
65.157349 79.673615 -0.43892574
65.533714 84.770653 0
65.517815 84.555313 0.57563347
65.162773 79.877693 -0.88724273
65.490608 84.354324 -0.56997961
65.524963 84.823479 0
65.506531 84.571762 0.57606846
65.142838 79.868759 -0.88666564
65.472359 84.444221 -0.57244682
65.497185 84.788979 0
65.480927 84.563202 0.57577848
65.120377 79.823692 -0.88407123
65.44986 84.477097 -0.57331795
65.475006 84.832306 0
65.45755 84.585716 0.57635903
65.099106 79.794083 -0.88234204
65.430161 84.551407 -0.57534963
65.448029 84.808098 0
65.433754 84.60302 0.57679456
65.078255 79.769577 -0.88089979
65.407455 84.584236 -0.57622075
65.426788 84.866959 0
65.40815 84.59436 0.57650405
65.058853 79.765709 -0.88061178
65.380493 84.554802 -0.57534963
65.401222 84.86348 0
65.387794 84.663452 0.57839072
65.038101 79.741173 -0.87917054
65.355659 84.556458 -0.57534963
65.374306 84.839195 0
65.360771 84.634003 0.57752013
65.018745 79.737259 -0.87888253
65.33149 84.568459 -0.57564014
65.351471 84.877182 0
65.336845 84.651199 0.57795572
64.999069 79.728149 -0.87830544
65.305321 84.549309 -0.57505959
65.328224 84.909973 0
65.31321 84.673523 0.57853568
64.978783 79.708687 -0.87715226
65.278221 84.514557 -0.57404351
65.301987 84.895981 0
65.288223 84.675095 0.57853568
64.957588 79.673737 -0.875135
65.253754 84.521271 -0.57418847
65.279915 84.949478 0
65.263878 84.687019 0.57882625
64.940506 79.705849 -0.87686425
65.227089 84.491653 -0.57331795
65.251175 84.893875 0
65.239189 84.693718 0.57897127
64.70179 75.961639 -0.99880242
64.919106 79.665665 -0.87455791
65.066582 82.179398 -0.50858879
65.228065 84.931725 0
65.214188 84.695198 0.57897127
64.687042 75.957352 -0.99837488
64.897797 79.625443 -0.87225157
65.047005 82.222176 -0.50974989
65.203072 84.938408 0
65.190369 84.717407 0.57955182
64.877754 79.605858 -0.8710984
65.026733 82.25457 -0.51062101
65.177773 84.939842 0
65.166504 84.739578 0.58013237
64.657295 75.943596 -0.99709058
64.860321 79.632751 -0.87254065
65.003822 82.240227 -0.51018548
65.153038 84.951637 0
65.141441 84.740974 0.58013237
64.642311 75.934143 -0.99623549
64.839767 79.602776 -0.87081039
64.983734 82.277756 -0.51120156
65.127441 84.947823 0
65.116104 84.737152 0.57998741
64.626274 75.904137 -0.99366683
64.820908 79.603775 -0.87081039
64.961647 82.278931 -0.51120156
65.104042 84.985535 0
65.093231 84.780006 0.58114851
64.612152 75.910027 -0.99409604
64.798866 79.542763 -0.86735088
64.944893 82.383858 -0.51410383
65.079224 84.997261 0
65.067322 84.765739 0.58071291
64.596214 75.879982 -0.99152744
64.78035 79.548904 -0.86763996
64.923462 82.400566 -0.51453936
65.052025 84.962158 0
65.044312 84.808533 0.58187407
64.581108 75.865303 -0.99024308
64.760803 79.534325 -0.8667748
64.896912 82.313431 -0.51207215
65.030769 85.046593 0
65.018402 84.794205 0.58143848
64.566284 75.855751 -0.98938799
64.740303 79.499062 -0.86475652
64.854698 81.894058 -0.50031656
65.004341 85.027023 0
64.993279 84.795418 0.58143848
64.551003 75.835907 -0.98767614
64.720856 79.484436 -0.86389136
64.822922 81.677048 -0.49422097
64.97821 85.012619 0
64.968391 84.801788 0.5815835
64.541733 75.790085 -0.98382485
64.710785 79.469383 -0.86302727
64.808189 81.589294 -0.49175373
64.967186 85.049614 0
64.957497 84.838715 0.58259958
64.527481 75.790733 -0.98382485
64.692093 79.47023 -0.86302727
64.783684 81.517586 -0.48972204
64.940353 85.019577 0
64.932777 84.85025 0.58289015
64.512566 75.77597 -0.98254049
64.672272 79.445221 -0.86158609
64.763199 81.534081 -0.49015707
64.916542 85.057083 0
64.907585 84.851364 0.58289015
64.498985 75.791977 -0.98382485
64.651863 79.404671 -0.85927975
64.738274 81.446732 -0.48768982
64.892853 85.099777 0
64.882607 84.857635 0.58303517
64.483055 75.751526 -0.9804011
64.63282 79.395103 -0.85870266
64.716339 81.426834 -0.48710927
64.867363 85.100845 0
64.85762 84.863876 0.58318019
64.468849 75.752106 -0.9804011
64.61422 79.395859 -0.85870266
64.695282 81.427689 -0.48710927
64.841446 85.091484 0
64.833649 84.896042 0.58405071
64.453064 75.711624 -0.97697735
64.595016 79.381073 -0.8578375
64.673622 81.412949 -0.48667428
64.815964 85.092484 0
64.80941 84.923012 0.58477682
64.437569 75.676239 -0.97398114
64.575851 79.366287 -0.85697341
64.651024 81.372208 -0.48551315
64.676262 82.045609 0
64.78315 84.897995 0.58405071
64.423271 75.671631 -0.9735536
64.556908 79.356628 -0.85639632
64.62796 81.315849 -0.48391649
64.653885 82.030807 0
64.758278 84.909317 0.58434129
64.408447 75.651611 -0.97184175
64.537262 79.326279 -0.85466707
64.60376 81.223114 -0.48130426
64.630096 81.97438 0
64.733376 84.920593 0.58463126
64.39489 75.667496 -0.97312605
64.517693 79.295883 -0.8529368
