# .PCD v0.7 - Point Cloud Data file format
VERSION 0.7
FIELDS x y z
SIZE 4 4 4
TYPE F F F
COUNT 1 1 1
WIDTH 1955
HEIGHT 1
VIEWPOINT 0 0 0 1 0 0 0
POINTS 1955
DATA ascii
71.006027 145.46475 0
64 64 0
64 64 -0
70.907593 145.47316 0
64 64 0
64 64 -0
70.806107 145.44513 0
64 64 0
64 64 -0
70.722641 145.63484 0
64 64 0
64 64 -0
70.67968 145.71671 0
64 64 0
64 64 -0
70.607674 146.05675 0
64 64 0
64 64 -0
64 64 0
64 64 0
64 64 -0
64 64 0
64 64 0
64 64 -0
64 64 0
64 64 0
64 64 -0
71.074509 157.50031 0
70.001251 143.31561 2.2214649
64 64 -0
64 64 0
69.899239 143.2399 2.2191432
64 64 -0
64 64 0
69.795517 143.13812 2.2160954
64 64 -0
71.300446 165.36938 0
69.692795 143.04657 2.2133377
64 64 -0
71.16362 165.17563 0
69.599487 143.0845 2.2142088
64 64 -0
71.036667 165.11671 0
69.498146 143.00827 2.2118866
64 64 -0
70.905602 164.99533 0
69.403389 143.02521 2.2121766
64 64 -0
70.775894 164.88936 0
69.519623 146.18414 2.3004169
64 64 -0
70.650215 164.84036 0
69.425446 146.26854 2.3025942
64 64 -0
64 64 0
69.327377 146.29578 2.3031747
64 64 -0
64 64 0
69.225632 146.26584 2.3021586
64 64 -0
69.118469 146.14761 2.2986753
64 64 -0
70.151962 164.69469 0
69.025856 146.26266 2.301723
64 64 -0
70.034332 164.76959 0
64 64 0
64 64 -0
69.912262 164.77159 0
64 64 0
64 64 -0
69.778854 164.57602 0
64 64 0
64 64 -0
64 64 0
64 64 0
64 64 -0
64 64 0
64 64 0
64 64 -0
64 64 0
64 64 0
64 64 -0
64 64 0
68.651779 152.42059 2.4728336
64 64 -0
64 64 0
68.600792 152.47009 2.4741397
64 64 -0
64 64 0
68.48941 152.38736 2.4716725
64 64 -0
64 64 0
68.382095 152.38235 2.4713826
64 64 -0
64 64 0
68.273788 152.35643 2.4705114
64 64 -0
68.1707 152.43941 2.4726887
64 64 -0
64 64 0
68.066216 152.49628 2.4741397
64 64 -0
64 64 0
67.953011 152.36096 2.4702215
64 64 -0
64 64 0
67.848053 152.40723 2.4713826
64 64 -0
67.739906 152.38065 2.4705114
64 64 -0
67.631622 152.34875 2.4694958
64 64 -0
67.520309 152.23886 2.4663031
64 64 -0
64 64 0
67.415497 152.28978 2.4676092
64 64 -0
64 64 0
67.299469 152.04456 2.4606426
64 64 -0
64 64 0
67.183479 151.78363 2.4532409
64 64 -0
64 64 0
67.072487 151.6472 2.4493225
64 64 -0
64 64 0
66.967987 151.6924 2.4504836
64 64 -0
64 64 0
66.859825 151.6284 2.448597
64 64 -0
64 64 0
66.753616 151.6214 2.4483063
64 64 -0
64 64 0
66.64727 151.6091 2.4478714
64 64 -0
64 64 0
66.543518 151.68494 2.449903
64 64 -0
64 64 0
66.436264 151.6412 2.448597
64 64 -0
64 64 0
66.328705 151.58174 2.4468553
64 64 -0
64 64 0
66.217209 151.36111 2.4406147
64 64 -0
64 64 0
66.008835 151.48569 2.4439523
64 64 -0
64 64 0
65.958069 151.58041 2.4465647
64 64 -0
64 64 0
65.851471 151.54636 2.445549
64 64 -0
64 64 0
65.741234 151.32512 2.4393086
64 64 -0
64 64 0
65.626373 150.82837 2.4253757
64 64 -0
64 64 0
65.517632 150.61203 2.4192801
64 64 -0
64 64 0
65.4151 150.74371 2.4229085
64 64 -0
64 64 0
65.314133 150.99994 2.4300196
64 64 -0
64 64 0
65.210236 151.08981 2.4324868
64 64 -0
64 64 0
65.107246 151.2679 2.4374218
64 64 -0
64 64 0
65.208488 169.27429 2.9403038
64 64 -0
64 64 0
65.082352 169.37961 2.9432065
64 64 -0
64 64 0
64.955109 169.39124 2.9434965
64 64 -0
64 64 0
64.828339 169.46507 2.9455287
64 64 -0
64 64 0
64.702423 169.69464 2.9519143
64 64 -0
64 64 0
64.574486 169.65384 2.9507532
64 64 -0
64 64 0
64.447548 169.82593 2.9555428
64 64 -0
64 64 0
64.320129 169.97711 2.9597516
64 64 -0
64 64 0
64.192245 170.07095 2.962364
64 64 -0
64 64 0
64.064186 170.2374 2.9670084
64 64 -0
64 64 0
63.935783 170.28937 2.9684594
64 64 -0
64 64 0
63.807026 170.47108 2.9735389
64 64 -0
63.678123 170.55392 2.9758611
64 64 -0
64 64 0
63.54887 170.67297 2.9791989
64 64 -0
64 64 0
63.419243 170.80746 2.9829729
64 64 -0
64 64 0
63.289841 170.85864 2.9844239
64 64 -0
64 64 0
63.1595 171.01361 2.9887779
64 64 -0
64 64 0
63.094276 171.08063 2.9906645
64 64 0
62.963383 171.23535 2.9950185
64 64 -0
64 64 0
62.834206 171.19766 2.9940028
64 64 0
62.703049 171.33127 2.9977763
64 64 0
64 64 0
64 64 0
62.437645 171.7435 3.0093868
64 64 0
62.304932 171.90262 3.0138857
64 64 -0
64 64 0
62.172005 172.05118 3.0180945
64 64 0
62.041164 172.06448 3.0185301
64 64 0
61.909283 172.12958 3.020417
64 64 0
61.77874 172.12177 3.0202713
64 64 0
61.642899 172.35799 3.0269475
64 64 0
61.511017 172.39662 3.0281086
64 64 -0
64 64 0
61.371124 172.76239 3.038413
64 64 0
64 64 0
64 64 0
64 64 0
64 64 -0
64 64 0
64 64 0
64 64 -0
64 64 0
64 64 0
64 64 -0
61.587971 143.8241 0
64 64 0
64 64 -0
61.490376 143.85754 0
64 64 0
64 64 -0
61.392189 143.90646 0
64 64 0
64 64 -0
61.296871 143.86682 0
64 64 0
64 64 -0
61.200916 143.84792 0
64 64 0
64 64 -0
61.104626 143.83928 0
64 64 0
64 64 -0
61.008354 143.83051 0
64 64 0
64 64 -0
60.911694 143.83205 0
64 64 0
64 64 -0
60.864079 143.81456 0
60.103748 163.16623 2.7716603
64 64 -0
60.768272 143.7951 0
59.988556 163.04723 2.7684677
64 64 -0
60.672073 143.78595 0
59.86866 163.04749 2.7686126
64 64 -0
60.574554 143.80786 0
59.752327 162.96457 2.7664359
64 64 -0
60.478813 143.78806 0
59.634811 162.91263 2.7651298
64 64 -0
60.383114 143.76816 0
59.511536 162.99033 2.7674515
64 64 -0
60.287216 143.75333 0
59.392895 162.96408 2.766871
64 64 -0
60.190853 143.74878 0
59.272823 162.96883 2.7671614
64 64 -0
60.092712 143.78052 0
59.15451 162.9371 2.7664359
64 64 -0
59.997883 143.74454 0
59.034969 162.93117 2.7664359
64 64 -0
64 64 0
58.797546 162.88773 2.7655647
64 64 -0
64 64 0
58.679459 162.85544 2.7648392
64 64 -0
64 64 0
58.564011 162.77629 2.7628076
64 64 -0
64 64 0
58.446121 162.74371 2.7620821
64 64 -0
64 64 0
58.327114 162.73172 2.7619364
64 64 -0
64 64 0
58.207821 162.72479 2.7619364
64 64 -0
64 64 0
58.087292 162.73848 2.762517
64 64 -0
64 64 0
57.967991 162.73126 2.762517
64 64 -0
64 64 0
57.850311 162.69797 2.7617915
64 64 -0
64 64 0
57.730072 162.70604 2.7622271
64 64 -0
64 64 0
57.610138 162.70874 2.762517
64 64 -0
64 64 0
57.493607 162.65947 2.7613559
64 64 -0
64 64 0
57.374401 162.65154 2.7613559
64 64 -0
64 64 0
57.256622 162.62271 2.7607753
64 64 -0
64 64 0
57.197758 162.60828 2.7604854
64 64 -0
64 64 0
57.080067 162.57925 2.7599049
64 64 -0
56.96244 162.55008 2.7593243
64 64 -0
64 64 0
56.845249 162.51559 2.7585986
64 64 -0
64 64 0
56.724686 162.5276 2.7591791
64 64 -0
56.604862 162.52908 2.7594693
64 64 -0
56.488579 162.48383 2.7584536
64 64 -0
56.369991 162.46948 2.7583082
64 64 -0
56.25346 162.42911 2.7574375
64 64 -0
56.134949 162.41452 2.7572925
64 64 0
56.018982 162.36867 2.7562764
64 64 -0
64 64 0
55.898849 162.3745 2.756712
64 64 -0
64 64 0
55.785614 162.29732 2.7548254
64 64 -0
64 64 0
55.667282 162.28215 2.7546804
64 64 -0
64 64 0
55.544529 162.3186 2.7559865
64 64 -0
64 64 0
55.429798 162.26172 2.7546804
64 64 0
55.315655 162.19952 2.7532287
64 64 0
56.840153 143.86121 2.2393167
64 64 0
56.744606 143.84213 2.2390261
64 64 0
56.634315 143.98338 2.2432351
64 64 0
56.531403 144.04169 2.2451217
64 64 0
56.428822 144.0947 2.2468634
56.329079 144.11652 2.2477338
56.220242 144.23132 2.2512174
56.120258 144.2529 2.2520878
56.017124 144.30536 2.2538295
55.955162 144.43497 2.2576029
55.852219 144.48207 2.2591996
55.789406 144.13615 2.2497661
55.742424 143.64546 2.2362688
51.60014 182.20576 0
55.657036 143.53206 2.233366
51.425465 182.49089 0
55.464973 144.42624 2.258764
55.345062 144.62772 2.2647145
55.249889 144.59653 2.2641339
55.159317 144.52393 2.2623923
55.067184 144.46669 2.2610862
54.141701 151.83548 2.4684799
54.05901 151.61697 2.4626746
53.974464 151.41904 2.4574497
53.87064 151.39136 2.4570141
53.76384 151.3894 2.4573047
53.642982 151.50598 2.460933
53.547131 151.41084 2.4586108
53.459595 151.24854 2.454402
53.352291 151.25122 2.4548376
64 64 -0
53.204441 151.58252 0
53.236065 151.32596 2.4573047
64 64 -0
53.102482 151.53842 0
53.047745 151.97812 2.4760265
64 64 -0
52.929131 152.06279 2.4787843
64 64 -0
52.848255 151.8483 2.4731243
52.704014 151.29541 2.4583209
52.59787 151.28687 2.4584658
47.398743 190.49275 0
52.564072 151.13568 2.454402
55.588493 127.49644 1.7888266
55.522793 127.40383 1.7865049
52.819942 146.85706 0
55.476074 127.17207 1.7802638
52.724747 146.8074 0
55.437607 126.8837 1.7724271
52.623993 146.79886 0
55.397705 126.61075 1.7650254
55.235409 127.22536 0
55.336327 126.49734 1.7621226
55.190742 126.98791 0
55.26226 126.47653 1.761832
55.113911 126.98236 0
55.191132 126.43506 1.7609615
55.045151 126.92006 0
55.114964 126.42951 1.7611065
54.977264 126.85254 0
55.041748 126.40332 1.7606715
54.908039 126.79521 0
54.961887 126.42329 1.7615421
56.054962 118.41011 0
54.885719 126.41747 1.761687
55.968754 118.53949 0
54.805763 126.43727 1.7625581
55.890625 118.61212 0
54.722694 126.47751 1.7640092
55.79921 118.77215 0
54.634125 126.55362 1.7664765
55.7276 118.79821 0
54.543808 126.63989 1.7692343
55.660606 118.79333 0
54.45953 126.68492 1.7708304
55.596775 118.76778 0
54.385368 126.66309 1.7705404
55.536972 118.71644 0
54.305687 126.67709 1.771266
55.479683 118.6496 0
59.326912 93.973335 0.84721076
55.422543 118.58272 0
59.286667 93.993332 0.84793633
55.37125 118.47978 0
59.24799 94.003021 0.84837186
55.316093 118.4025 0
59.218292 93.9562 0.84721076
55.281582 118.40752 0
59.195263 93.984085 0.84808129
55.717831 115.28835 0
59.164833 93.94236 0.84706575
55.674255 115.16529 0
59.135334 93.895462 0.84590465
55.618332 115.11923 0
59.105942 93.848534 0.84474355
54.958488 118.72934 0
59.083435 93.760559 0.84242129
54.937656 118.44626 0
59.058571 93.687958 0.84053463
54.913193 118.18889 0
59.022701 93.681961 0.84053463
54.865929 118.0701 0
58.981647 93.706665 0.84140515
54.835526 117.85379 0
58.947498 93.690338 0.84111518
54.892693 117.12962 0
58.909874 93.69445 0.84140515
54.771828 117.44682 0
58.881065 93.647331 0.84024465
54.678719 117.5997 0
58.863945 93.533607 0.83719683
54.637306 117.45511 0
58.834541 93.491539 0.83618075
54.586285 117.36689 0
58.801617 93.469917 0.83574516
54.536373 117.27348 0
58.771465 93.432922 0.83487463
54.489426 117.16465 0
49.016697 147.75751 2.3763211
54.419655 117.18387 0
48.899841 147.82629 2.3787882
54.258797 117.70483 0
48.797638 147.81308 2.3789332
54.116299 118.118 0
48.71505 147.69241 2.3760304
47.79052 152.15189 0
58.599384 93.370125 0.83400351
47.689697 152.10153 0
58.582817 93.261398 0.83110124
47.583256 152.08176 0
58.499859 93.510246 0.83835739
47.467239 152.11301 0
64 64 0
47.353058 152.13388 0
64 64 0
47.256298 152.06258 0
64 64 0
47.198219 152.078 0
55.8638 106.65144 1.2126527
47.083958 152.09854 0
55.874985 106.31496 1.2033644
50.380863 134.46838 0
59.454628 87.518753 0.66898841
50.300697 134.42632 0
59.424225 87.52346 0.66927898
50.214607 134.41484 0
59.392807 87.533218 0.66971451
50.155701 134.26535 0
59.360359 87.548027 0.67029506
54.789173 110.45261 0
59.339996 87.501625 0.66913396
54.720829 110.50269 0
55.75045 105.34274 1.1773859
54.665672 110.48634 0
55.7005 105.33274 1.1773859
54.623943 110.40359 0
59.275421 87.382698 0.66623116
54.572029 110.37183 0
54.564247 110.41011 1.3226632
54.527473 110.30433 0
55.395542 106.06097 1.1990105
49.849712 132.32915 0
55.419327 105.43451 1.1817398
49.762917 132.33238 0
59.105621 87.491081 0.67014951
49.680359 132.31512 0
59.075108 87.495331 0.67044008
49.578495 132.38943 0
59.042431 87.509705 0.67102063
55.06797 106.10529 0
59.012951 87.508774 0.67116565
55.019272 106.08429 0
54.786316 107.17593 1.2329717
54.940025 106.20572 0
54.730881 107.18 1.2334067
54.878052 106.24561 0
54.682003 107.15354 1.2329717
54.820385 106.26506 0
54.665161 106.97974 1.2283273
54.765991 106.2692 0
54.795128 106.13582 1.2045255
54.724976 106.21227 0
58.802498 87.654732 0.67639065
54.675098 106.19595 0
58.768314 87.673805 0.67711622
54.651863 106.18013 0
58.764133 87.624985 0.6758101
54.605431 106.14848 0
64 64 0
54.554508 106.1371 0
58.744568 87.444916 0.67102063
54.503601 106.12566 0
58.727673 87.38784 0.66956896
54.4412 106.16492 0
54.694263 105.04862 1.1754992
54.377533 106.20915 0
54.640053 105.05762 1.1760798
54.321888 106.21779 0
54.595093 105.02602 1.1754992
46.363037 140.51123 0
58.556332 87.61528 0.67682564
46.26355 140.52029 0
58.525452 87.61882 0.67711622
46.175827 140.47852 0
58.482761 87.672928 0.67885792
48.003597 132.26285 0
58.425709 87.787659 0.68234068
47.918739 132.2536 0
58.386246 87.826424 0.6836468
47.831478 132.25439 0
58.36824 87.774117 0.68234068
47.751434 132.22467 0
49.897285 123.21463 1.7000062
52.646534 111.41676 0
50.128265 121.9341 1.6637233
52.61483 111.29675 0
50.094765 121.76572 1.6593689
52.582176 111.18178 0
50.037197 121.69836 1.6579177
52.578075 110.95049 0
50.026451 121.43909 1.6509516
64 64 -0
52.549793 110.82036 0
49.991623 121.28082 1.6468877
64 64 -0
52.505653 110.75595 0
49.936066 121.20835 1.6452916
64 64 -0
52.435429 110.79762 0
53.700504 105.67831 1.1990105
64 64 -0
52.38015 110.77855 0
53.61758 105.79697 1.2027838
52.323635 110.76447 0
53.569599 105.77431 1.2024938
52.269669 110.74024 0
53.495098 105.85744 1.205251
52.236351 110.75334 0
53.476151 105.82589 1.2045255
52.177319 110.74918 0
49.472103 121.44612 1.6548699
52.18623 110.47759 0
49.406544 121.41341 1.6544344
52.212528 110.14055 0
58.406643 85.894485 0.63110936
52.244804 109.78348 0
58.385361 85.867577 0.63052881
52.262314 109.48701 0
58.356346 85.870827 0.63081884
52.241329 109.34181 0
58.339054 85.828796 0.62980324
64 64 -0
52.262688 109.03545 0
58.320549 85.791756 0.62893212
52.246521 108.87523 0
58.303436 85.749702 0.62791657
52.234695 108.69994 0
58.281128 85.727722 0.62748104
52.20332 108.60014 0
58.260193 85.700699 0.62690049
52.194901 108.41483 0
58.229973 85.708817 0.62733603
64 64 -0
52.160042 108.33013 0
58.211792 85.671692 0.6264649
52.129421 108.23033 0
58.182915 85.674736 0.62675548
52.075985 108.21596 0
58.166203 85.632561 0.62573934
51.996704 108.29698 0
58.141426 85.620483 0.62559438
51.956863 108.23221 0
58.107117 85.643463 0.6264649
51.92952 108.12225 0
58.085083 85.621284 0.62602937
51.909321 107.98718 0
58.056206 85.624161 0.62631989
51.885277 107.86719 0
58.027317 85.626968 0.62660992
51.880985 107.67699 0
57.998409 85.629761 0.62690049
64 64 -0
51.867355 107.52193 0
57.972279 85.62249 0.62690049
51.838638 107.42203 0
64 64 0
51.844757 107.29943 0
57.910625 85.691589 0.62922269
64 64 -0
51.807991 107.2296 0
57.888653 85.669205 0.62878716
57.960289 85.316566 0
57.849724 85.706802 0.63009328
57.924561 85.344299 0
57.823502 85.699356 0.63009328
64 64 0
47.640434 120.95157 1.6548699
57.874653 85.227112 0
47.574509 120.92178 1.65458
57.856251 85.19471 0
47.501408 120.91685 1.655015
64 64 -0
57.839378 85.157272 0
47.460247 120.80209 1.6522577
64 64 -0
57.829887 85.094879 0
47.396004 120.76709 1.6518222
64 64 -0
57.811737 85.062439 0
55.749027 92.083115 0.81745845
64 64 -0
57.786293 85.054947 0
55.68568 92.172806 0.8203612
57.760857 85.047424 0
55.619156 92.272346 0.82355398
57.739887 85.024902 0
55.558304 92.351868 0.82616681
57.715977 85.012344 0
55.519588 92.356567 0.8266018
57.695087 84.989769 0
55.476357 92.376175 0.82747293
57.669731 84.98214 0
55.458591 92.311119 0.82587624
64 64 -0
57.645889 84.969498 0
46.823936 120.68352 1.6541444
57.619041 84.966782 0
46.776642 120.59313 1.6521127
57.598278 84.944115 0
55.392479 92.16069 0.82239288
57.568394 84.951294 0
55.370655 92.11055 0.82123232
57.535416 84.968376 0
55.336693 92.100098 0.82123232
64 64 -0
57.503925 84.980438 0
55.295063 92.114426 0.82195789
64 64 -0
57.474281 85.031197 0
55.275002 92.11908 0.82224786
57.439587 85.053101 0
55.250305 92.078758 0.82137734
64 64 -0
57.524147 84.693672 -0.60557264
57.417259 85.035233 0
55.210175 92.088005 0.82195789
57.513168 84.64122 -0.60426652
52.606022 100.25586 0
55.159111 92.131882 0.82355398
64 64 -0
57.489796 84.62841 -0.60412151
52.607647 100.09813 0
55.096966 92.210396 0.82616681
57.471157 84.600716 -0.60354096
52.564041 100.08434 0
55.055038 92.224388 0.82689238
64 64 -0
57.455727 84.563087 -0.60266984
52.605682 99.802658 0
46.223938 119.85506 1.6370188
57.434048 84.545273 -0.60237986
52.635307 99.560837 0
46.161209 119.81868 1.6365832
57.423519 84.492798 -0.60107374
52.644833 99.38353 0
46.063606 119.89111 1.639341
57.40992 84.450203 -0.6000576
52.681908 99.122086 0
45.98333 119.90897 1.6405021
60.520405 74.753288 -0.62988096
57.399612 84.397736 -0.59875149
52.838169 98.494354 0
45.874191 120.01571 1.6442754
60.494625 74.788437 -0.63218731
60.04871 76.160828 -0.35710669
52.822231 98.401634 0
45.820976 119.94929 1.6429694
60.48159 74.784195 -0.63218731
64 64 -0
52.787128 98.368309 0
45.763062 119.89763 1.6420983
60.468563 74.779938 -0.63218731
64 64 -0
52.745609 98.354736 0
45.705235 119.84593 1.6412277
60.457153 74.770752 -0.6318993
64 64 -0
52.746391 98.21257 0
45.621536 119.87314 1.6426789
60.440903 74.776276 -0.63247532
64 64 -0
52.718117 98.159409 0
45.527962 119.92985 1.6450011
60.422997 74.786705 -0.63334048
59.973679 76.141663 -0.35725167
59.950573 76.211327 0
45.455482 119.92229 1.6454366
60.408333 74.787277 -0.63362849
59.940948 76.191032 -0.35884836
59.939114 76.196541 0
45.397781 119.87025 1.6445655
60.401863 74.763306 -0.63247532
59.901512 76.260033 -0.36102504
64 64 0
45.312157 119.90195 1.6461622
60.385563 74.768768 -0.63305247
59.893314 76.235367 -0.36044449
64 64 0
45.247936 119.86946 1.6458716
60.369255 74.774185 -0.63362849
59.881847 76.220551 -0.36015448
64 64 0
45.162186 119.90094 1.6474683
60.328941 74.850471 -0.95482832
60.354584 74.774689 -0.6339165
59.832111 76.318939 -0.36320227
64 64 0
45.029701 120.07011 1.6531283
60.39674 74.607849 -0.93385994
60.348221 74.750679 -0.63276339
59.805527 76.348351 -0.36421838
59.8722 76.152069 0
44.809868 120.49493 1.6663356
60.441921 74.433418 -0.91888231
60.330223 74.760956 -0.63362849
59.730228 76.520325 -0.36944285
59.865917 76.122444 0
44.713104 120.55531 1.6688029
60.459255 74.341675 -0.91117811
60.313869 74.766312 -0.63420564
59.711735 76.525002 -0.36973339
59.852959 76.112526 0
44.638046 120.55164 1.6693834
60.456772 74.308266 -0.90861112
60.305908 74.747162 -0.63334048
59.705055 76.495224 -0.36900729
59.824787 76.146881 0
44.569733 120.5282 1.6693834
60.450542 74.306122 -0.90861112
60.294361 74.759613 -0.63420564
59.670429 76.571243 -0.37132952
59.771694 76.277222 0
44.56266 120.43784 1.6670611
60.45319 74.258163 -0.90475982
60.284748 74.745338 -0.63362849
59.646751 76.590561 -0.37205508
59.695629 76.449196 0
54.090572 92.660263 0.84692019
60.450905 74.224754 -0.90219122
60.266674 74.755508 -0.63449365
64 64 -0
59.670353 76.47348 0
59.830994 76.010689 0.35506833
60.482471 74.094414 -0.89106488
60.262192 74.72657 -0.63305247
60.216545 74.857559 -0.32111377
59.646721 76.492805 0
59.806225 76.03508 0.35593888
60.497402 74.012619 -0.88421738
60.240696 74.746452 -0.63449365
60.205143 74.848083 -0.32096878
59.633347 76.482628 0
59.796829 76.015297 0.35550389
60.558453 73.800095 -0.86581606
60.229424 74.73703 -0.63420564
60.195477 74.833694 -0.32067877
59.621719 76.467514 0
59.797817 75.966064 0.3541972
60.62513 73.573204 -0.84613037
60.22506 74.708054 -0.63276339
60.225586 74.706558 -0.31705043
59.603195 76.472038 0
59.78336 75.960983 0.3541972
60.637543 73.501373 -0.84013963
60.203487 74.727882 -0.63420564
59.498375 76.720337 -0.37684453
60.183708 74.783775 0
59.789711 75.897102 0.35245609
60.656998 73.410225 -0.83243704
60.251141 74.552673 -0.62411511
59.512581 76.631638 -0.37437731
60.18462 74.739922 0
59.804913 75.808762 0.34998885
60.662876 73.357811 -0.82815659
60.372177 74.172989 -0.60191798
59.493828 76.636009 -0.37466785
56.92342 83.843826 0
59.811592 75.744949 0.34824717
60.668873 73.305443 -0.82387769
60.438339 73.949432 -0.58894515
59.471558 76.650124 -0.37524843
56.885414 83.874466 0
59.834183 75.637131 0.34519938
60.67152 73.262756 -0.820454
60.454304 73.867249 -0.58433354
59.445736 76.673981 -0.37611899
56.850842 83.895256 0
59.87812 75.470703 0.34040993
60.67775 73.210442 -0.8161751
60.451164 73.838615 -0.58289129
59.419846 76.697792 -0.37698954
56.809151 83.935555 0
60.003563 75.079529 0.32894433
60.657883 73.23056 -0.81831455
60.462173 73.771095 -0.57914376
59.420429 76.64827 -0.37568343
52.032799 97.052094 0
60.06625 74.864586 0.32270375
60.673042 73.154129 -0.81189466
60.473335 73.703613 -0.57539624
59.383846 76.70134 -0.3774251
52.035534 96.920219 0
60.085075 74.771919 0.32009152
60.684856 73.087402 -0.80633146
60.484661 73.636169 -0.57164872
60.442425 73.751945 -0.28991032
56.554993 84.408089 0
60.105904 74.674408 0.31733373
60.67564 73.078575 -0.80590391
60.483688 73.602783 -0.56991947
60.43243 73.742767 -0.28976533
56.532127 84.394196 0
60.116238 74.606262 0.31544706
60.684158 73.021538 -0.80119586
60.498859 73.525688 -0.56559485
60.452927 73.650658 -0.2871531
56.541607 84.292328 0
60.126728 74.538155 0.31356037
60.698135 72.950096 -0.79520512
60.499878 73.487495 -0.56357759
60.45026 73.621994 -0.28642753
56.509888 84.302834 0
60.142776 74.45546 0.31123814
60.710495 72.85067 -0.78707498
60.513004 73.382034 -0.55781174
60.461418 73.520828 -0.28366974
60.393764 73.70285 0
60.159161 74.334076 0.30790037
60.719543 72.79377 -0.78236693
60.505291 73.368111 -0.55723464
60.466263 73.472725 -0.28236362
60.40205 73.644859 0
60.1721 74.261269 0.30586869
60.712517 72.78019 -0.78151184
60.530243 73.267006 -0.55146986
60.467571 73.434395 -0.28134805
60.394054 73.630745 0
60.181572 74.198235 0.30412701
60.710945 72.752167 -0.77937078
60.528152 73.238579 -0.55002761
60.474461 73.381462 -0.27989638
60.411709 73.548439 0
60.187538 74.144958 0.30267534
60.709274 72.740578 -0.77851564
60.535324 73.202606 -0.54801035
60.48344 73.340424 -0.27873528
60.431618 73.478065 0
60.210701 74.06485 0.30035368
60.702347 72.726982 -0.77765888
60.544323 73.14518 -0.54483891
60.485012 73.302147 -0.27771971
60.445923 73.405594 0
60.229767 73.977631 0.29788643
60.691807 72.722992 -0.77765888
60.546112 73.107155 -0.54282165
60.494045 73.244438 -0.27612305
60.454865 73.347748 0
60.249043 73.890465 0.29541919
60.692223 72.690208 -0.77509189
60.540634 73.08847 -0.54195648
60.499516 73.196487 -0.27481693
60.471344 73.270508 0
60.292553 73.740227 0.29106531
60.679893 72.690994 -0.77551949
60.544422 73.045624 -0.53965014
60.501389 73.158264 -0.27380082
60.480576 73.212746 0
60.295624 73.696899 0.28990418
60.667561 72.691765 -0.77594703
60.559418 72.973824 -0.53561461
60.510788 73.10067 -0.2722047
60.489941 73.155037 0
60.291351 73.673004 0.28932363
60.668118 72.658997 -0.77338004
60.556007 72.950348 -0.53446144
60.520325 73.043091 -0.27060801
60.486359 73.131363 0
60.292732 73.63456 0.28830752
60.655811 72.659744 -0.77380759
60.567558 72.888275 -0.53100193
60.52063 73.009796 -0.26973745
60.507202 73.044571 0
60.294197 73.596138 0.28729138
60.650909 72.64135 -0.77252495
60.566166 72.860008 -0.52956074
60.52853 72.957123 -0.26828578
60.498161 73.035477 0
60.303261 73.538361 0.28569528
60.636753 72.646858 -0.77338004
60.568592 72.822098 -0.52754241
60.527126 72.928711 -0.26756024
60.496677 73.006989 0
60.291737 73.53389 0.28569528
60.639378 72.609306 -0.77038383
60.57674 72.769768 -0.52466005
60.520115 72.914833 -0.26727024
60.499043 72.968819 0
60.30101 73.476143 0.2840986
60.627098 72.610031 -0.77081305
60.583126 72.722282 -0.5220657
60.507454 72.915451 -0.26741523
60.493904 72.950043 0
60.306618 73.428123 0.28279248
60.63924 72.548615 -0.76567745
60.580158 72.698891 -0.52091253
60.529003 72.82901 -0.26494801
60.488808 72.931259 0
60.31234 73.380127 0.28148636
60.628914 72.544548 -0.76567745
60.582943 72.661064 -0.5188942
60.518341 72.824814 -0.26494801
60.495209 72.883438 0
60.335339 73.288658 0.27887413
60.609142 72.564331 -0.7678169
60.578194 72.642494 -0.51802909
60.511509 72.810921 -0.26465744
60.503635 72.830811 0
60.356636 73.202087 0.27640691
60.619652 72.507736 -0.76310885
60.58112 72.604713 -0.51601183
60.506615 72.792229 -0.26422244
60.500652 72.807236 0
60.357037 73.168686 0.27553579
60.603668 72.51796 -0.76439315
60.56881 72.605377 -0.51629984
60.494072 72.792824 -0.26436743
60.484238 72.81749 0
60.390228 73.053268 0.27219799
60.593376 72.513847 -0.76439315
60.568024 72.577217 -0.51485866
60.491173 72.769279 -0.26378688
64 64 0
60.373505 73.063354 0.27263299
60.590744 72.490669 -0.76268125
60.565372 72.553864 -0.51370549
60.501881 72.711983 -0.26219022
60.470695 72.789642 0
60.385784 73.001114 0.27089188
60.588161 72.467499 -0.7609694
60.549244 72.564087 -0.51456958
60.481647 72.731842 -0.26291576
60.463966 72.775726 0
60.369091 73.011192 0.27132687
60.576012 72.468124 -0.76139694
60.546654 72.540726 -0.51341641
60.478886 72.708328 -0.26233578
60.441662 72.800392 0
60.373791 72.968254 0.27016577
60.565781 72.463974 -0.76139694
60.540222 72.52697 -0.51284033
60.470325 72.699242 -0.26219022
60.43494 72.786453 0
60.362957 72.963867 0.27016577
64 64 -0
60.531872 72.517998 -0.51255232
60.461773 72.690163 -0.2620452
64 64 0
60.352127 72.959465 0.27016577
64 64 -0
60.513756 72.532959 -0.51370549
60.453239 72.681076 -0.26190022
60.43734 72.719986 0
60.362919 72.902145 0.26856965
64 64 -0
60.516438 72.511696 -0.51255232
60.44603 72.683731 -0.2620452
60.443897 72.688942 0
60.347702 72.923988 0.26929522
64 64 -0
64 64 -0
60.441463 72.665009 -0.26160964
60.453178 72.636482 0
60.340866 72.909966 0.26900521
64 64 -0
60.487995 72.522385 -0.51370549
60.438915 72.641479 -0.26102909
60.403084 72.728439 0
60.338024 72.886314 0.26842466
64 64 -0
60.487591 72.494217 -0.51226324
60.438404 72.613167 -0.26030353
60.414421 72.671173 0
60.331264 72.872269 0.26813409
64 64 -0
60.477329 72.489967 -0.51226324
60.418045 72.632851 -0.26102909
60.403946 72.666832 0
60.326523 72.853424 0.26769853
64 64 -0
64 64 -0
60.407616 72.628517 -0.26102909
60.385475 72.681702 0
60.307838 72.868172 0.26827911
64 64 -0
64 64 -0
60.393181 72.633766 -0.26131964
60.372974 72.682144 0
60.293114 72.873306 0.26856965
64 64 -0
64 64 -0
60.39481 72.600639 -0.26044855
60.364502 72.672943 0
60.290432 72.849648 0.2679891
64 64 -0
64 64 -0
60.382401 72.601082 -0.2605941
60.374203 72.620575 0
60.301907 72.792458 0.26639241
64 64 -0
64 64 -0
60.372009 72.596703 -0.2605941
60.367832 72.606598 0
60.281178 72.811935 0.26711854
64 64 -0
64 64 -0
60.365681 72.582733 -0.26030353
60.363525 72.587822 0
60.284718 72.773933 0.26610243
64 64 -0
64 64 -0
60.351246 72.587914 -0.2605941
60.347046 72.597801 0
60.255833 72.812485 0.26740855
64 64 -0
64 64 -0
60.328648 72.612167 -0.26146466
60.338707 72.588577 0
60.253338 72.788826 0.26682797
64 64 -0
64 64 -0
60.355026 72.521729 -0.25885242
60.324234 72.593727 0
60.248856 72.769958 0.26639241
64 64 -0
64 64 -0
60.342686 72.522095 -0.25899741
60.303589 72.61319 0
60.238262 72.765419 0.26639241
64 64 -0
64 64 -0
60.326225 72.53199 -0.25943297
60.305531 72.580048 0
60.233833 72.746559 0.26595742
64 64 -0
64 64 -0
60.311798 72.537079 -0.25972298
60.299301 72.56601 0
60.208847 72.775383 0.26697299
64 64 -0
64 64 -0
60.303551 72.527847 -0.25957799
60.276535 72.590172 0
60.216843 72.72789 0.26566687
64 64 -0
64 64 -0
60.289101 72.532921 -0.25986853
60.2537 72.614319 0
60.202152 72.732849 0.26595742
64 64 -0
64 64 -0
60.270489 72.547462 -0.26044855
60.274521 72.538223 0
60.202 72.704422 0.26523131
64 64 -0
64 64 -0
60.26849 72.523926 -0.25986853
60.220375 72.633835 0
60.183147 72.718872 0.26581186
64 64 -0
64 64 -0
60.266552 72.500381 -0.25928798
60.25808 72.519669 0
60.172615 72.714256 0.26581186
64 64 -0
64 64 -0
60.247902 72.514885 -0.25986853
60.249886 72.510384 0
60.164185 72.704872 0.26566687
64 64 -0
64 64 -0
60.236469 72.526863 -0.26030353
60.198509 72.612869 0
60.171513 72.674034 0.26479632
64 64 -0
64 64 -0
60.245106 72.479546 -0.25899741
60.234467 72.503571 0
60.167347 72.655144 0.26436076
64 64 -0
64 64 -0
60.230637 72.484512 -0.25928798
60.230537 72.484741 0
60.144238 72.678993 0.26523131
64 64 -0
64 64 -0
60.211926 72.49894 -0.25986853
60.213928 72.494446 0
60.131634 72.679085 0.26537687
64 64 -0
64 64 -0
64 64 -0
60.212273 72.470619 -0.25914243
60.205799 72.4851 0
60.123276 72.669647 0.26523131
64 64 -0
64 64 -0
60.204166 72.461304 -0.25899741
60.176369 72.52327 0
60.104294 72.683922 0.26581186
64 64 -0
64 64 -0
60.193943 72.456711 -0.25899741
60.174618 72.499657 0
60.083134 72.702919 0.26653796
64 64 -0
64 64 -0
60.200836 72.414215 -0.25783631
60.155781 72.514 0
60.074764 72.693428 0.26639241
64 64 -0
64 64 -0
60.1628 72.471153 -0.25972298
60.151939 72.495125 0
60.059971 72.698158 0.26668298
64 64 -0
64 64 -0
60.156864 72.457054 -0.25943297
60.139526 72.495201 0
60.053768 72.683922 0.26639241
64 64 -0
64 64 -0
60.15527 72.433487 -0.25885242
60.129265 72.490532 0
60.05621 72.65078 0.26552185
64 64 -0
64 64 -0
60.132118 72.457184 -0.25972298
60.12767 72.466911 0
60.037113 72.664917 0.26610243
60.163738 72.33474 -0.76482069
60.180603 72.298096 -0.50909281
60.109512 72.452545 -0.25986853
60.098515 72.47644 0
60.007492 72.674194 0.26668298
60.15797 72.320786 -0.76396561
60.166245 72.302864 -0.50966889
60.0993 72.447838 -0.25986853
60.077366 72.495346 0
60.00573 72.65049 0.26610243
60.150074 72.311478 -0.763538
60.1236 72.368637 -0.5139935
60.078178 72.466698 -0.2605941
60.086792 72.448097 0
59.979988 72.678673 0.26711854
60.135712 72.316124 -0.76439315
60.122211 72.345177 -0.51284033
60.087658 72.41954 -0.25928798
60.070004 72.457527 0
59.971703 72.669083 0.26697299
60.134342 72.292839 -0.76268125
60.096828 72.373314 -0.51485866
60.068707 72.433647 -0.25986853
60.022408 72.532967 0
59.945858 72.697189 0.2679891
60.119972 72.29747 -0.763538
60.099865 72.340469 -0.5131284
60.045315 72.457123 -0.26073909
60.020916 72.509293 0
59.939758 72.682861 0.26769853
60.103413 72.306709 -0.76482069
60.100773 72.312332 -0.51168716
60.039516 72.442924 -0.26044855
60.015064 72.495049 0
59.946918 72.64032 0.26653796
60.095562 72.297356 -0.76439315
60.073112 72.345062 -0.5139935
60.0271 72.442848 -0.2605941
60.033611 72.429008 0
59.923206 72.66362 0.26740855
60.08115 72.301926 -0.76524991
60.07407 72.316925 -0.51255232
60.030212 72.409836 -0.25972298
64 64 0
59.899437 72.686882 0.26827911
60.066734 72.306458 -0.766105
60.057388 72.326187 -0.51341641
60.004486 72.437912 -0.26073909
59.962017 72.527603 0
59.908958 72.639648 0.26697299
60.032467 72.352715 -0.77081305
60.049549 72.31675 -0.5131284
59.994293 72.433083 -0.26073909
59.962879 72.499214 0
59.898521 72.634705 0.26697299
60.037838 72.31546 -0.7678169
60.035046 72.32132 -0.51370549
59.975163 72.446999 -0.26131964
59.977242 72.442635 0
59.870209 72.667274 0.26813409
60.015125 72.350136 -0.77124059
60.032253 72.31424 -0.51341641
59.974541 72.435181 -0.26102909
59.929558 72.529442 0
59.867207 72.660088 0.2679891
60.027203 72.299019 -0.76696175
60.004341 72.346771 -0.51572275
59.964352 72.430305 -0.26102909
59.928234 72.505753 0
59.854504 72.659775 0.26813409
60.017178 72.294212 -0.76696175
60.025604 72.276657 -0.51168716
59.951912 72.430122 -0.26117465
59.92923 72.477356 0
59.841797 72.659439 0.26827911
60.018303 72.266251 -0.76482069
59.99765 72.309135 -0.5139935
59.946243 72.415848 -0.26088411
59.912212 72.486504 0
59.811035 72.696556 0.26958576
59.999386 72.279922 -0.76653254
59.998863 72.281006 -0.51255232
59.922508 72.439034 -0.2617552
59.908756 72.467491 0
59.80957 72.672775 0.26900521
59.980427 72.293564 -0.76824445
59.979836 72.294785 -0.51370549
59.905521 72.44812 -0.26219022
59.873554 72.514069 0
59.805897 72.653671 0.26856965
59.96143 72.307175 -0.76995629
59.965294 72.299217 -0.51428157
59.902126 72.429153 -0.2617552
59.890579 72.452904 0
59.795444 72.648598 0.26856965
59.944641 72.316132 -0.77124059
59.946201 72.312935 -0.51543474
59.887394 72.433533 -0.2620452
59.882648 72.44326 0
59.771336 72.671524 0.2694402
59.939114 72.301994 -0.77038383
59.924797 72.331261 -0.51687592
59.879486 72.423889 -0.26190022
59.84272 72.499054 0
59.758568 72.671097 0.26958576
59.915512 72.324745 -0.7729525
59.937515 72.2799 -0.5139935
59.867023 72.423569 -0.2620452
64 64 0
59.759548 72.642624 0.26885965
59.921326 72.287552 -0.76995629
59.909241 72.312119 -0.51629984
59.85685 72.418564 -0.2620452
59.842876 72.44696 0
59.746807 72.642166 0.26900521
59.902225 72.301033 -0.7716682
59.901485 72.302536 -0.51601183
59.839775 72.427536 -0.26248077
64 64 0
59.729473 72.650986 0.2694402
59.887638 72.30529 -0.77252495
59.884579 72.31147 -0.51687592
59.820374 72.441132 -0.26306131
64 64 0
59.714405 72.655144 0.26973078
59.875324 72.304909 -0.7729525
59.86993 72.315765 -0.51745301
59.821732 72.412811 -0.26233578
59.76598 72.52507 0
59.715508 72.626694 0.26900521
59.869873 72.290718 -0.77209574
59.86681 72.296875 -0.51658785
59.802311 72.426346 -0.26291576
59.769611 72.491982 0
59.681919 72.668015 0.27045631
59.862152 72.281136 -0.7716682
59.852165 72.301117 -0.51716393
59.794453 72.416626 -0.26277077
59.761677 72.482216 0
59.662155 72.681389 0.27103689
59.859051 72.262352 -0.77038383
59.837498 72.305359 -0.51774102
64 64 -0
59.7561 72.467773 0
59.660984 72.657555 0.27045631
59.819096 72.316971 -0.77594703
59.836761 72.281837 -0.51658785
59.750778 72.452873 -0.26422244
59.764565 72.425453 0
59.650528 72.652306 0.27045631
59.820606 72.289001 -0.77380759
59.824429 72.281418 -0.51687592
59.752274 72.424522 -0.26349631
59.749706 72.429611 0
59.630714 72.665604 0.27103689
59.801323 72.302269 -0.77551949
59.805088 72.29483 -0.51802909
59.739746 72.424034 -0.26364189
59.758316 72.387314 0
59.624943 72.651039 0.27074632
59.795937 72.28804 -0.77466434
59.785706 72.308205 -0.51918226
59.703716 72.469849 -0.26523799
59.743469 72.391479 0
59.60273 72.66893 0.27147245
59.78825 72.278381 -0.7742368
59.792095 72.270828 -0.51716393
59.698193 72.455399 -0.26494801
59.690853 72.469818 0
59.596977 72.654343 0.27118188
59.77359 72.282425 -0.77509189
59.76799 72.293396 -0.5188942
59.683262 72.459442 -0.26523799
59.649868 72.524872 0
59.562908 72.695297 0.27263299
59.763916 72.289001 -0.77594703
59.781815 72.253983 -0.51658785
59.692337 72.429077 -0.26436743
59.666035 72.480537 0
59.555283 72.69725 0.27277857
59.751556 72.28846 -0.77637625
59.75769 72.276497 -0.5183171
59.675041 72.437744 -0.26480299
59.674786 72.43824 0
59.556629 72.668755 0.272053
59.755634 72.25592 -0.77380759
59.750057 72.266769 -0.51802909
59.667229 72.427872 -0.26465744
59.645554 72.470039 0
59.534279 72.686485 0.27277857
64 64 -0
59.736248 72.269035 -0.77551949
59.735325 72.270828 -0.51860619
59.645145 72.445724 -0.26538301
59.618629 72.497139 0
59.521408 72.685699 0.27292356
59.707394 72.300362 -0.77894318
59.711082 72.293228 -0.52033544
59.642097 72.42662 -0.26494801
59.591629 72.524208 0
59.50853 72.684891 0.27306855
59.711548 72.26783 -0.77637625
59.712971 72.265091 -0.5188942
59.63192 72.421349 -0.26494801
59.600506 72.481911 0
59.50761 72.661003 0.272488
59.689713 72.285416 -0.77851564
59.686272 72.29203 -0.52091253
59.609756 72.43911 -0.26567355
59.547024 72.5597 0
59.489952 72.669403 0.27292356
59.698708 72.243782 -0.77509189
59.669083 72.300552 -0.52177662
59.59716 72.4384 -0.26581857
59.553532 72.522018 0
59.479477 72.663948 0.27292356
59.667328 72.279518 -0.77894318
59.659058 72.295319 -0.52177662
59.586967 72.433075 -0.26581857
59.567375 72.47052 0
59.461781 72.672302 0.27335912
59.664486 72.260635 -0.77765888
59.658653 72.271744 -0.52062345
59.58403 72.413925 -0.26538301
59.525692 72.525085 0
59.44648 72.676003 0.27364913
59.654507 72.255386 -0.77765888
59.65107 72.261917 -0.52033544
59.573868 72.408585 -0.26538301
59.542065 72.469002 0
59.433582 72.675095 0.27379411
59.634949 72.268295 -0.77937078
59.631428 72.274956 -0.52148855
59.551571 72.426224 -0.26610911
59.526981 72.472809 0
64 64 0
59.627361 72.258484 -0.77894318
59.635952 72.242249 -0.51975936
59.563278 72.379517 -0.26480299
59.465599 72.563988 0
59.393177 72.700775 0.27495524
64 64 -0
59.624611 72.239578 -0.77765888
59.623573 72.241539 -0.52004737
59.54097 72.397095 -0.26552856
59.445492 72.576889 0
59.372917 72.713562 0.27553579
59.614658 72.234291 -0.77765888
59.603889 72.254501 -0.52120054
59.518616 72.414627 -0.26625413
59.45715 72.530045 0
59.369713 72.694214 0.2751008
59.607128 72.224457 -0.77723134
59.574425 72.28569 -0.52350688
59.493767 72.436699 -0.26712468
59.410061 72.593414 0
59.361668 72.684021 0.27495524
59.577797 72.255356 -0.78065509
59.569305 72.27121 -0.52292979
59.481113 72.435844 -0.26727024
59.434093 72.523621 0
59.343815 72.692154 0.2753908
59.579975 72.227394 -0.77851564
59.554413 72.274971 -0.52350688
59.473389 72.425789 -0.26712468
59.426258 72.513519 0
59.3284 72.695671 0.27568078
59.543247 72.271767 -0.78322369
59.549332 72.260475 -0.52292979
59.473072 72.402008 -0.2665441
59.423386 72.494232 0
59.312962 72.699173 0.27597135
59.545464 72.243782 -0.78108263
59.531971 72.268753 -0.52379489
59.457977 72.405685 -0.26683468
59.398273 72.516182 0
59.290104 72.716362 0.27669689
59.535507 72.238388 -0.78108263
59.529381 72.249695 -0.52292979
64 64 -0
59.415268 72.460274 0
59.284523 72.701538 0.27640691
59.5182 72.246529 -0.78236693
59.519417 72.244293 -0.52292979
59.440159 72.390121 -0.26668966
59.400074 72.463882 0
59.274014 72.695831 0.27640691
59.510765 72.248322 -0.78279448
59.511967 72.246124 -0.5232178
59.43758 72.38279 -0.2665441
59.389988 72.470238 0
59.258823 72.711235 0.27698746
59.508175 72.229385 -0.78151184
59.529259 72.190758 -0.52004737
59.42247 72.386406 -0.26683468
59.389732 72.446381 0
59.240837 72.71917 0.27742246
59.488373 72.241966 -0.78322369
64 64 -0
59.407356 72.389977 -0.26712468
59.412018 72.381454 0
59.227802 72.717987 0.27756801
59.468544 72.254494 -0.78493392
64 64 -0
59.394714 72.388992 -0.26727024
59.366821 72.439796 0
59.239788 72.671196 0.27626136
59.468468 72.231041 -0.78322369
64 64 -0
59.384579 72.383415 -0.26727024
59.391777 72.370346 0
59.229313 72.665443 0.27626136
59.456047 72.230049 -0.78365123
64 64 -0
59.376972 72.373276 -0.26712468
59.331348 72.455902 0
59.208801 72.677872 0.27684191
59.428703 72.232498 -0.78493392
64 64 -0
59.36179 72.352997 -0.26683468
59.318512 72.430939 0
59.172699 72.693535 0.27771303
59.423748 72.218002 -0.78407884
64 64 -0
59.334 72.379173 -0.26785079
59.313389 72.416191 0
59.164726 72.683159 0.27756801
59.398808 72.239357 -0.78664577
64 64 -0
59.323879 72.373528 -0.26785079
59.300686 72.415062 0
59.141571 72.699989 0.27829358
59.386337 72.238281 -0.78707498
64 64 -0
59.318848 72.358795 -0.26756024
59.28289 72.423004 0
59.136147 72.685036 0.27800301
59.391479 72.205833 -0.78450638
59.385029 72.217316 -0.52523613
59.303658 72.362206 -0.26785079
59.298206 72.37191 0
59.125656 72.679153 0.27800301
59.379047 72.204727 -0.78493392
59.372566 72.21624 -0.52552414
59.285915 72.370094 -0.26828578
59.275318 72.388908 0
59.112625 72.67778 0.27814803
59.359039 72.217026 -0.78664577
59.360092 72.215157 -0.52581322
59.278358 72.359871 -0.26814079
59.244717 72.419434 0
59.107246 72.662827 0.27785802
59.341522 72.224815 -0.78793013
59.329784 72.245537 -0.52811849
59.260574 72.367729 -0.26857635
59.267891 72.354813 0
59.08654 72.675003 0.27843857
59.351871 72.183464 -0.78450638
59.330032 72.221916 -0.52696639
59.245338 72.371033 -0.26886633
59.232086 72.394356 0
59.065796 72.687134 0.27901915
59.31657 72.222466 -0.78878689
59.317543 72.220757 -0.5272544
59.232658 72.369789 -0.26901135
59.214226 72.402145 0
59.045013 72.699226 0.2795997
59.311737 72.20787 -0.78793013
59.307613 72.215088 -0.5272544
59.235432 72.341461 -0.26828578
59.201488 72.400887 0
59.04739 72.67067 0.27887413
59.296715 72.211121 -0.78878689
59.300259 72.204933 -0.52696639
59.222775 72.340202 -0.2684308
59.214622 72.354439 0
59.021423 72.691734 0.27974468
59.284241 72.209885 -0.78921443
59.285202 72.208206 -0.52754241
59.202347 72.352455 -0.26901135
59.168243 72.411827 0
59.005745 72.694733 0.28003526
59.276886 72.19973 -0.78878689
59.264957 72.220436 -0.52869558
59.192261 72.346649 -0.26901135
59.17627 72.374405 0
58.992649 72.693192 0.28018025
59.256706 72.2118 -0.79049873
59.252445 72.219185 -0.52898365
59.18737 72.331841 -0.26872134
59.142727 72.409134 0
58.976955 72.696121 0.28047025
59.251942 72.197174 -0.78964198
59.237328 72.222404 -0.52956074
59.169491 72.339516 -0.2691569
59.143005 72.385239 0
58.971657 72.681061 0.28018025
59.231537 72.22094 -0.79220897
59.247936 72.192665 -0.52783048
59.151417 72.35907 -0.26988247
59.145767 72.368813 0
58.963806 72.68251 0.28032526
59.224186 72.210739 -0.79178143
59.212029 72.231644 -0.53071392
59.154385 72.33075 -0.2691569
59.10688 72.412422 0
58.961163 72.662941 0.2798897
59.229786 72.17836 -0.78921443
59.199482 72.230316 -0.53100193
59.136475 72.338341 -0.2695919
59.128185 72.352547 0
58.927135 72.697243 0.28119582
59.199169 72.208046 -0.79263818
59.199986 72.20665 -0.52984875
59.121147 72.341438 -0.26988247
59.112839 72.355652 0
58.932365 72.6642 0.28032526
59.186661 72.206665 -0.79306573
59.18222 72.214233 -0.53071392
59.116337 72.326561 -0.2695919
59.086948 72.376671 0
58.911385 72.676003 0.28090581
59.19236 72.174294 -0.79049873
59.172298 72.208405 -0.53071392
59.106277 72.320656 -0.2695919
59.074184 72.375229 0
58.887733 72.692245 0.28163138
59.177277 72.177315 -0.79135382
59.170269 72.189194 -0.52984875
59.08567 72.332642 -0.27017245
59.034992 72.418571 0
58.887794 72.668152 0.2810508
59.172619 72.162651 -0.79049873
59.152477 72.196716 -0.53071392
59.075603 72.326698 -0.27017245
59.038067 72.390167 0
58.86145 72.688812 0.28192192
59.14967 72.178894 -0.79263818
59.134666 72.204185 -0.531578
59.065548 72.32074 -0.27017245
59.049171 72.348351 0
58.853611 72.678116 0.28177637
59.131924 72.186249 -0.79392081
59.130039 72.189423 -0.53100193
59.052834 72.319252 -0.27031803
59.023132 72.369194 0
58.835159 72.685295 0.28221193
59.114147 72.193596 -0.79520512
59.10955 72.201302 -0.5321551
59.037464 72.322189 -0.27060801
64 64 0
58.835316 72.661194 0.28163138
64 64 -0
59.098976 72.19651 -0.79606187
59.089027 72.213142 -0.53330827
59.019409 72.329575 -0.27104357
59.005592 72.352684 0
58.808846 72.681717 0.28250247
64 64 -0
59.089073 72.190582 -0.79606187
59.073792 72.216072 -0.53388435
59.00668 72.328003 -0.27118859
58.998177 72.342178 0
58.78767 72.693268 0.28308305
59.089764 72.167038 -0.79435003
59.07719 72.18795 -0.53244311
58.999294 72.317513 -0.27104357
58.963966 72.376274 0
58.777168 72.686966 0.28308305
59.063999 72.187469 -0.79691702
59.056618 72.199715 -0.53359628
58.99194 72.306999 -0.27089801
64 64 0
58.753262 72.702896 0.28380859
59.046139 72.194687 -0.79820132
59.065449 72.162743 -0.531578
58.973839 72.314285 -0.27133358
58.924885 72.395264 0
58.748135 72.687653 0.28351805
59.041569 72.179909 -0.79734457
59.042175 72.178909 -0.53302026
58.969177 72.299332 -0.27104357
64 64 0
58.732246 72.690193 0.28380859
59.026348 72.182693 -0.79820132
59.013496 72.203842 -0.53503752
58.956455 72.297684 -0.27118859
64 64 0
58.721748 72.683823 0.28380859
59.016464 72.176674 -0.79820132
59.008965 72.18898 -0.53446144
58.938316 72.304901 -0.27162415
58.89991 72.36792 0
58.705856 72.686302 0.2840986
64 64 -0
59.003914 72.175026 -0.79862887
58.99099 72.196175 -0.53532553
58.914738 72.320946 -0.27234969
58.892513 72.357307 0
58.703499 72.666595 0.28366303
59.004772 72.151474 -0.79691702
58.975677 72.198944 -0.53590262
58.90469 72.314789 -0.27234969
64 64 0
58.682167 72.67791 0.28424361
58.981487 72.167297 -0.79905641
58.973904 72.179642 -0.53503752
58.891926 72.313057 -0.2724947
58.853256 72.375992 0
58.666241 72.680344 0.28453416
58.976555 72.164261 -0.79905641
58.949982 72.207451 -0.53705579
58.892349 72.301125 -0.2722047
58.872742 72.332985 0
58.647385 72.699249 0.28525972
58.945129 72.193146 -0.80248016
58.950935 72.183731 -0.53590262
58.88232 72.294945 -0.2722047
58.818958 72.397644 0
58.631413 72.70163 0.28555027
58.943336 72.173927 -0.80119586
58.941051 72.177628 -0.53590262
58.861366 72.306435 -0.27278525
58.830711 72.35598 0
58.620903 72.695137 0.28555027
58.933464 72.167816 -0.80119586
58.931171 72.171509 -0.53590262
58.848595 72.304626 -0.27293026
58.815136 72.358566 0
58.596706 72.710709 0.28627583
58.91275 72.179123 -0.80290771
58.910374 72.182945 -0.53705579
58.844059 72.289566 -0.27263969
58.794044 72.36998 0
58.583443 72.70858 0.28642082
58.913742 72.155548 -0.80119586
58.903225 72.172409 -0.53676778
58.834045 72.283325 -0.27263969
58.792202 72.350426 0
58.57843 72.693199 0.28613028
58.895721 72.16246 -0.80248016
58.885132 72.17939 -0.53763187
58.801998 72.312332 -0.27380082
58.773834 72.357368 0
58.562412 72.695465 0.28642082
58.877678 72.169334 -0.80376446
58.872498 72.177597 -0.53792095
58.791958 72.306046 -0.27380082
58.758213 72.359863 0
58.543625 72.702103 0.28685638
58.865082 72.16748 -0.80419207
58.859871 72.175766 -0.53820896
58.773624 72.31295 -0.27423635
58.748116 72.353523 0
58.538651 72.686691 0.28656584
58.855213 72.16127 -0.80419207
58.838963 72.187057 -0.53936213
58.760815 72.31102 -0.27438137
58.746346 72.333977 0
58.514305 72.702065 0.28729138
58.842617 72.159386 -0.80461961
58.826309 72.185181 -0.53965014
58.748005 72.309074 -0.27452636
58.708473 72.371613 0
58.509342 72.686653 0.2870014
58.816265 72.179176 -0.80718821
58.827499 72.161446 -0.53849697
58.740746 72.298332 -0.27438137
58.706726 72.352013 0
58.482162 72.706345 0.28787196
58.809139 72.168579 -0.80676067
58.806545 72.172653 -0.53965014
58.725143 72.300751 -0.27467191
58.682671 72.367592 0
58.466068 72.70845 0.2881625
58.81583 72.136314 -0.80419207
58.805016 72.153282 -0.53878504
58.726288 72.27684 -0.27409136
58.683754 72.343597 0
58.444378 72.719284 0.28874305
58.808765 72.125717 -0.80376446
58.789593 72.155724 -0.53936213
58.707905 72.283592 -0.27452636
58.662464 72.354721 0
58.431053 72.716942 0.28888807
58.782337 72.14537 -0.80633146
58.765793 72.171204 -0.54080331
58.686687 72.294693 -0.27510694
58.652374 72.348259 0
58.440147 72.679573 0.28787196
58.775272 72.134743 -0.80590391
58.76152 72.156158 -0.54022622
58.673851 72.292656 -0.27525249
58.642292 72.341797 0
58.421238 72.685966 0.28830752
58.757103 72.14138 -0.80718821
58.748859 72.154182 -0.5405153
58.663837 72.286209 -0.27525249
58.632217 72.335312 0
58.39949 72.696701 0.28888807
58.724991 72.169548 -0.81061196
58.727787 72.165215 -0.54166847
58.645378 72.292847 -0.27568749
58.608032 72.350677 0
51.978878 82.617432 0.61891824
58.690014 72.20195 -0.81446326
58.712307 72.167511 -0.54224449
58.624065 72.303818 -0.27626804
58.606438 72.331047 0
49.832638 85.883301 0.7280575
64 64 -0
58.696804 72.169807 -0.54282165
58.61969 72.288605 -0.27597803
58.596375 72.324524 0
49.834507 85.822563 0.72660583
58.695412 72.150368 -0.81061196
58.686935 72.163391 -0.54282165
58.60968 72.282097 -0.27597803
58.56929 72.344154 0
49.876175 85.700912 0.72312307
58.679962 72.152542 -0.81146705
58.682735 72.148293 -0.54224449
58.599674 72.275581 -0.27597803
58.559212 72.337585 0
49.966404 85.505402 0.7171725
58.680649 72.140739 -0.81061196
58.67215 72.153748 -0.54282165
58.583305 72.289719 -0.27655861
58.554176 72.334297 0
51.161507 83.648048 0.65549111
58.662384 72.147179 -0.81189466
58.65947 72.151627 -0.54310966
58.567604 72.291855 -0.27684858
58.538399 72.336426 0
51.220352 83.506477 0.65128279
58.642712 72.134254 -0.81189466
58.619877 72.16893 -0.54512691
58.539001 72.291725 -0.27728415
58.518269 72.323204 0
51.399063 83.132675 0.63981718
58.627224 72.136353 -0.81275141
58.618553 72.149483 -0.54426283
58.508938 72.315483 -0.27830029
58.505348 72.320915 0
51.407455 83.069725 0.63822049
58.608891 72.1427 -0.81403571
58.605858 72.147285 -0.54455084
58.498894 72.308838 -0.27830029
58.475182 72.34465 0
51.404499 83.024178 0.63720495
58.599056 72.136185 -0.81403571
58.593159 72.145065 -0.54483891
58.488861 72.302185 -0.27830029
58.462227 72.342308 0
51.390144 82.995949 0.63676941
58.577858 72.146729 -0.81574595
58.58046 72.14283 -0.54512691
58.475956 72.299843 -0.27844527
58.426201 72.374603 0
51.38736 82.950409 0.63575327
64 64 -0
58.582108 72.119064 -0.54397374
58.468811 72.288841 -0.27830029
58.410301 72.376526 0
50.542389 84.167107 0.67711622
64 64 -0
58.566544 72.121117 -0.54455084
58.44725 72.299416 -0.27888027
58.39151 72.382736 0
50.544037 84.111961 0.6758101
64 64 -0
58.550976 72.123131 -0.54512691
58.434326 72.297028 -0.27902582
58.372681 72.388924 0
50.59502 83.983467 0.67203617
64 64 -0
58.541164 72.116539 -0.54512691
58.409805 72.311852 -0.27975139
58.336411 72.420982 0
50.828995 83.583481 0.65911949
64 64 -0
58.508224 72.144249 -0.54743326
58.393959 72.313705 -0.2800414
58.332054 72.40551 0
50.947697 83.356438 0.65200835
64 64 -0
58.492588 72.146187 -0.54801035
58.383919 72.306923 -0.2800414
58.307327 72.420212 0
