# .PCD v0.7 - Point Cloud Data file format
VERSION 0.7
FIELDS x y z
SIZE 4 4 4
TYPE F F F
COUNT 1 1 1
WIDTH 1627
HEIGHT 1
VIEWPOINT 0 0 0 1 0 0 0
POINTS 1627
DATA ascii
64 64 -0
60.78405 63.494625 -0.36058584
60.805122 63.497936 -0.26958403
60.761604 63.4911 -0.18269265
60.676884 63.477787 -0.093947209
60.557209 63.458981 0
60.502579 63.450394 0.098874979
61.03603 63.530552 -0.49474737
64 64 -0
60.779648 63.489948 -0.36114818
60.815865 63.495682 -0.26872891
60.741802 63.483952 -0.18384472
60.692921 63.476212 -0.093511648
60.557865 63.454819 0
60.498119 63.445358 0.099019974
64 64 -0
64 64 -0
60.765209 63.48365 -0.36283737
60.82156 63.492645 -0.26829973
60.742428 63.480015 -0.18384472
60.673031 63.468937 -0.094092205
60.563663 63.451481 0
60.483391 63.438667 0.099455535
64 64 -0
64 64 -0
60.750797 63.477325 -0.36452439
60.817093 63.487988 -0.26872891
60.789021 63.483475 -0.18125035
60.694199 63.46822 -0.093511648
60.564327 63.44733 0
60.478943 63.433594 0.099600539
64 64 -0
64 64 -0
60.746399 63.472584 -0.36508891
60.822796 63.484966 -0.26829973
60.769222 63.476284 -0.18240352
60.684593 63.462563 -0.093801647
60.554733 63.441513 0
60.479633 63.42934 0.099600539
60.955406 63.502686 -0.50860101
64 64 -0
60.74704 63.468651 -0.36508891
60.813278 63.479473 -0.26915649
60.764736 63.471542 -0.18269265
60.685246 63.458557 -0.093801647
60.565674 63.439026 0
60.480324 63.425087 0.099600539
61.029175 63.511051 -0.49637574
64 64 -0
60.737663 63.463074 -0.36621359
60.808846 63.474789 -0.26958403
60.770496 63.468475 -0.18240352
60.691025 63.455399 -0.093656652
60.586899 63.438259 0
60.486145 63.421677 0.099455535
64 64 -0
64 64 -0
60.718262 63.455807 -0.36846513
60.809483 63.470932 -0.26958403
60.735413 63.458649 -0.18442185
60.666054 63.447147 -0.094382204
60.587578 63.434135 0
60.486847 63.417431 0.099455535
64 64 -0
64 64 -0
60.718922 63.451843 -0.36846513
60.810127 63.467079 -0.26958403
60.725876 63.453003 -0.18499789
60.676968 63.444832 -0.094092205
60.578007 63.428299 0
60.502934 63.415756 0.099019974
60.982231 63.492085 -0.50452381
64 64 -0
60.694534 63.443661 -0.37127903
60.810772 63.463226 -0.26958403
60.777542 63.45763 -0.18211551
60.677639 63.440819 -0.094092205
60.55304 63.419846 0
60.503643 63.411533 0.099019974
64 64 -0
64 64 -0
60.685181 63.437965 -0.37240586
60.801289 63.457653 -0.27044079
60.808788 63.458923 -0.1803863
60.678318 63.436802 -0.094092205
60.584526 63.420902 0
60.488979 63.404701 0.099455535
64 64 -0
64 64 -0
60.68586 63.43396 -0.37240586
60.807022 63.454655 -0.27001157
60.732971 63.442009 -0.18470986
60.699493 63.436291 -0.093511648
60.590355 63.417648 0
60.49482 63.401333 0.099310532
64 64 -0
64 64 -0
60.686546 63.429958 -0.37240586
60.787445 63.447315 -0.27172345
60.789715 63.447708 -0.18153948
60.689941 63.430542 -0.093801647
60.596203 63.414413 0
60.490429 63.396217 0.099455535
64 64 -0
64 64 -0
60.687241 63.425953 -0.37240586
60.783043 63.442554 -0.27215266
60.724129 63.432346 -0.185287
60.670151 63.422993 -0.094382204
60.596916 63.410301 0
60.48093 63.390205 0.099745534
64 64 -0
64 64 -0
60.70261 63.426567 -0.37071666
60.793507 63.442371 -0.27129591
60.729584 63.431255 -0.18499789
60.665367 63.42009 -0.094527766
60.602394 63.409138 0
60.496643 63.390747 0.099310532
58.302929 63.002155 -0.95354861
64 64 -0
60.683285 63.419075 -0.37296823
60.789127 63.437614 -0.27172345
60.714981 63.424625 -0.18586303
60.681431 63.418751 -0.094092205
60.608234 63.40593 0
60.507629 63.388309 0.099019974
58.38203 63.00901 -0.94050914
64 64 -0
60.693989 63.416832 -0.37184352
60.77969 63.43195 -0.27258021
60.705479 63.418858 -0.18644017
60.682137 63.414742 -0.094092205
60.593571 63.39912 0
60.46743 63.376869 0.1001811
64 64 -0
64 64 -0
60.689697 63.411949 -0.37240586
60.775326 63.427162 -0.27300778
60.782589 63.428452 -0.18211551
60.682846 63.410732 -0.094092205
60.619938 63.399559 0
60.488651 63.376236 0.099600539
58.33091 62.985863 -0.94947451
64 64 -0
60.695408 63.408844 -0.37184352
60.760857 63.420551 -0.27429208
60.727261 63.414543 -0.185287
60.678448 63.405811 -0.094237208
60.636021 63.39822 0
60.484299 63.371078 0.099745534
58.444038 62.999168 -0.93072957
64 64 -0
60.716129 63.408455 -0.36959198
60.766624 63.417553 -0.27386287
60.712715 63.407841 -0.18615104
60.679169 63.401798 -0.094237208
60.647007 63.396004 0
60.500389 63.369595 0.099310532
58.377167 62.980106 -0.94213748
64 64 -0
60.696846 63.40086 -0.37184352
60.762264 63.412727 -0.27429208
60.77449 63.414944 -0.18269265
60.654331 63.39315 -0.094962761
60.637486 63.390095 0
60.485828 63.362583 0.099745534
58.499947 62.995514 -0.92176729
64 64 -0
60.717567 63.40052 -0.36959198
60.773087 63.41066 -0.27343532
60.714153 63.399899 -0.18615104
60.690838 63.395641 -0.093947209
60.627995 63.384163 0
60.486599 63.358337 0.099745534
58.355324 62.962051 -0.94621468
64 64 -0
60.708309 63.394718 -0.37071666
60.768757 63.405834 -0.27386287
60.770832 63.406216 -0.18298066
60.681358 63.389763 -0.094237208
60.659447 63.385735 0
60.497589 63.355972 0.099455535
58.288544 62.942635 -0.95762265
57.282715 62.756424 -0.94238526
60.709042 63.390743 -0.37071666
60.75433 63.399128 -0.2751472
60.741043 63.396667 -0.18470986
60.682098 63.385754 -0.094237208
60.649963 63.379807 0
60.493267 63.350796 0.099600539
58.547375 62.983734 -0.91443026
57.446995 62.778645 -0.91954458
60.704788 63.385838 -0.37127903
60.760098 63.396145 -0.27471963
60.726513 63.389885 -0.18557502
60.733921 63.391266 -0.092786089
60.650719 63.375759 0
60.514488 63.350368 0.099019974
58.480579 62.964386 -0.92584133
57.448475 62.770729 -0.91954458
60.730503 63.386539 -0.36846513
60.720463 63.384655 -0.27814338
60.727253 63.385929 -0.18557502
60.704025 63.381573 -0.093656652
64 64 0
60.515278 63.346157 0.099019974
58.462406 62.954044 -0.92910117
57.445038 62.761883 -0.92023605
57.345833 62.743145 -0.75008047
60.711128 63.378788 -0.27899849
60.722919 63.381016 -0.18586303
60.679245 63.372768 -0.094382204
60.688023 63.374424 0
60.505848 63.340015 0.099310532
58.458824 62.946434 -0.92991537
57.45639 62.755836 -0.91885304
57.347359 62.735107 -0.75008047
57.337753 62.73328 -0.56529504
60.733822 63.378986 -0.185287
60.674885 63.367783 -0.094527766
60.688782 63.370422 0
60.516869 63.337738 0.099019974
58.440678 62.93602 -0.93317521
57.492397 62.754532 -0.91400725
57.413773 62.739487 -0.74276352
57.404854 62.737778 -0.55973023
57.350979 62.727467 -0.37727922
60.650135 63.358883 -0.095253319
64 64 0
60.51767 63.33353 0.099019974
58.475952 62.935852 -0.92746967
57.459415 62.740028 -0.91885304
57.410294 62.730564 -0.74332803
57.426533 62.733692 -0.55802
57.474411 62.742916 -0.37036133
60.666225 63.357784 -0.094817765
60.664761 63.357502 0
60.508263 63.327354 0.099310532
58.345551 62.907188 -0.94947451
57.401062 62.724651 -0.92715901
57.391106 62.722725 -0.74557954
57.4021 62.72485 -0.56015944
57.449783 62.734066 -0.37180251
60.651302 63.35281 -0.095253319
60.654938 63.353516 0
60.523979 63.328205 0.098874979
58.366283 62.904133 -0.94621468
57.437088 62.723385 -0.92231321
57.427574 62.721535 -0.74163884
57.388538 62.71394 -0.56144208
57.4767 62.731091 -0.37036133
60.641895 63.346783 -0.095543325
60.640388 63.346489 0
60.519699 63.323013 0.099019974
58.270607 62.878334 -0.96251088
57.453411 62.718349 -0.92023605
57.444092 62.716522 -0.73994964
57.430386 62.71384 -0.55802
57.468098 62.721222 -0.37093735
60.652878 63.344719 -0.095253319
60.687149 63.351429 0
60.525616 63.319805 0.098874979
58.349548 62.886696 -0.94947451
57.44511 62.708496 -0.92162168
57.455608 62.710567 -0.73882496
57.431946 62.705902 -0.55802
57.479786 62.715328 -0.37036133
60.643482 63.338669 -0.095543325
60.657303 63.341393 0
60.536648 63.317619 0.098584421
58.438183 62.897179 -0.93480361
57.481133 62.707409 -0.91677594
57.442234 62.699696 -0.74051195
57.549351 62.720936 -0.54817635
57.542236 62.719524 -0.36690181
60.659584 63.337646 -0.095107764
60.698948 63.345451 0
60.527267 63.311413 0.098874979
58.429817 62.888523 -0.9364351
57.477783 62.698555 -0.91746742
57.473701 62.697739 -0.73713577
57.626408 62.72821 -0.54175806
57.543785 62.711723 -0.36690181
60.650181 63.331577 -0.095398322
60.633389 63.328224 0
60.52301 63.306198 0.099019974
58.445709 62.884712 -0.93398941
57.503952 62.69561 -0.91400725
57.505165 62.695854 -0.73375952
57.723595 62.739716 -0.53362626
57.535213 62.701889 -0.36747783
60.615322 63.320366 -0.096414439
60.618889 63.321083 0
60.539143 63.305069 0.098584421
58.413139 62.871147 -0.93969494
57.490772 62.68478 -0.91608441
57.491814 62.68499 -0.73544657
57.730148 62.733147 -0.53319871
57.562134 62.6992 -0.36603665
60.611057 63.315247 -0.096559435
60.614616 63.315968 0
60.529789 63.298828 0.098874979
58.399986 62.861446 -0.94213748
57.536613 62.685913 -0.9098556
57.523277 62.683201 -0.73207033
57.756836 62.730686 -0.53105927
57.609329 62.700695 -0.3634423
60.637344 63.31633 -0.095833883
60.579735 63.304619 0
60.545921 63.297741 0.098439418
58.488529 62.872513 -0.92746967
57.489059 62.668049 -0.91677594
57.554737 62.681484 -0.72869408
57.748322 62.721088 -0.53191441
57.605843 62.69194 -0.36373031
60.617805 63.308102 -0.096414439
64 64 0
60.53149 63.290443 0.098874979
58.344654 62.83596 -0.95191711
57.593876 62.681427 -0.90224117
57.601147 62.682922 -0.72362649
57.805195 62.724922 -0.52720636
57.637817 62.690472 -0.36200112
60.61356 63.302967 -0.096559435
60.601818 63.300552 0
60.532352 63.286255 0.098874979
58.496109 62.860199 -0.92665553
57.585636 62.67165 -0.90362686
57.607712 62.67622 -0.72306418
57.831871 62.722641 -0.52506691
57.674866 62.690128 -0.35998279
60.604237 63.296772 -0.096849442
60.64344 63.30489 0
60.543404 63.284172 0.098584421
58.589439 62.872707 -0.91117036
57.61673 62.670044 -0.89947253
57.589417 62.664352 -0.72531569
57.858547 62.720425 -0.52292752
57.630882 62.672993 -0.36257714
60.650871 63.302208 -0.095543325
60.623901 63.296589 0
60.544273 63.279999 0.098584421
58.300522 62.805325 -0.96006829
57.70182 62.679829 -0.88770646
57.620869 62.662861 -0.7219395
57.845016 62.709843 -0.52421182
57.672993 62.673786 -0.3602708
60.616108 63.290699 -0.096559435
60.624752 63.292507 0
60.555305 63.277954 0.098294422
58.403538 62.819855 -0.94295484
57.683781 62.668079 -0.89047509
57.612553 62.653057 -0.72306418
57.826485 62.69817 -0.52592367
57.618916 62.6544 -0.3634423
60.642387 63.291969 -0.095833883
60.610325 63.28521 0
60.551102 63.27272 0.098439418
58.409103 62.817501 -0.94213748
57.733665 62.674644 -0.88355482
57.593483 62.644993 -0.72531569
57.822254 62.693378 -0.52635121
57.619732 62.650547 -0.3634423
60.637737 63.288868 -0.095978878
60.605671 63.282085 0
60.55154 63.270638 0.098439418
58.502384 62.830288 -0.92665553
57.661671 62.651413 -0.89393526
57.649803 62.648888 -0.71912342
57.843925 62.690189 -0.52463937
57.611256 62.640686 -0.36401832
60.633522 63.283726 -0.096123882
60.601456 63.276901 0
60.562584 63.268631 0.098149419
58.334637 62.787441 -0.95517695
57.761414 62.664753 -0.88009465
57.621616 62.63483 -0.72250181
57.815399 62.676308 -0.52720636
57.633137 62.637299 -0.36286515
60.624214 63.277481 -0.096414439
60.587055 63.269527 0
60.553314 63.262306 0.098439418
58.331276 62.779556 -0.95599115
57.699272 62.64349 -0.88909209
57.623272 62.627125 -0.72250181
57.822018 62.669914 -0.52677882
57.639839 62.630695 -0.36257714
60.625092 63.273399 -0.096414439
60.582859 63.264309 0
60.564362 63.260326 0.098149419
58.458359 62.799908 -0.93480361
57.769577 62.650745 -0.87940049
57.619972 62.618347 -0.72306418
57.878811 62.6744 -0.52207237
57.712273 62.638336 -0.35854161
60.64629 63.273724 -0.095833883
60.573566 63.257977 0
60.570351 63.257278 0.098003864
58.43565 62.787949 -0.9388808
57.795719 62.648556 -0.87594038
57.601784 62.606312 -0.72531569
57.830261 62.656082 -0.52635121
57.744259 62.637348 -0.35681129
60.637024 63.267464 -0.096123882
60.610069 63.261589 0
60.566158 63.252026 0.098149419
58.485413 62.791809 -0.93072957
57.792461 62.639988 -0.87663186
57.593536 62.596405 -0.72644258
57.846939 62.651924 -0.52506691
57.771168 62.635323 -0.3553701
60.637909 63.263397 -0.096123882
60.600784 63.255264 0
60.572155 63.248993 0.098003864
58.448257 62.776634 -0.9372493
57.847996 62.644363 -0.86902004
57.595238 62.588665 -0.72644258
57.853584 62.645596 -0.52463937
57.77787 62.62891 -0.35508209
60.633732 63.258221 -0.096268877
60.591534 63.24892 0
60.573067 63.24485 0.098003864
58.454563 62.770996 -0.9364351
57.849636 62.636932 -0.86902004
57.621769 62.58643 -0.72362649
57.890316 62.645947 -0.52164316
57.830025 62.632584 -0.35219973
60.629543 63.253025 -0.096414439
60.602596 63.247051 0
60.56889 63.239582 0.098149419
58.552547 62.785805 -0.9201358
57.900272 62.640419 -0.86209714
57.697868 62.595303 -0.71518487
57.891956 62.638565 -0.52164316
57.841789 62.627384 -0.35162258
60.640602 63.251217 -0.096123882
60.58828 63.239555 0
60.564747 63.23431 0.098294422
58.428616 62.751114 -0.94132334
57.906811 62.634144 -0.86140561
57.704525 62.588799 -0.7146225
57.898613 62.632309 -0.52121562
57.888878 62.630127 -0.34902823
60.631359 63.244881 -0.096414439
60.579037 63.233154 0
60.585957 63.234707 0.097713858
58.560314 62.773731 -0.9193216
57.913357 62.627888 -0.86071414
57.745892 62.590134 -0.71011943
57.880234 62.620419 -0.52292752
57.870354 62.618191 -0.3501814
60.632271 63.240814 -0.096414439
60.59013 63.231312 0
60.591949 63.231724 0.097568862
58.354515 62.720169 -0.95436275
57.924812 62.622753 -0.85932851
57.787251 62.591568 -0.70561635
57.866879 62.609619 -0.52421182
57.897247 62.616505 -0.34874022
57.855923 62.607136 -0.17594641
56.890694 62.388317 0
60.59288 63.227604 0.097568862
58.389809 62.721039 -0.94865721
57.906914 62.610954 -0.86209714
57.754288 62.576157 -0.70955491
57.90361 62.610199 -0.52121562
57.914059 62.612579 -0.34787506
57.882942 62.605488 -0.17522085
57.024582 62.409805 0
60.568485 63.217712 0.098294422
58.425072 62.721989 -0.94295484
57.972172 62.618164 -0.8530997
57.815434 62.582233 -0.70280248
57.93531 62.609715 -0.51864862
57.951038 62.613319 -0.34585673
57.89983 62.601582 -0.17478529
57.021442 62.400219 0
57.793694 62.577251 0.17782639
58.402542 62.709702 -0.94702888
57.905384 62.5951 -0.8627913
57.827065 62.577049 -0.70167565
57.896969 62.593163 -0.52207237
57.987991 62.614143 -0.34383953
57.921783 62.598881 -0.17420474
57.043667 62.396461 0
57.856167 62.583755 0.17608528
58.428959 62.705154 -0.94295484
57.97147 62.598824 -0.85379386
57.859341 62.572762 -0.69829941
57.979546 62.6007 -0.51522493
58.020752 62.610279 -0.3421092
57.969883 62.598454 -0.17289862
57.036453 62.381504 0
57.909374 62.584393 0.17463361
58.348701 62.679302 -0.95680845
58.026917 62.604103 -0.84617943
57.905602 62.575752 -0.69323397
57.991249 62.595764 -0.51436818
58.022438 62.603054 -0.3421092
57.926041 62.580528 -0.17420474
56.942112 62.350586 0
57.926254 62.580578 0.1741986
58.639011 62.740314 -0.90791368
57.994415 62.588852 -0.85102522
57.932076 62.574203 -0.69041795
57.99295 62.588505 -0.51436818
58.059364 62.604111 -0.340092
57.983398 62.586262 -0.17260861
56.994789 62.353966 0
57.933048 62.574432 0.17405304
58.424076 62.682697 -0.94458318
57.991245 62.580441 -0.8517167
57.958527 62.572712 -0.68760407
57.989647 62.580063 -0.51479733
58.056026 62.595745 -0.34038001
58.00029 62.582581 -0.17217307
56.915733 62.326355 0
57.919598 62.563515 0.1744886
58.536274 62.702232 -0.92584133
58.027142 62.581299 -0.8468709
57.970135 62.56776 -0.68647933
57.986378 62.571617 -0.51522493
58.113094 62.601715 -0.33720851
57.966606 62.566921 -0.17318918
56.618992 62.24683 0
57.961788 62.565777 0.17332749
58.52824 62.693336 -0.92746967
58.121571 62.596226 -0.83372182
58.016354 62.571098 -0.68141395
58.028057 62.573895 -0.51180118
58.114788 62.594604 -0.33720851
57.973412 62.560844 -0.17304362
56.575558 62.227036 0
57.988796 62.564518 0.17260192
58.424088 62.661343 -0.94539738
58.006195 62.561016 -0.85033107
58.037849 62.568615 -0.67916238
58.059731 62.573868 -0.50923419
58.136612 62.592323 -0.33605534
57.965038 62.551132 -0.17333418
56.577705 62.218063 0
57.970322 62.552402 0.17318249
58.444927 62.659245 -0.94213748
58.066471 62.567902 -0.8420251
58.024776 62.557838 -0.68084943
58.051483 62.564285 -0.51008928
58.158432 62.590096 -0.33490217
57.976906 62.546284 -0.17304362
56.51915 62.194443 0
57.992279 62.549995 0.17260192
58.388908 62.638546 -0.95191711
58.087688 62.56546 -0.83925909
58.046276 62.555412 -0.67859787
58.063194 62.559517 -0.50923419
58.14003 62.578159 -0.33605534
58.014008 62.547581 -0.17202806
56.531441 62.187859 0
58.009193 62.546413 0.17216636
58.505795 62.659874 -0.93236107
58.060188 62.551186 -0.84341073
58.112206 62.563873 -0.67128092
58.104839 62.562077 -0.50581044
58.191998 62.583336 -0.33317298
57.990524 62.534195 -0.17275362
56.574089 62.188702 0
58.015999 62.540405 0.17202137
58.449825 62.639118 -0.94213748
58.120422 62.55835 -0.83510482
58.104065 62.554337 -0.67240781
58.086636 62.550064 -0.50752234
58.203754 62.578781 -0.33259696
57.992302 62.526932 -0.17275362
56.480247 62.156181 0
58.022808 62.534412 0.17187637
58.557056 62.658436 -0.92420983
58.127037 62.552444 -0.83441329
58.125549 62.552078 -0.67015624
58.13327 62.553982 -0.50366938
58.240639 62.580444 -0.33057863
57.948677 62.508484 -0.17405973
56.482483 62.147099 0
58.064953 62.53714 0.17071526
58.510689 62.639969 -0.93236107
58.138538 62.547764 -0.83302766
58.15691 62.552315 -0.66677785
58.189827 62.560471 -0.49896297
58.212242 62.566025 -0.33230782
57.965622 62.504921 -0.17362417
56.53524 62.150532 0
58.041508 62.523724 0.17144081
58.502754 62.630951 -0.93398941
58.077007 62.524921 -0.8420251
58.153717 62.544025 -0.66734236
58.171642 62.548489 -0.50067484
58.254135 62.569035 -0.33000147
57.962376 62.496372 -0.17376973
56.471825 62.125164 0
58.07354 62.524059 0.17057025
58.461258 62.613506 -0.94132334
58.161533 62.538479 -0.83025903
58.19492 62.546833 -0.66283929
58.228191 62.555164 -0.49596679
58.245823 62.559578 -0.33057863
57.944031 62.484032 -0.17435029
56.48925 62.119862 0
58.035 62.506802 0.17173137
58.501289 62.616463 -0.93480361
58.211956 62.543663 -0.82333875
58.201603 62.541061 -0.66227692
58.210026 62.543179 -0.49767867
58.25761 62.555153 -0.33000147
57.966026 62.481789 -0.17376973
56.471336 62.105705 0
58.051933 62.503403 0.17129581
58.58839 62.634903 -0.9201358
58.173916 62.53035 -0.82887602
58.236984 62.546261 -0.65833622
58.235794 62.545959 -0.49553925
58.278545 62.556744 -0.3288483
57.96191 62.476871 -0.17391473
56.543129 62.11898 0
58.093147 62.509975 0.17013469
58.441517 62.59071 -0.94539738
58.122189 62.509747 -0.83649045
58.189491 62.52681 -0.66396397
58.267403 62.546562 -0.49297225
58.250198 62.542202 -0.33057863
57.988937 62.475964 -0.17318918
56.474781 62.092064 0
58.110069 62.506672 0.16969913
58.404903 62.574226 -0.95191711
58.230972 62.529907 -0.82126158
58.240513 62.532337 -0.65833622
58.299026 62.547249 -0.49040362
58.272015 62.540363 -0.32942545
58.005898 62.472549 -0.17275362
56.466995 62.080399 0
58.116913 62.500839 0.16955414
58.521542 62.596897 -0.93236107
58.242462 62.525425 -0.81987858
58.325974 62.54681 -0.64876771
58.320679 62.545456 -0.48869178
58.27879 62.534725 -0.32913744
57.997688 62.462734 -0.17304362
56.50462 62.080341 0
58.113697 62.492443 0.16969913
58.43708 62.5681 -0.94702888
58.190796 62.504707 -0.82749301
58.288364 62.529823 -0.65327078
58.347298 62.544991 -0.48655233
58.300602 62.532974 -0.32798427
57.964317 62.446411 -0.17405973
56.461586 62.059608 0
58.140682 62.49181 0.16897358
58.515385 62.581188 -0.93398941
58.265476 62.516541 -0.81710994
58.304909 62.526741 -0.65158159
58.299362 62.525307 -0.4908312
58.33744 62.535156 -0.32596594
57.951099 62.435215 -0.17449529
56.489124 62.057018 0
58.172688 62.492538 0.16810302
58.521881 62.575806 -0.93317521
58.179871 62.486889 -0.82956749
58.296844 62.5173 -0.65270841
58.380634 62.539085 -0.48398536
58.279137 62.512695 -0.32942545
57.998257 62.439674 -0.17318918
56.49651 62.049252 0
58.169487 62.484192 0.16824803
58.552315 62.576687 -0.92828387
58.205971 62.486198 -0.82610738
58.274063 62.50399 -0.65552235
58.422142 62.542679 -0.48056161
58.295959 62.509708 -0.32856029
57.969986 62.424545 -0.17405973
56.483761 62.03624 0
58.166302 62.475834 0.16839302
58.510994 62.558804 -0.9356209
58.241779 62.488121 -0.82126158
58.334858 62.512558 -0.64876771
58.394119 62.528118 -0.48312861
58.367802 62.52121 -0.32452476
57.946766 62.41066 -0.17478529
56.561661 62.046986 0
58.208359 62.479343 0.1672319
58.5462 62.561001 -0.92991537
58.209648 62.472202 -0.82610738
58.341568 62.507008 -0.64820534
58.385967 62.518723 -0.48398536
58.334576 62.505165 -0.32654309
57.933613 62.399368 -0.17522085
56.564026 62.038002 0
58.190102 62.467045 0.16781247
58.590942 62.565815 -0.92258149
58.410339 62.517929 -0.79772943
58.33847 62.498871 -0.64876771
58.377846 62.509312 -0.48484048
58.361401 62.504951 -0.32510078
57.960663 62.398697 -0.17449529
56.531178 62.019676 0
58.207031 62.464024 0.16737691
58.473267 62.527462 -0.94295484
58.266693 62.472424 -0.81849295
58.359928 62.497265 -0.64651614
58.384605 62.503841 -0.48441291
58.408195 62.510124 -0.32250643
57.952568 62.388729 -0.17478529
56.629143 62.036118 0
58.208893 62.457024 0.16737691
58.49892 62.52718 -0.9388808
58.244293 62.459007 -0.82195574
58.37648 62.494396 -0.64482695
58.421139 62.506351 -0.48141673
58.395 62.499355 -0.32337159
57.949486 62.380074 -0.17493086
56.591297 62.016441 0
58.225807 62.454056 0.16694191
58.557987 62.535942 -0.92910117
58.289764 62.463783 -0.81572694
58.353771 62.481003 -0.64764082
58.432854 62.502277 -0.48056161
58.40181 62.493927 -0.32308358
57.941418 62.370068 -0.17522085
56.623848 62.015602 0
58.267826 62.457882 0.16578078
58.650433 62.553879 -0.91361606
58.335232 62.468674 -0.80949551
58.375214 62.479481 -0.64539146
58.419811 62.491535 -0.48184428
58.413631 62.489864 -0.32250643
57.943394 62.362747 -0.17522085
56.636311 62.009411 0
58.234589 62.441467 0.16679634
58.59882 62.536423 -0.92258149
58.210232 62.431129 -0.82749301
58.405575 62.484058 -0.64201307
58.425674 62.489506 -0.48141673
58.404549 62.483784 -0.32308358
57.929329 62.355011 -0.17565641
58.375671 62.475956 0
58.245556 62.440701 0.16650635
58.619671 62.535095 -0.9193216
58.275082 62.441273 -0.81849295
58.373081 62.467957 -0.64595383
58.442371 62.48682 -0.48013243
58.396412 62.474308 -0.3236596
57.94136 62.35041 -0.17536585
58.307198 62.450016 0
58.282551 62.443306 0.16549022
58.530865 62.503815 -0.93480361
58.344719 62.452888 -0.80880398
58.379833 62.462498 -0.64539146
58.463993 62.485519 -0.47842219
58.413216 62.47163 -0.32279557
57.923309 62.337605 -0.17594641
58.324139 62.447262 0
58.274399 62.433655 0.16578078
58.465939 62.478863 -0.94621468
58.230476 62.414143 -0.82541585
58.406212 62.462444 -0.64257544
58.48563 62.484276 -0.47671032
58.420067 62.466255 -0.32250643
57.950371 62.337151 -0.17522085
58.30093 62.433506 0
58.286327 62.429493 0.16549022
58.539257 62.491917 -0.93398941
58.18404 62.393818 -0.83233619
58.417858 62.458389 -0.64145076
58.492428 62.478985 -0.47628114
58.396999 62.452629 -0.32394761
57.917313 62.320156 -0.17623697
58.33292 62.434933 0
58.283207 62.421204 0.16563579
58.603001 62.502499 -0.92339563
58.263344 62.408257 -0.82126158
58.424618 62.453003 -0.64088839
58.484367 62.469582 -0.47713789
58.388893 62.443092 -0.32452476
57.934376 62.316978 -0.17580141
58.349869 62.432262 0
58.300144 62.418465 0.16520023
58.533386 62.476067 -0.9356209
58.308765 62.413448 -0.81503278
58.41671 62.443542 -0.64201307
58.530724 62.475327 -0.4732866
58.370846 62.430756 -0.32567793
57.831291 62.280342 -0.17884919
58.401894 62.439411 0
58.327087 62.418556 0.16447467
58.630432 62.496124 -0.9193216
58.281689 62.398453 -0.8191871
58.467522 62.4505 -0.63638532
58.502918 62.460411 -0.47585356
58.387695 62.428143 -0.32481277
57.393013 62.149559 -0.19162092
64 64 0
58.314003 62.407501 0.16490968
58.494263 62.450813 -0.94295484
58.293297 62.394264 -0.81780142
58.488964 62.449322 -0.63413376
58.539383 62.463509 -0.47285739
58.409515 62.426968 -0.3236596
56.865005 61.992374 -0.20700486
58.375629 62.417431 0
58.345936 62.409077 0.16403912
58.524689 62.452232 -0.93806344
58.237301 62.370991 -0.82610738
58.441948 62.428841 -0.63976157
58.496761 62.444336 -0.47671032
58.381546 62.411766 -0.32538992
56.817436 61.969624 -0.20845598
58.382549 62.412052 0
58.347862 62.402245 0.16403912
58.545582 62.451019 -0.93480361
58.316502 62.38596 -0.81503278
58.468292 62.429066 -0.63694763
58.523354 62.444706 -0.47456926
58.373524 62.402157 -0.32596594
56.799896 61.955265 -0.20903653
58.369465 62.401001 0
58.3498 62.395416 0.16403912
58.528446 62.439003 -0.93806344
58.226776 62.35294 -0.82818455
58.455528 62.418201 -0.63863683
58.535103 62.440903 -0.47371414
58.375458 62.395359 -0.32596594
56.812359 61.949417 -0.20874654
58.406425 62.40419 0
58.356735 62.390015 0.16389412
58.558838 62.440563 -0.93317521
58.209476 62.340435 -0.83095318
58.462341 62.412907 -0.63807237
58.51725 62.428642 -0.47542602
58.40226 62.395687 -0.32452476
56.814842 61.940731 -0.20874654
58.418373 62.400307 0
58.353691 62.381767 0.16403912
58.593983 62.443565 -0.92746967
58.153625 62.31678 -0.83925909
58.449608 62.401997 -0.63976157
58.538887 62.4277 -0.47371414
58.354504 62.374615 -0.32740712
56.832321 61.936367 -0.20831098
58.440315 62.399323 0
58.37064 62.379261 0.16360356
58.591122 62.435661 -0.92828387
58.237598 62.333416 -0.82749301
58.466194 62.399529 -0.63807237
58.506264 62.411118 -0.47671032
58.401192 62.38073 -0.32481277
56.804874 61.919048 -0.20918153
58.352245 62.366573 0
58.402546 62.381123 0.162733
58.583515 62.426365 -0.92991537
58.201088 62.315262 -0.83302766
58.453487 62.388588 -0.63976157
58.527908 62.41021 -0.47499844
58.378319 62.366749 -0.32625395
56.822353 61.9147 -0.20874654
58.434196 62.382984 0
58.384544 62.368561 0.16331355
58.665146 62.446587 -0.91606176
58.202106 62.311756 -0.83302766
58.473976 62.390923 -0.63751
58.504227 62.399731 -0.47713789
58.404137 62.370583 -0.32481277
56.838589 61.914726 -0.20831098
58.460155 62.386898 0
58.405487 62.370979 0.162733
58.500984 62.391575 -0.94458318
58.136723 62.28503 -0.84271926
58.480797 62.38567 -0.63694763
58.50124 62.391651 -0.47756544
58.386246 62.358013 -0.32596594
56.851097 61.908993 -0.20802042
58.512077 62.394817 0
58.422428 62.368599 0.16229744
58.668915 62.433697 -0.91606176
58.105114 62.268051 -0.84756237
58.434006 62.364681 -0.64257544
58.498268 62.38356 -0.47799298
58.40313 62.35561 -0.32510078
56.858612 61.901821 -0.20787542
58.494041 62.38232 0
58.409443 62.357464 0.162733
58.722965 62.44265 -0.90709633
58.169765 62.279388 -0.83856493
58.465221 62.366585 -0.6391992
58.500225 62.376915 -0.47799298
58.41008 62.350311 -0.32481277
56.866131 61.894661 -0.20773041
58.401146 62.347675 0
58.451305 62.362476 0.16157189
58.540012 62.381481 -0.9388808
58.171852 62.272346 -0.83856493
58.452576 62.355564 -0.64088839
58.482498 62.364433 -0.47970486
58.392235 62.337677 -0.32596594
56.898567 61.894905 -0.20685986
58.463032 62.358662 0
58.448311 62.354298 0.16171688
58.589359 62.388996 -0.93072957
58.260494 62.291077 -0.82610738
58.420486 62.338715 -0.64482695
58.474628 62.354836 -0.48056161
58.379372 62.326473 -0.3268311
56.911087 61.889294 -0.2065693
58.475006 62.354946 0
58.440331 62.344624 0.16200744
58.671814 62.406536 -0.9168759
58.12796 62.243889 -0.84548789
58.40789 62.327602 -0.64651614
58.506142 62.356987 -0.47799298
58.421047 62.331539 -0.32452476
56.933559 61.886684 -0.20598875
58.501926 62.355728 0
58.477196 62.348331 0.16099133
58.564854 62.36739 -0.9356209
58.072422 62.219471 -0.85379386
58.453712 62.334003 -0.64145076
58.498291 62.347393 -0.47884974
58.368565 62.308426 -0.32769626
56.94109 61.879642 -0.20584375
58.409199 62.320633 0
58.464256 62.337173 0.16142689
58.538445 62.352261 -0.94050914
58.151436 62.2355 -0.84271926
58.46059 62.32877 -0.64088839
58.524864 62.34816 -0.47671032
58.345856 62.294155 -0.32913744
56.948627 61.872616 -0.20569874
58.426186 62.31839 0
58.46627 62.330486 0.16142689
58.568813 62.354259 -0.9356209
58.057552 62.199337 -0.85655981
58.501518 62.333866 -0.63638532
58.482643 62.328148 -0.48056161
58.38258 62.297829 -0.32711911
58.542671 62.346336 -0.15925634
58.453125 62.319202 0
58.503113 62.334351 0.16041076
58.707943 62.389435 -0.91198772
58.07412 62.196537 -0.85448533
58.396591 62.294678 -0.64876771
58.489594 62.322983 -0.48013243
58.345051 62.278992 -0.32942545
58.499931 62.32613 -0.16056246
58.450184 62.310989 0
58.505127 62.327709 0.16041076
58.681541 62.374374 -0.9168759
57.908375 62.13805 -0.87870902
58.437534 62.299793 -0.64426464
58.481796 62.31332 -0.48098919
58.36692 62.27821 -0.32827228
58.492008 62.316444 -0.16085301
58.521908 62.325581 0
58.492237 62.316513 0.16084632
58.622078 62.349091 -0.92746967
57.699596 62.065907 -0.90916145
58.415306 62.285618 -0.64707851
58.498566 62.311176 -0.47970486
58.378887 62.274437 -0.32769626
58.489082 62.308266 -0.16099802
58.618477 62.347984 0
58.529057 62.320538 0.15983021
58.58157 62.329491 -0.93480361
57.769054 62.078991 -0.89947253
58.45623 62.290848 -0.64257544
58.490791 62.301502 -0.48056161
58.316715 62.247833 -0.33144379
58.496094 62.303139 -0.16085301
58.516029 62.309284 0
58.53109 62.313927 0.15983021
58.621368 62.334641 -0.92828387
57.685116 62.044754 -0.91193014
58.438885 62.278137 -0.64482695
58.512463 62.300919 -0.47884974
58.333668 62.24556 -0.33057863
64 64 -0
58.463379 62.285721 0
58.548031 62.311932 0.15939465
58.628098 62.329609 -0.92746967
57.673103 62.032654 -0.91400725
58.377888 62.251804 -0.65214396
58.509624 62.292767 -0.47927731
58.395065 62.257145 -0.32711911
58.505188 62.291389 -0.16070746
58.540012 62.302216 0
58.564949 62.309971 0.15895966
58.650005 62.325779 -0.92420983
57.671898 62.019691 -0.91469878
58.434402 62.258308 -0.64595383
58.488232 62.275154 -0.48141673
58.324177 62.223816 -0.33144379
58.53804 62.290741 -0.1598369
58.503361 62.279888 0
58.54818 62.293915 0.15954021
58.609596 62.305981 -0.93154377
57.664711 62.009033 -0.91608441
58.388039 62.236351 -0.65158159
58.495213 62.270035 -0.48098919
58.326328 62.216957 -0.33144379
58.535156 62.282585 -0.15998191
58.659359 62.321621 0
58.560173 62.290447 0.15924965
58.658775 62.314342 -0.92339563
57.68626 62.007423 -0.91331577
58.433784 62.243336 -0.64651614
58.477722 62.257202 -0.48270103
58.353165 62.217892 -0.33000147
58.542191 62.277546 -0.1598369
58.676289 62.31987 0
58.601887 62.296387 0.15808854
58.674957 62.31237 -0.92095
57.607365 61.974026 -0.92508185
58.421375 62.232002 -0.64820534
58.440681 62.238121 -0.48612478
58.335598 62.204819 -0.33115464
58.549225 62.272522 -0.1596919
58.564198 62.277267 0
58.584133 62.283588 0.1586691
58.724098 62.320927 -0.91280186
57.705444 61.996735 -0.91123861
58.428371 62.22681 -0.64764082
58.477062 62.242306 -0.48312861
58.362415 62.205818 -0.32971346
58.531506 62.259632 -0.16027246
58.59605 62.280174 0
58.596107 62.280193 0.15837909
58.594288 62.272419 -0.9356209
57.660065 61.973854 -0.91816157
58.445026 62.224716 -0.64595383
58.376495 62.202816 -0.4921155
58.389217 62.206882 -0.32827228
58.58807 62.270432 -0.15867579
58.548542 62.257797 0
58.613045 62.278412 0.15794353
58.723469 62.306671 -0.91361606
57.595642 61.944733 -0.92785048
58.369755 62.193161 -0.65495998
58.451988 62.219551 -0.48569724
58.386467 62.198524 -0.32856029
58.609959 62.270245 -0.15809523
58.600224 62.26712 0
58.605225 62.268726 0.15823409
58.63612 62.271488 -0.92910117
57.664978 61.958538 -0.91816157
58.386459 62.191036 -0.65327078
58.47369 62.219147 -0.48398536
58.492043 62.22506 -0.32250643
58.592266 62.257359 -0.15867579
58.612221 62.263786 0
58.622162 62.266991 0.15779854
58.647629 62.268055 -0.92746967
57.634048 61.940079 -0.92300469
58.403156 62.18895 -0.65158159
58.456306 62.206146 -0.48569724
58.617226 62.258221 -0.31529939
58.599316 62.252422 -0.15853079
58.604427 62.254078 0
58.6292 62.262093 0.15765354
58.612114 62.249371 -0.93398941
57.674717 61.94479 -0.91746742
58.395676 62.179043 -0.65270841
58.46825 62.202625 -0.48484048
58.629166 62.25491 -0.31472337
58.596493 62.244293 -0.15867579
58.552082 62.229866 0
58.641197 62.25882 0.15736298
58.63303 62.248993 -0.93072957
57.634281 61.923145 -0.92369622
58.417202 62.178577 -0.65045691
58.475304 62.197533 -0.48441291
58.778805 62.296555 -0.30607516
58.593681 62.236156 -0.15882079
58.593811 62.236198 0
58.643307 62.252346 0.15736298
58.663326 62.25174 -0.92584133
57.698776 61.93576 -0.91469878
58.371124 62.156017 -0.65608466
58.350639 62.149307 -0.49553925
58.820194 62.303127 -0.30376881
58.61557 62.236095 -0.15824023
58.739388 62.276657 0
58.620735 62.237785 0.15808854
58.618496 62.229851 -0.93398941
57.653603 61.912468 -0.92162168
58.436108 62.169857 -0.64876771
58.313866 62.129646 -0.49896297
58.763283 62.277473 -0.30722833
58.59301 62.221466 -0.15896635
58.637646 62.236149 0
58.65741 62.242649 0.15707298
58.747356 62.265202 -0.91198772
57.660908 61.906376 -0.92092752
56.199432 61.423695 -0.90993327
58.243015 62.098633 -0.50538123
58.814495 62.287376 -0.30434483
58.63464 62.227974 -0.15780523
58.708965 62.252522 0
58.669415 62.23946 0.15678242
58.74477 62.257301 -0.91280186
57.658665 61.897137 -0.92162168
56.221848 61.42067 -0.9076817
57.680046 61.904224 -0.55502379
58.826378 62.284363 -0.30376881
58.641731 62.223133 -0.15765966
58.641922 62.223194 0
58.676476 62.234653 0.15663742
58.637943 62.218281 -0.93154377
57.678982 61.899635 -0.91885304
56.237877 61.42078 -0.90599251
57.540024 61.853462 -0.56743443
58.866688 62.294289 -0.30146247
58.647736 62.221535 -0.15751468
58.722027 62.24622 0
58.702198 62.239632 0.15591186
58.738567 62.244652 -0.91443026
57.681526 61.891998 -0.91885304
56.221718 61.404968 -0.90824407
57.474449 61.82291 -0.57342517
58.785339 62.260258 -0.30636317
58.654812 62.216709 -0.15736967
58.719219 62.238197 0
58.66489 62.220074 0.15707298
58.778172 62.250851 -0.90791368
57.622231 61.863647 -0.92785048
56.234505 61.398804 -0.90711719
57.506287 61.82481 -0.57085818
58.821785 62.265461 -0.30434483
58.627415 62.200352 -0.15824023
58.671986 62.215282 0
58.696621 62.223534 0.15620187
58.64912 62.200428 -0.93072957
57.653362 61.865543 -0.92369622
56.223202 61.38456 -0.90880638
57.484592 61.808784 -0.57299763
58.877804 62.27734 -0.30117446
58.654217 62.202145 -0.15751468
58.708687 62.220463 0
58.688908 62.21381 0.15649243
58.735588 62.222427 -0.91606176
57.689209 61.869106 -0.91885304
56.231178 61.376789 -0.90824407
57.487244 61.800911 -0.57299763
58.781887 62.23806 -0.30693921
58.651474 62.194023 -0.15765966
58.607285 62.179104 0
58.715687 62.215706 0.15576686
58.620708 62.176392 -0.9364351
57.710796 61.867928 -0.91608441
56.248795 61.372303 -0.90655488
57.494762 61.794693 -0.57257009
58.833 62.24836 -0.30405682
58.65366 62.187561 -0.15765966
58.6637 62.190968 0
58.722782 62.210995 0.15562131
58.735226 62.208118 -0.9168759
57.613632 61.826382 -0.93061912
56.227928 61.354752 -0.90936875
57.497433 61.786831 -0.57257009
58.800835 62.23045 -0.30607516
58.650917 62.179424 -0.15780523
58.685596 62.191227 0
58.715099 62.201267 0.15591186
58.629803 62.164993 -0.9356209
57.687489 61.843002 -0.92023605
56.245541 61.350288 -0.9076817
57.534126 61.7906 -0.56957388
58.856827 62.242569 -0.30290365
58.687553 62.184727 -0.15678911
58.673027 62.179764 0
58.727119 62.19825 0.15562131
58.66943 62.171341 -0.92910117
57.637886 61.817467 -0.92785048
56.239143 61.337624 -0.90880638
57.51252 61.77446 -0.57171333
58.922562 62.258175 -0.29915613
58.69466 62.179993 -0.15664411
58.749065 62.198658 0
58.71946 62.188503 0.15591186
58.662308 62.161682 -0.93072957
57.64053 61.80978 -0.92785048
56.251968 61.331558 -0.9076817
57.515217 61.766624 -0.57171333
58.856205 62.228462 -0.30319169
58.691956 62.171894 -0.15678911
58.677441 62.166897 0
58.751144 62.19228 0.15504074
58.669197 62.156849 -0.92991537
57.67638 61.813576 -0.92300469
56.260014 61.32386 -0.90711719
57.513073 61.757114 -0.57214087
58.951225 62.25436 -0.29771495
58.669613 62.156994 -0.15751468
58.70425 62.168968 0
58.723854 62.175747 0.15591186
58.713455 62.164997 -0.92258149
57.716946 61.819099 -0.91746742
56.277641 61.319508 -0.9054302
64 64 -0
58.919125 62.236385 -0.29973328
58.706196 62.162476 -0.15649912
58.750717 62.177929 0
58.755527 62.1796 0.15504074
58.706348 62.155361 -0.92420983
57.643776 61.785095 -0.92854202
56.285679 61.311848 -0.90486783
57.494255 61.73299 -0.57428193
58.921261 62.230247 -0.29973328
58.713341 62.157799 -0.15635355
58.723442 62.161316 0
58.747906 62.169842 0.1553313
58.605938 62.11306 -0.94213748
57.69381 61.79398 -0.92162168
56.288933 61.302528 -0.90486783
57.463089 61.713268 -0.57727647
58.942932 62.230946 -0.29858011
58.705753 62.147976 -0.15664411
58.720737 62.153217 0
58.784466 62.17551 0.15431519
58.603546 62.1049 -0.94295484
57.734352 61.79966 -0.91608441
56.301796 61.296585 -0.903741
57.504612 61.718983 -0.57385272
58.969494 62.23341 -0.29713783
58.703094 62.139858 -0.15678911
58.708256 62.14167 0
58.762161 62.160603 0.15504074
58.671116 62.121391 -0.93154377
57.708633 61.782085 -0.92023605
56.295475 61.283901 -0.90486783
64 64 -0
58.937477 62.215294 -0.29915613
58.744556 62.147282 -0.155628
58.715408 62.137009 0
58.779076 62.159454 0.15460575
58.667576 62.116524 -0.93236107
57.667397 61.763248 -0.92646486
56.277969 61.272484 -0.90711719
57.542629 61.719177 -0.57085818
58.948299 62.215679 -0.29858011
58.730972 62.138916 -0.15606356
58.795059 62.161552 0
58.804707 62.164959 0.15387963
58.548733 62.067135 -0.95354861
57.651188 61.74889 -0.92923349
56.305214 61.271645 -0.90430331
57.526035 61.704514 -0.57257009
58.96022 62.213036 -0.29800296
58.767517 62.144707 -0.15504745
58.758041 62.14135 0
58.782421 62.149994 0.15460575
58.658188 62.098675 -0.93480361
57.639729 61.736172 -0.93131065
56.308517 61.262348 -0.90430331
57.543327 61.701859 -0.57128572
58.967251 62.208679 -0.29771495
58.7257 62.122704 -0.15635355
58.730858 62.124538 0
58.78466 62.143692 0.15460575
58.702377 62.107189 -0.92746967
57.718067 61.755501 -0.92023605
56.30703 61.251343 -0.90486783
57.550941 61.695786 -0.57085818
58.959686 62.199123 -0.298291
58.747551 62.123329 -0.155773
58.767445 62.130436 0
58.81139 62.146137 0.15387963
58.746544 62.115807 -0.9201358
57.668827 61.729275 -0.92785048
56.315155 61.243771 -0.90430331
57.544071 61.684532 -0.57171333
58.966732 62.194778 -0.29800296
58.764481 62.122242 -0.155338
58.794197 62.1329 0
58.794067 62.132851 0.15446019
58.651157 62.074299 -0.9372493
57.742393 61.747124 -0.91746742
56.323265 61.236206 -0.903741
57.571022 61.685425 -0.56957388
58.993248 62.197456 -0.29656178
58.756985 62.1124 -0.155628
58.791565 62.124847 0
58.810982 62.13184 0.15402518
58.64418 62.064472 -0.9388808
57.693211 61.720802 -0.92508185
56.317043 61.223473 -0.90486783
57.578648 61.679401 -0.56914634
58.971107 62.182621 -0.29800296
58.754387 62.104301 -0.155773
58.759567 62.106171 0
58.813244 62.125572 0.15402518
58.669769 62.066437 -0.93480361
57.757282 61.735428 -0.91608441
56.325195 61.215931 -0.90430331
57.59594 61.676899 -0.56786203
58.99276 62.183601 -0.29684979
58.795765 62.112141 -0.15461189
58.766766 62.10162 0
58.810631 62.117535 0.15417019
58.63031 62.044777 -0.94213748
57.727032 61.715874 -0.92092752
56.319008 61.203178 -0.9054302
57.61805 61.676189 -0.56615013
58.951218 62.161625 -0.29944414
58.788273 62.102295 -0.15490244
58.79351 62.104202 0
58.808033 62.109489 0.15431519
58.693031 62.060349 -0.93154377
57.748631 61.715179 -0.91816157
56.32716 61.195644 -0.90486783
57.630497 61.672001 -0.56529504
58.972874 62.162628 -0.298291
58.780819 62.092434 -0.15519243
58.751812 62.081833 0
58.844494 62.115707 0.15329908
58.778904 62.084579 -0.9168759
57.685455 61.683437 -0.92785048
56.316254 61.181129 -0.90655488
57.638149 61.66608 -0.56486583
58.984802 62.160114 -0.29771495
58.792873 62.089706 -0.15490244
58.807873 62.095207 0
58.827255 62.102318 0.15387963
58.71629 62.054363 -0.92828387
57.730633 61.69141 -0.92162168
56.333958 61.177109 -0.90486783
57.640972 61.658394 -0.56486583
59.006447 62.161209 -0.29656178
58.785442 62.079826 -0.15519243
58.776001 62.076351 0
58.839298 62.099659 0.15358964
58.635174 62.017128 -0.94295484
57.761673 61.694279 -0.91746742
56.32309 61.162567 -0.90655488
57.677505 61.663166 -0.56187129
58.974701 62.14262 -0.29858011
58.812134 62.082535 -0.15446688
58.851547 62.097099 0
58.836727 62.091625 0.15373462
58.827587 62.081139 -0.90954202
57.755047 61.683247 -0.91885304
56.336044 61.156826 -0.9054302
57.675522 61.653748 -0.56229883
58.976952 62.136551 -0.29858011
58.809589 62.074463 -0.15461189
58.834332 62.083641 0
58.843906 62.087193 0.15358964
58.718731 62.033493 -0.92910117
57.724949 61.663452 -0.92369622
56.339485 61.147568 -0.9054302
57.687996 61.649693 -0.56144208
58.964676 62.125072 -0.29944414
58.777821 62.055496 -0.155628
58.802502 62.064686 0
58.846222 62.080963 0.15358964
58.559059 61.966549 -0.95762265
57.746578 61.662899 -0.92092752
56.328671 61.13298 -0.90711719
57.695644 61.643864 -0.56101453
59.010551 62.135284 -0.29684979
58.765568 62.043728 -0.15606356
58.799973 62.056583 0
58.843681 62.072922 0.15373462
58.648251 61.996197 -0.94213748
57.715092 61.646801 -0.92577332
56.344666 61.133686 -0.9054302
57.725906 61.650852 -0.55844754
59.016518 62.134083 -0.29656178
58.786217 62.047855 -0.15548299
58.854771 62.073521 0
58.839981 62.067986 0.15387963
58.572018 61.960171 -0.95599115
57.760208 61.655094 -0.91954458
56.333878 61.119083 -0.90711719
57.728752 61.643272 -0.55844754
59.013939 62.126244 -0.29684979
58.778858 62.037903 -0.155773
58.803505 62.047165 0
58.847179 62.063576 0.15373462
58.727093 62.011173 -0.92910117
57.777134 61.65287 -0.91746742
64 64 -0
57.760437 61.646572 -0.55587894
59.006516 62.116566 -0.29742694
58.766644 62.026093 -0.15620856
58.81073 62.042721 0
58.854382 62.059185 0.15358964
58.60931 61.959305 -0.95028871
57.747124 61.632915 -0.92231321
56.340862 61.100563 -0.90711719
57.768082 61.64085 -0.55545139
59.037834 62.121529 -0.29569662
58.803059 62.03265 -0.15519243
58.774178 62.021717 0
58.847019 62.049294 0.15387963
64 64 -0
57.712463 61.611107 -0.92785048
56.301605 61.075062 -0.91218477
57.804535 61.646088 -0.55245519
59.020763 62.108185 -0.29684979
58.781136 62.017139 -0.15591855
58.825218 62.033886 0
58.854233 62.04491 0.15373462
58.540356 61.918106 -0.96332818
57.691917 61.594574 -0.93131065
56.314651 61.069386 -0.91105795
57.802574 61.636768 -0.5528844
59.008549 62.096638 -0.29771495
58.807827 62.020096 -0.15519243
58.85191 62.036907 0
58.856602 62.038696 0.15373462
64 64 -0
57.755745 61.610268 -0.92231321
56.346664 61.070999 -0.9076817
57.805435 61.629284 -0.5528844
58.967377 62.073967 -0.3003093
58.795658 62.008251 -0.155628
58.810539 62.013947 0
58.858974 62.032482 0.15373462
64 64 -0
57.749275 61.599129 -0.92369622
56.335991 61.05629 -0.90936875
57.827473 61.629162 -0.55117249
59.022831 62.088295 -0.29713783
58.773815 61.992649 -0.15635355
58.812943 62.007675 0
58.856506 62.02441 0.15387963
64 64 -0
57.775585 61.600597 -0.92023605
56.349026 61.050686 -0.90824407
57.859097 61.63279 -0.54860389
58.981689 62.065529 -0.29973328
58.766537 61.982594 -0.15664411
58.863911 62.02013 0
58.858898 62.018196 0.15387963
64 64 -0
57.745728 61.580406 -0.92508185
56.35733 61.043274 -0.9076817
57.895466 61.638332 -0.54560935
59.037106 62.080002 -0.29656178
58.768978 61.976273 -0.15664411
58.788654 61.983883 0
58.866138 62.013859 0.15373462
64 64 -0
57.786076 61.587379 -0.91954458
56.365662 61.035885 -0.90711719
57.955757 61.653259 -0.54047376
59.058716 62.081493 -0.29540861
58.76659 61.968071 -0.15678911
58.805637 61.983234 0
58.858845 62.003891 0.15402518
64 64 -0
57.774967 61.574406 -0.92162168
56.355038 61.021126 -0.90880638
57.992088 61.659008 -0.53747755
59.089951 62.086792 -0.29367942
58.769047 61.96175 -0.15678911
58.822632 61.982628 0
58.851585 61.993912 0.15431519
64 64 -0
57.782589 61.568718 -0.92092752
56.387032 61.022991 -0.9054302
58.052299 61.674187 -0.53234196
59.048908 62.063904 -0.29627377
58.747318 61.945969 -0.15751468
58.786293 61.961212 0
58.854012 61.987694 0.15431519
64 64 -0
57.78553 61.561207 -0.92092752
56.371712 61.006371 -0.9076817
58.46133 61.826416 -0.49596679
59.036819 62.052261 -0.29713783
58.77882 61.951012 -0.15664411
58.725777 61.930195 0
58.84193 61.975777 0.15475075
64 64 -0
57.821148 61.566566 -0.91608441
56.365887 60.993435 -0.90880638
58.721909 61.921314 -0.47285739
59.019924 62.038681 -0.298291
58.790981 61.948517 -0.15635355
58.742817 61.929546 0
58.849213 61.971451 0.15460575
64 64 -0
57.813293 61.559151 -0.91746742
56.377148 60.99255 -0.9076817
58.804352 61.950157 -0.46558234
59.021111 62.035675 -0.298291
58.768055 61.935837 -0.15707912
58.816681 61.955021 0
58.845608 61.966431 0.15475075
64 64 -0
57.828526 61.547913 -0.91608441
56.375004 60.970387 -0.90880638
58.847473 61.952766 -0.46216026
59.030674 62.025555 -0.29800296
58.768215 61.921272 -0.15722467
58.720062 61.902142 0
58.865032 61.95974 0.15431519
64 64 -0
57.747612 61.507008 -0.92854202
56.3881 60.964935 -0.9076817
58.849953 61.946541 -0.46216026
59.047485 62.025303 -0.29713783
58.756264 61.909184 -0.15765966
58.751617 61.907333 0
58.814396 61.932365 0.15591186
64 64 -0
57.820492 61.527409 -0.91816157
56.387062 60.953857 -0.90824407
58.890572 61.955578 -0.45873651
59.016251 62.005867 -0.29915613
58.749134 61.898987 -0.15795022
58.60434 61.841049 0
64 64 0
64 64 -0
57.809528 61.514343 -0.92023605
56.409611 60.952232 -0.90599251
58.907341 61.955147 -0.45745221
59.02346 62.00177 -0.29886812
58.751675 61.892643 -0.15795022
58.640766 61.84811 0
58.848351 61.931461 0.15504074
64 64 -0
57.775303 61.491863 -0.92577332
56.389736 60.933571 -0.90880638
58.90506 61.947079 -0.45787975
59.040276 62.00156 -0.29800296
58.744595 61.882423 -0.15824023
58.585438 61.818291 0
64 64 0
64 64 -0
57.815552 61.49939 -0.92023605
56.402859 60.928185 -0.9076817
58.917053 61.944767 -0.45702466
59.018719 61.985878 -0.29944414
58.737511 61.872173 -0.15853079
58.573616 61.805904 0
58.862991 61.922909 0.15475075
64 64 -0
57.758141 61.467396 -0.92923349
56.406578 60.919006 -0.9076817
58.867222 61.9174 -0.46173105
58.968426 61.958462 -0.30261564
58.740086 61.865814 -0.15853079
58.610016 61.813042 0
58.851055 61.910839 0.15518631
64 64 -0
57.812309 61.480663 -0.92162168
56.415024 60.911755 -0.90711719
58.912533 61.928623 -0.45787975
59.047554 61.983597 -0.29800296
58.723415 61.851624 -0.15911135
58.574097 61.790829 0
58.85841 61.906586 0.15504074
64 64 -0
57.792141 61.463703 -0.92508185
56.418762 60.902592 -0.90711719
58.891281 61.912769 -0.4600192
59.021252 61.96587 -0.29973328
58.735649 61.849182 -0.15882079
58.547871 61.772465 0
64 64 0
64 64 -0
57.818417 61.465717 -0.92162168
56.431904 60.897285 -0.90599251
58.903297 61.910488 -0.45916408
59.05722 61.973595 -0.29771495
58.719017 61.834938 -0.15940134
58.540924 61.761925 0
58.829819 61.880363 0.15605687
64 64 -0
57.789017 61.444893 -0.92646486
56.402756 60.874607 -0.90993327
58.915333 61.908241 -0.45830733
59.083588 61.977463 -0.29627377
58.731239 61.832512 -0.15911135
58.548462 61.757317 0
58.841988 61.878071 0.15576686
64 64 -0
57.819927 61.448875 -0.92231321
56.40654 60.865429 -0.90993327
58.913105 61.900135 -0.45873651
59.038231 61.95179 -0.29915613
58.719463 61.820202 -0.15954635
58.546349 61.748741 0
58.834957 61.867878 0.15605687
64 64 -0
57.818382 61.439491 -0.92300469
56.429111 60.864037 -0.9076817
58.915646 61.89399 -0.45873651
58.983356 61.922039 -0.30261564
58.71249 61.809841 -0.1598369
58.54427 61.740162 0
58.832741 61.85965 0.15620187
64 64 -0
57.816853 61.430099 -0.92369622
56.414135 60.847088 -0.90993327
58.894493 61.877998 -0.46087596
59.038422 61.93782 -0.29944414
58.729542 61.809441 -0.15940134
58.547005 61.733574 0
58.825722 61.849415 0.15649243
64 64 -0
57.823032 61.428291 -0.92300469
56.420746 60.844463 -0.90936875
58.905266 61.878864 -0.4600192
59.030109 61.930843 -0.30002129
58.726074 61.80426 -0.15954635
58.509933 61.714272 0
58.831833 61.848293 0.15634686
64 64 -0
57.812252 61.415024 -0.92508185
56.405811 60.827473 -0.91162032
58.922031 61.878643 -0.45873651
58.994427 61.908886 -0.30232763
58.723923 61.795879 -0.1596919
58.474277 61.691589 0
58.829628 61.840042 0.15649243
64 64 -0
57.838512 61.417248 -0.92162168
56.423695 60.824188 -0.90993327
58.896194 61.860603 -0.4613035
