# .PCD v0.7 - Point Cloud Data file format
VERSION 0.7
FIELDS x y z
SIZE 4 4 4
TYPE F F F
COUNT 1 1 1
WIDTH 1650
HEIGHT 1
VIEWPOINT 0 0 0 1 0 0 0
POINTS 1650
DATA ascii
61.49749 70.199921 -0.92231321
60.870007 71.754501 -0.92625636
59.932098 74.078148 -0.90593892
58.65683 77.237602 -0.79556966
57.640923 79.754486 -0.4744831
55.884983 84.104797 0
55.79319 84.332214 0.61235195
61.813828 69.3974 -0.96006829
61.476814 70.229446 -0.92715901
60.889256 71.680054 -0.91781259
59.921848 74.068474 -0.90551132
58.623356 77.2743 -0.79816508
57.608242 79.780495 -0.47549868
55.880241 84.046722 0
55.784237 84.283745 0.61119086
61.824059 69.353546 -0.95273441
61.45607 70.258919 -0.93200213
60.891457 71.648056 -0.91443634
59.909687 74.063538 -0.90551132
58.617065 77.24382 -0.79672283
57.579388 79.796844 -0.47622478
55.871704 83.998322 0
55.757782 84.27861 0.61133581
61.780258 69.442436 -0.96903056
61.450401 70.251198 -0.93131065
60.912926 71.569008 -0.9054302
59.887836 74.082352 -0.90765077
58.59325 77.25647 -0.797876
57.574047 79.755386 -0.47520867
55.8554 83.969223 0
55.754875 84.215698 0.60973918
61.762447 69.467209 -0.97392195
61.418144 70.308479 -0.94030809
60.928802 71.504135 -0.89811325
59.879551 74.067863 -0.90679401
58.565475 77.278656 -0.79960626
57.545174 79.771652 -0.47593424
55.850998 83.911186 0
55.730453 84.205727 0.60973918
61.767113 69.437057 -0.96903056
61.402901 70.323921 -0.94307673
60.958347 71.406403 -0.88685554
59.865433 74.067642 -0.90722322
58.551407 77.267281 -0.79931718
57.520195 79.778275 -0.4763698
55.844738 83.858002 0
55.717888 84.166885 0.6088686
61.777496 69.393227 -0.96169668
61.433495 70.227997 -0.92923349
60.957146 71.383926 -0.88460398
59.845451 74.081612 -0.90893346
58.535381 77.260689 -0.79931718
57.501137 79.770432 -0.4763698
55.830666 83.824074 0
55.705402 84.128036 0.60799801
61.744537 69.454483 -0.9731046
61.437469 70.197083 -0.92508185
60.96376 71.342674 -0.88010091
59.847 74.043381 -0.90593892
58.497616 77.306664 -0.80248868
57.468189 79.796173 -0.47738534
58.076004 78.326263 0
55.687046 84.103592 0.60756248
61.739841 69.447189 -0.97229046
61.374222 70.328369 -0.94515389
60.9841 71.268608 -0.87165928
59.836834 74.033623 -0.90551132
58.47361 77.319122 -0.80364186
57.467033 79.745071 -0.47607923
58.064686 78.304672 0
55.670727 84.074333 0.60698193
61.74276 69.421646 -0.96821642
61.445644 70.135284 -0.91677594
60.961651 71.297783 -0.87559783
59.82077 74.038055 -0.90636647
58.455536 77.3172 -0.80392987
57.430035 79.780334 -0.47738534
58.0434 78.307106 0
55.660461 84.030663 0.60596579
61.745735 69.396111 -0.96414232
61.413094 70.192375 -0.92577332
60.945 71.312866 -0.87784934
59.810623 74.028259 -0.90593892
58.441441 77.305725 -0.80364186
57.408966 79.777199 -0.4775309
58.040165 78.266273 0
55.644279 84.001389 0.60538524
61.727211 69.431229 -0.97066206
61.362865 70.301895 -0.94238526
60.952347 71.282898 -0.87447315
59.788708 74.063622 -0.90936261
58.431408 77.307129 -0.80392987
57.381382 79.816353 -0.47883701
64 64 0
55.636204 83.986763 0.60509527
61.72065 69.428482 -0.97066206
61.394104 70.206184 -0.92854202
60.941586 71.28389 -0.87503546
59.782516 74.044319 -0.90807831
58.393299 77.352859 -0.80710137
57.360264 79.813133 -0.478982
58.052597 78.164276 0
55.626144 83.943092 0.60407913
61.758236 69.320938 -0.95191711
61.378815 70.221527 -0.93131065
60.958435 71.219315 -0.86771852
59.776367 74.025017 -0.90679401
58.365124 77.374672 -0.80883056
57.339146 79.809883 -0.47912702
58.035488 78.157082 0
55.620213 83.889862 0.60277301
61.724857 69.381981 -0.96332818
61.394741 70.162895 -0.92300469
60.937843 71.243713 -0.87109476
59.770248 74.00573 -0.90551132
58.344933 77.377396 -0.80940765
57.311954 79.820969 -0.47970757
58.014336 78.159447 0
55.598206 83.874939 0.60262799
61.737663 69.33371 -0.95517695
61.367699 70.20594 -0.92992765
60.931076 71.235329 -0.87053239
59.76017 73.995872 -0.90508217
58.326756 77.375305 -0.80969572
57.284725 79.832016 -0.48028812
58.013489 78.113869 0
55.578262 83.855194 0.60233748
61.748642 69.290039 -0.94784302
61.356277 70.211983 -0.93131065
60.924324 71.226944 -0.86997008
59.740055 74.009644 -0.90679401
58.29237 77.411278 -0.81229007
57.269665 79.814331 -0.47999814
57.996441 78.106621 0
55.570557 83.806747 0.60117632
61.720894 69.337326 -0.95680845
61.368473 70.162643 -0.92439038
60.913601 71.22789 -0.87053239
59.734005 73.990334 -0.90551132
58.270073 77.418648 -0.81315517
57.195465 79.935219 -0.48391649
57.985535 78.084991 0
55.554794 83.777435 0.60059577
61.7164 69.330017 -0.95599115
61.349178 70.187126 -0.92854202
60.916874 71.196144 -0.86715621
59.730026 73.966293 -0.90379947
58.253864 77.411713 -0.81315517
57.157799 79.969971 -0.48522261
57.972614 78.068161 0
55.551365 83.719452 0.5991447
61.698242 69.354507 -0.96088248
61.367462 70.123993 -0.91954458
60.894138 71.225075 -0.87109476
59.713936 73.970551 -0.90465456
58.227448 77.42852 -0.81459641
57.146717 79.942596 -0.48464203
57.967953 78.032181 0
55.525494 83.714005 0.59928966
61.681988 69.374413 -0.96495652
61.304424 70.249817 -0.93892509
60.907543 71.170006 -0.86490464
59.712055 73.941803 -0.90251517
58.211227 77.421532 -0.81459641
57.125393 79.939087 -0.48478758
57.969559 77.981857 0
55.518143 83.665573 0.59812856
61.71476 69.280876 -0.94865721
61.300865 70.237335 -0.93753946
60.866589 71.240883 -0.87391078
59.698006 73.941315 -0.90294272
58.186798 77.433517 -0.81574959
57.093758 79.959381 -0.48565814
57.946465 77.988892 0
55.506767 83.626701 0.59725797
61.669006 69.368797 -0.96495652
61.305317 70.206467 -0.93338782
60.876064 71.195129 -0.8688432
59.683956 73.940819 -0.90337026
58.156147 77.459702 -0.81776786
57.084827 79.927193 -0.4849326
57.933708 77.972031 0
55.476849 83.63073 0.59769356
61.674362 69.338791 -0.96006829
61.347912 70.088203 -0.91608441
60.873455 71.177383 -0.86715621
59.671947 73.935593 -0.90337026
58.131622 77.471603 -0.81892103
57.889503 78.027428 -0.42731515
57.927223 77.940834 0
55.455208 83.615662 0.59754854
61.671879 69.326912 -0.95843679
61.286308 70.209122 -0.93477076
60.856644 71.192223 -0.86940771
59.670223 73.906845 -0.90123087
58.109142 77.478714 -0.81978512
57.851749 78.067642 -0.42876628
57.91872 77.914406 0
55.446083 83.571976 0.59653246
61.685291 69.278831 -0.95028871
61.282837 70.196655 -0.93338782
60.835716 71.216339 -0.87278396
59.641762 73.939217 -0.90465456
58.088699 77.481064 -0.82036221
57.843102 78.041168 -0.4281857
57.920731 77.864136 0
55.434967 83.533066 0.59566134
61.653038 69.334846 -0.96088248
61.31778 70.096924 -0.91885304
60.8536 71.152046 -0.86546701
59.640091 73.910454 -0.90251517
58.062 77.497589 -0.82180345
57.819862 78.047989 -0.42862126
57.906075 77.85202 0
55.419739 83.503677 0.59508079
61.680523 69.255135 -0.94702888
61.330677 70.047768 -0.91193014
60.83675 71.166832 -0.86771852
59.634342 73.891083 -0.90123087
58.037342 77.509331 -0.82295662
57.809189 78.026245 -0.4281857
57.901947 77.816086 0
55.404568 83.474289 0.59450078
61.630146 69.351761 -0.96495652
61.292896 70.113358 -0.92231321
60.832214 71.153702 -0.86659169
59.612 73.909264 -0.90337026
58.018929 77.506844 -0.82324463
57.781727 78.042511 -0.42891127
57.887363 77.803955 0
55.395775 83.430626 0.59348464
61.613647 69.371475 -0.96903056
61.269215 70.146767 -0.92785048
60.809128 71.182381 -0.87053239
59.614616 73.871124 -0.90037572
57.994213 77.518517 -0.8243978
57.779526 78.001755 -0.42789569
57.87281 77.791786 0
55.378632 83.40596 0.59304911
61.62326 69.332466 -0.96251088
61.288342 70.083885 -0.91885304
60.810795 71.155319 -0.86771852
59.585972 73.903336 -0.90379947
57.96946 77.530144 -0.82555097
57.74781 78.027443 -0.42891127
57.868858 77.755859 0
55.367882 83.367058 0.59217852
61.639008 69.279961 -0.95354861
61.29533 70.048538 -0.91400725
60.791779 71.174652 -0.87053239
59.580296 73.883926 -0.90251517
57.938332 77.555908 -0.82756925
57.747829 77.981941 -0.42775071
57.837368 77.7817 0
55.365704 83.309166 0.59072685
61.624538 69.295151 -0.95680845
61.271595 70.081894 -0.91954458
60.808075 71.115128 -0.86377782
59.572563 73.869202 -0.90165842
57.92831 77.534416 -0.82670414
57.722431 77.993347 -0.42833126
57.824986 77.76474 0
55.335999 83.312943 0.59116244
61.628284 69.269737 -0.95273441
61.233356 70.147224 -0.92992765
60.786961 71.139084 -0.86715621
59.558529 73.868546 -0.90208763
57.897099 77.560089 -0.82872242
57.718327 77.957306 -0.42746016
57.821171 77.728798 0
55.327599 83.269287 0.5901463
61.594635 69.335892 -0.96495652
61.24408 70.113533 -0.92508185
60.795181 71.109329 -0.86377782
59.550461 73.870537 -0.90251517
57.878281 77.579979 -0.8301636
57.70562 77.96299 -0.42775071
57.832127 77.682358 0
55.318092 83.259308 0.59000129
61.624847 69.251915 -0.95028871
61.247032 70.087341 -0.92162168
60.784492 71.1101 -0.86434227
59.508923 73.930634 -0.90850586
57.855488 77.5867 -0.83102769
57.656639 78.02639 -0.42992738
57.841335 77.617989 0
55.303394 83.229866 0.58942074
61.598083 69.294052 -0.95843679
61.241756 70.07943 -0.92092752
60.773808 71.110832 -0.86490464
59.524502 73.864426 -0.90294272
57.821976 77.616951 -0.83333403
57.63755 78.023445 -0.4300724
57.794781 77.676888 0
55.286598 83.205154 0.58898574
61.579399 69.318146 -0.96332818
61.234413 70.076088 -0.92092752
60.750488 71.13929 -0.8688432
59.499817 73.887054 -0.90551132
57.796955 77.628311 -0.8344872
57.573242 78.119812 -0.43326572
57.804134 77.612534 0
55.278473 83.161499 0.5879696
61.59351 69.270241 -0.95517695
61.2104 70.109261 -0.92646486
60.746082 71.126122 -0.86771852
59.492146 73.872261 -0.90465456
57.743965 77.70079 -0.83938789
57.590721 78.0364 -0.43094349
57.783363 77.61451 0
55.266117 83.127319 0.58724409
61.599491 69.240372 -0.95028871
61.242718 70.019226 -0.91331577
60.748055 71.099091 -0.86490464
59.499462 73.824799 -0.90080327
57.68433 77.787285 -0.84515375
57.562946 78.052261 -0.43166906
57.762589 77.616447 0
55.234356 83.135651 0.58782464
61.576649 69.273407 -0.95680845
61.199833 70.093391 -0.92508185
60.735237 71.104385 -0.86602932
59.481159 73.833359 -0.90208763
57.667675 77.77964 -0.84515375
57.528614 78.082253 -0.43283018
57.752663 77.594704 0
55.2286 83.087265 0.58666354
61.541309 69.333313 -0.96821642
61.226082 70.017097 -0.91400725
60.726654 71.100433 -0.86602932
59.467133 73.83255 -0.90251517
57.640202 77.795464 -0.84659493
56.345467 80.603966 -0.51062101
57.725338 77.610794 0
55.207718 83.071938 0.58651853
61.56184 69.272011 -0.95762265
61.187218 70.082054 -0.92439038
60.726612 71.078018 -0.86377782
59.455257 73.827065 -0.90251517
57.610504 77.815948 -0.84832519
56.312325 80.622993 -0.5114916
57.730747 77.555954 0
55.206497 83.014122 0.58506685
61.542992 69.295959 -0.96251088
61.162979 70.115067 -0.92992765
60.71806 71.074059 -0.86377782
59.434742 73.840195 -0.90422702
57.606884 77.78006 -0.84659493
56.311928 80.571274 -0.51018548
57.747223 77.477554 0
55.174782 83.022339 0.5856474
61.557449 69.248184 -0.95436275
61.20005 70.016106 -0.91539294
60.718094 71.051659 -0.86152625
59.431522 73.816055 -0.90251517
57.590237 77.772324 -0.84659493
56.283138 80.580811 -0.51076603
57.728752 77.474709 0
55.160572 82.992813 0.58506685
61.536388 69.26017 -0.95762265
61.187653 70.004768 -0.91469878
60.68597 71.075928 -0.86546701
59.416523 73.786385 -0.90080327
57.574528 77.719315 -0.84428859
56.234276 80.58094 -0.51134658
57.707241 77.435951 0
55.112499 82.976105 0.58521181
61.555256 69.203499 -0.94784302
61.176128 70.010452 -0.91608441
60.679585 71.067322 -0.86490464
59.400341 73.790123 -0.90165842
57.551353 77.725594 -0.84515375
56.227509 80.54332 -0.51047546
64 64 0
55.001183 83.153496 0.59101743
61.506824 69.28997 -0.96414232
61.151756 70.04335 -0.92162168
60.67971 71.044922 -0.86265308
59.395073 73.770638 -0.90037572
57.539181 77.708435 -0.84457767
56.207527 80.533913 -0.51047546
57.66814 77.434814 0
55.044506 83.001587 0.58666354
61.53635 69.210991 -0.95028871
61.146606 70.035355 -0.92092752
60.675552 71.031708 -0.86152625
59.38327 73.765068 -0.90037572
57.527046 77.691261 -0.84400058
56.169785 80.562073 -0.51163656
57.671932 77.384804 0
55.006012 83.023628 0.58767909
61.551243 69.163338 -0.94213748
61.150063 70.009239 -0.91746742
60.660522 71.041466 -0.86321545
59.375881 73.750198 -0.89951897
57.510509 77.683426 -0.84400058
56.154228 80.543213 -0.51134658
64 64 0
54.962982 83.055016 0.58898574
61.51952 69.213936 -0.95191711
61.13203 70.028442 -0.92092752
60.645466 71.051193 -0.86490464
59.357483 73.758514 -0.90080327
57.500648 77.66156 -0.84313542
56.149876 80.50087 -0.5103305
57.61948 77.411774 0
54.980156 82.959602 0.58637297
61.530254 69.175247 -0.94539738
61.096649 70.083855 -0.92992765
60.647888 71.024208 -0.86209077
59.354538 73.73436 -0.89909142
57.475235 77.672371 -0.84428859
56.132179 80.486687 -0.51018548
57.598793 77.41346 0
54.952774 82.958084 0.58666354
61.515465 69.190094 -0.94865721
61.156464 69.940041 -0.90846997
60.645988 71.006393 -0.86040157
59.331699 73.751892 -0.90123087
57.438618 77.706467 -0.84688294
57.151154 78.306961 -0.44298911
57.580345 77.4104 0
54.954559 82.895569 0.58506685
61.526314 69.151436 -0.94213748
61.142769 69.950172 -0.91054714
60.648521 70.979439 -0.8575877
59.31992 73.746246 -0.90123087
57.442211 77.656563 -0.84428859
57.10463 78.359573 -0.44487578
57.564144 77.402634 0
54.888988 82.97364 0.58782464
61.485767 69.219704 -0.95517695
61.137756 69.9422 -0.9098556
60.615837 71.025734 -0.86377782
59.30592 73.745209 -0.90165842
57.427959 77.643974 -0.84400058
57.082767 78.360611 -0.44516632
57.552467 77.385483 0
64 64 0
61.531067 69.109856 -0.9356209
61.104385 69.99295 -0.91816157
60.622822 70.989624 -0.8598392
59.294147 73.739525 -0.90165842
57.409229 77.640678 -0.84428859
57.065422 78.352242 -0.44516632
57.527241 77.396423 0
64 64 0
61.479622 69.200279 -0.95273441
61.127785 69.926224 -0.90846997
60.6166 70.980949 -0.85927469
59.295815 73.706123 -0.89909142
57.410801 77.595459 -0.84198225
57.073021 78.292404 -0.44356966
57.488365 77.435425 0
64 64 0
61.488472 69.166107 -0.94702888
61.067978 70.031052 -0.92508185
60.594833 71.004288 -0.86265308
59.277355 73.714287 -0.90037572
57.392109 77.592155 -0.84227133
57.046665 78.302719 -0.44415021
57.460758 77.450951 0
54.745136 83.036865 0.59116244
61.471401 69.18528 -0.95110291
61.100273 69.946335 -0.9126243
60.606415 70.959061 -0.8575877
59.261124 73.717796 -0.90123087
57.382496 77.570206 -0.84140623
57.058998 78.233582 -0.44226354
57.458195 77.414978 0
54.744915 82.978973 0.58971131
61.445591 69.222176 -0.95843679
61.075451 69.978882 -0.91816157
60.582386 70.9869 -0.86152625
59.256145 73.698235 -0.89994818
57.372925 77.548256 -0.84054106
57.028099 78.253204 -0.44313467
57.428272 77.435104 0
54.687744 83.037781 0.59188795
61.475052 69.15406 -0.94621468
61.078465 69.963593 -0.91608441
60.578167 70.984833 -0.86152625
59.250286 73.695374 -0.89994818
57.369286 77.534966 -0.83996499
56.996632 78.295654 -0.44458577
57.397251 77.477882 0
54.664814 83.055481 0.59261352
61.466648 69.155441 -0.94702888
61.095604 69.910522 -0.90846997
60.583172 70.953339 -0.85815001
59.234051 73.69883 -0.90080327
57.362064 77.508377 -0.83881181
56.887695 78.473732 -0.45039079
57.358021 77.516602 0
54.623459 83.081505 0.59377468
61.462605 69.147942 -0.94621468
61.088467 69.907005 -0.90846997
60.579269 70.940079 -0.85702318
59.2178 73.702263 -0.90165842
57.332027 77.528175 -0.84054106
56.849525 78.507095 -0.45169747
57.38081 77.429207 0
64 64 0
61.452007 69.153725 -0.94784302
61.067982 69.930481 -0.9126243
60.568626 70.940506 -0.8575877
59.217457 73.673477 -0.89951897
57.343197 77.464462 -0.83708155
56.797459 78.568306 -0.45387414
57.334602 77.48185 0
64 64 0
61.454567 69.132935 -0.94458318
61.071972 69.904442 -0.90916145
60.557987 70.940903 -0.85815001
59.201202 73.676895 -0.90037572
57.315437 77.479599 -0.83852381
56.749851 78.620117 -0.45576081
57.322948 77.464447 0
64 64 0
61.446167 69.13427 -0.94539738
61.060368 69.909897 -0.91054714
60.551865 70.932198 -0.8575877
59.196377 73.657295 -0.89909142
57.317585 77.434456 -0.83621746
56.750706 78.57412 -0.45459971
57.278866 77.512299 0
64 64 0
61.437752 69.13562 -0.94621468
61.059948 69.892868 -0.90846997
60.53669 70.94165 -0.85927469
59.187 73.646896 -0.89866388
57.294434 77.440247 -0.83708155
56.742382 78.546753 -0.45401913
57.239304 77.550751 0
64 64 0
61.396164 69.203232 -0.95925099
61.050587 69.893791 -0.90916145
60.521481 70.951103 -0.86096388
59.166157 73.659439 -0.90037572
57.296711 77.395142 -0.83477628
56.731781 78.52404 -0.45358413
57.222935 77.542572 0
64 64 0
61.465267 69.049881 -0.93154377
61.038963 69.8992 -0.91054714
60.522205 70.928726 -0.85871238
59.140675 73.681114 -0.90294272
57.261974 77.424004 -0.83708155
56.72356 78.496666 -0.45300359
57.215916 77.515762 0
64 64 0
61.416931 69.130707 -0.94702888
61.043118 69.873215 -0.90708697
60.502411 70.947212 -0.86152625
59.147449 73.63855 -0.89951897
57.259712 77.388138 -0.83535236
56.713062 78.473938 -0.45256802
57.180862 77.544746 0
64 64 0
61.455299 69.039337 -0.93072957
61.036022 69.869637 -0.90708697
60.516922 70.897621 -0.8558985
59.152 73.600609 -0.89652443
57.252869 77.361511 -0.83419919
56.704948 78.446564 -0.45198748
57.13166 77.60154 0
64 64 0
61.388905 69.155327 -0.95273441
61.004002 69.915276 -0.91469878
60.501698 70.907013 -0.8575877
59.142731 73.590149 -0.89609522
57.257759 77.311821 -0.83160484
56.6875 78.437737 -0.45198748
57.131695 77.560722 0
64 64 0
61.360294 69.196228 -0.96088248
61.010487 69.884819 -0.91054714
60.493355 70.902786 -0.8575877
59.126492 73.593437 -0.89695197
57.222939 77.340561 -0.83391112
56.672409 78.424263 -0.45184246
57.129456 77.524574 0
64 64 0
61.405636 69.091728 -0.94213748
61.007938 69.872253 -0.90916145
60.487331 70.893997 -0.85702318
59.105579 73.605843 -0.89866388
57.223267 77.300095 -0.83189285
56.64555 78.433922 -0.45242304
57.06823 77.60437 0
64 64 0
61.37923 69.12822 -0.94947451
61.003124 69.864174 -0.90846997
60.483624 70.880707 -0.8558985
59.09631 73.595352 -0.89823633
57.178951 77.347168 -0.83535236
56.635212 78.41114 -0.45198748
57.028103 77.642342 0
64 64 0
61.377552 69.116241 -0.94784302
61.023506 69.806961 -0.90016401
60.484585 70.858368 -0.85364693
59.089409 73.580276 -0.89737958
57.179348 77.306686 -0.83333403
56.605953 78.425346 -0.45271301
57.047241 77.564423 0
64 64 0
61.36459 69.126266 -0.95028871
60.98896 69.856911 -0.90846997
60.462364 70.881226 -0.85702318
59.087227 73.556068 -0.89566767
57.163273 77.298439 -0.83333403
56.593277 78.407166 -0.45242304
56.99992 77.616188 0
64 64 0
61.351597 69.136261 -0.95273441
60.986481 69.84436 -0.90708697
60.461033 70.863403 -0.85533613
59.056858 73.586632 -0.89909142
57.151947 77.280983 -0.83275801
56.578255 78.393593 -0.45227802
56.97393 77.626221 0
64 64 0
61.356754 69.111092 -0.94865721
60.981735 69.836243 -0.90639281
60.459747 70.845581 -0.85364693
59.059425 73.553299 -0.89652443
57.131157 77.281876 -0.83333403
56.534615 78.435379 -0.45387414
56.931168 77.668579 0
64 64 0
61.332371 69.142998 -0.95517695
60.974686 69.832596 -0.90639281
60.44212 70.859337 -0.8558985
59.045525 73.551872 -0.89695197
57.129398 77.246025 -0.83160484
56.507607 78.444801 -0.45445469
56.917053 77.655418 0
64 64 0
61.374065 69.047684 -0.93806344
60.96069 69.842293 -0.90846997
60.433834 70.855034 -0.8558985
59.036354 73.541328 -0.89652443
57.096687 77.269844 -0.83362311
56.463772 78.486458 -0.45605138
56.898159 77.651459 0
64 64 0
61.349674 69.079567 -0.94458318
60.948986 69.847519 -0.9098556
60.425552 70.850723 -0.8558985
59.034328 73.51712 -0.89481258
57.106979 77.211037 -0.83045167
56.443871 78.481941 -0.45619637
56.896118 77.615173 0
64 64 0
61.321423 69.12616 -0.95354861
60.957081 69.823425 -0.90639281
60.433182 70.826042 -0.85308462
59.023827 73.523209 -0.89566767
57.089417 77.225212 -0.83160484
56.427902 78.491196 -0.45663193
54.200294 82.754303 0
64 64 0
61.363415 69.030975 -0.9364351
60.947708 69.824203 -0.90708697
60.413143 70.844231 -0.8558985
58.990879 73.558113 -0.89951897
57.039829 77.280991 -0.83564037
56.407986 78.486633 -0.45677692
54.245293 82.613365 0
64 64 0
61.313648 69.110916 -0.95191711
60.933678 69.833824 -0.90916145
64 64 -0
58.98172 73.547516 -0.89909142
57.059883 77.203896 -0.83131677
56.407417 78.445244 -0.45576081
54.242172 82.564728 0
64 64 0
61.351265 69.02459 -0.9364351
60.947685 69.790169 -0.9029327
60.408459 70.813072 -0.85308462
58.982155 73.518738 -0.89695197
57.024635 77.232109 -0.83362311
56.339077 78.5326 -0.4588086
54.188194 82.612778 0
64 64 0
61.303612 69.100037 -0.95110291
60.931313 69.804222 -0.90570134
60.390728 70.826698 -0.85533613
58.96106 73.530823 -0.89866388
57.003822 77.232811 -0.83419919
56.30938 78.546295 -0.45953417
54.190044 82.554878 0
64 64 0
61.295139 69.101143 -0.95191711
60.933704 69.782776 -0.9029327
60.382484 70.822334 -0.85533613
58.942329 73.538338 -0.89994818
56.99268 77.215218 -0.83362311
56.28207 78.555359 -0.46011472
54.160316 82.556816 0
53.046814 84.656776 0.65298879
61.302898 69.071693 -0.94702888
60.912579 69.805656 -0.90708697
60.386169 70.795525 -0.85252225
58.947685 73.500488 -0.89695197
56.971863 77.215866 -0.83419919
57.406391 76.398766 -0.39219335
54.162334 82.498962 0
53.024303 84.638947 0.65284377
61.329334 69.00737 -0.9356209
60.926815 69.762077 -0.90085816
60.373184 70.80011 -0.85364693
58.938622 73.489853 -0.89652443
56.965637 77.189102 -0.83304602
57.344955 76.477898 -0.39495057
54.14489 82.477867 0
53.001823 84.621063 0.65269822
61.288319 69.069511 -0.94784302
60.905659 69.784897 -0.90500981
60.364967 70.795723 -0.85364693
58.927158 73.483727 -0.89652443
56.94482 77.189728 -0.83362311
57.322529 76.483597 -0.39538613
54.132393 82.447586 0
52.930344 84.694839 0.65545601
61.324253 68.987831 -0.93317521
60.886814 69.803261 -0.90846997
60.356762 70.791328 -0.85364693
58.922989 73.464012 -0.89524013
56.936226 77.167511 -0.83275801
57.30254 76.484673 -0.39567614
54.132252 82.394379 0
54.406326 81.883476 0.56678009
61.30418 69.010704 -0.93806344
60.889313 69.781822 -0.90570134
60.348557 70.786919 -0.85364693
58.904255 73.471436 -0.89652443
56.932575 77.136192 -0.83131677
57.277611 76.494881 -0.39625669
57.300987 76.451424 0
54.397034 81.848991 0.56605452
61.291084 69.0205 -0.94050914
60.884708 69.773643 -0.90500981
60.345181 70.773567 -0.85252225
58.900131 73.451714 -0.89524013
56.983032 77.004723 -0.82353264
58.1558 74.8312 -0.34371927
57.293365 76.429573 0
52.290306 85.701874 0.68869114
61.247379 69.086784 -0.95354861
60.875351 69.774284 -0.90570134
60.332169 70.778076 -0.85364693
58.891155 73.441032 -0.89481258
56.99194 76.950745 -0.82065028
58.090782 74.920105 -0.34676707
54.065639 82.35849 0
52.219578 85.769966 0.69130337
61.250668 69.066078 -0.95028871
60.875549 69.757286 -0.90362686
60.321556 70.778099 -0.8542093
58.877304 73.439362 -0.89524013
57.008369 76.883171 -0.81690276
58.072639 74.922089 -0.34705707
54.080696 82.277863 0
52.183365 85.773987 0.69188392
61.291809 68.975914 -0.93398941
60.868595 69.75351 -0.90362686
60.320652 70.760277 -0.85252225
58.858536 73.446701 -0.89652443
58.070934 74.893806 -0.69121391
58.079319 74.878403 -0.34589595
54.071068 82.242989 0
52.142155 85.787094 0.69275504
61.290531 68.963966 -0.93236107
60.852039 69.767319 -0.90639281
60.312485 70.755821 -0.85252225
58.861889 73.413437 -0.89395583
58.023083 74.950195 -0.69524944
58.061195 74.880371 -0.34618652
54.071472 82.189865 0
52.090942 85.818352 0.69420618
61.265545 68.995377 -0.9388808
60.849884 69.754723 -0.90500981
60.311649 70.737984 -0.85083306
58.850521 73.407219 -0.89395583
58.017311 74.929344 -0.69438428
58.06303 74.845825 -0.3453154
54.056999 82.164154 0
52.059605 85.813057 0.69449615
61.25951 68.992073 -0.9388808
60.847759 69.742119 -0.90362686
60.301067 70.737976 -0.85139543
58.851509 73.378487 -0.89181638
58.021526 74.890381 -0.69236708
58.052429 74.834091 -0.34517038
54.065109 82.097389 0
52.00824 85.844177 0.69594783
61.267792 68.962769 -0.93398941
60.848083 69.725121 -0.9015497
60.285572 70.746857 -0.85308462
58.812939 73.421738 -0.89652443
58.003387 74.892204 -0.6929431
58.054375 74.799591 -0.34429982
57.180943 76.386086 0
51.966824 85.856979 0.69681835
61.237907 69.002731 -0.94213748
60.841167 69.721306 -0.9015497
60.287247 70.724571 -0.85083306
58.816452 73.388489 -0.89395583
57.982727 74.898537 -0.69380826
58.041328 74.792404 -0.34429982
57.246487 76.232025 0
51.892693 85.928871 0.6995762
61.267776 68.934532 -0.92991537
60.834259 69.717484 -0.9015497
60.281586 70.715637 -0.85027075
58.782734 73.422638 -0.89780712
57.987106 74.859573 -0.69178993
58.008163 74.821548 -0.34546039
57.244316 76.201096 0
55.68486 79.017548 0.47941089
61.245014 68.961479 -0.9356209
60.798122 69.766296 -0.9098556
60.273472 70.711143 -0.85027075
58.796268 73.371452 -0.89352828
57.961437 74.874908 -0.69323111
58.005173 74.796143 -0.3448804
57.227043 76.197487 0
55.679333 78.984772 0.47868532
61.246239 68.94519 -0.93317521
60.815575 69.718575 -0.9029327
60.272785 70.693314 -0.84858155
58.772465 73.387581 -0.89566767
57.945778 74.872139 -0.69352025
58.019947 74.738945 -0.34328371
57.230038 76.157455 0
55.641006 79.011032 0.47984645
61.225807 68.967743 -0.93806344
60.786652 69.754143 -0.90916145
60.252316 70.710983 -0.85139543
58.75111 73.399185 -0.89737958
57.935173 74.860291 -0.69323111
57.994308 74.754395 -0.34400928
57.225506 76.131088 0
55.668488 78.919243 0.47723365
61.205917 68.996277 -0.94376898
60.802757 69.717186 -0.90362686
60.253216 70.699852 -0.85027075
58.745434 73.396011 -0.89737958
57.91346 74.88372 -0.69496143
57.982735 74.759842 -0.34429982
57.248665 76.072479 0
55.629036 78.968636 0.47897533
61.199883 68.992889 -0.94376898
60.798313 69.708931 -0.9029327
60.245125 70.69532 -0.85027075
58.741623 73.376221 -0.89609522
57.887665 74.898911 -0.69640261
57.984997 74.725357 -0.34342873
57.223896 76.082474 0
55.646542 78.895058 0.47694364
61.199963 68.964584 -0.93969494
60.794388 69.683693 -0.90016401
60.236446 70.672943 -0.84858155
58.731586 73.341125 -0.89395583
57.833385 74.933678 -0.69957411
57.951435 74.724373 -0.34386426
57.250969 75.966331 0
51.510662 86.14415 0.71002567
61.186672 68.974098 -0.94213748
60.79987 69.657982 -0.8967039
60.213379 70.694923 -0.85195774
58.712719 73.348167 -0.89524013
57.820179 74.926216 -0.69957411
57.943604 74.708 -0.34357372
57.889912 74.802925 0
51.491592 86.115463 0.70959008
61.192856 68.949196 -0.93806344
60.77076 69.69339 -0.9029327
60.215321 70.672661 -0.84970623
58.711559 73.323906 -0.89352828
57.835056 74.869247 -0.69640261
57.928097 74.705208 -0.34371927
57.897396 74.759331 0
51.434113 86.154579 0.71133178
61.186878 68.945801 -0.93806344
60.781239 69.658966 -0.89808953
60.207264 70.668083 -0.84970623
58.687607 73.339821 -0.89566767
56.686432 76.858124 -0.8243978
57.920311 74.68882 -0.34342873
57.853531 74.806229 0
51.402218 86.148407 0.71162176
61.212742 68.886581 -0.92746967
60.774403 69.655075 -0.89808953
60.204239 70.654678 -0.84858155
58.676323 73.333397 -0.89566767
56.668339 76.853767 -0.82468581
57.884228 74.722092 -0.34473485
57.827576 74.821411 0
51.339413 86.196373 0.71365398
61.226475 68.848885 -0.92095
60.767574 69.651169 -0.89808953
60.191158 70.658897 -0.84970623
58.670143 73.318054 -0.89481258
56.668221 76.81797 -0.82295662
57.897072 74.669594 -0.34328371
57.853271 74.74617 0
51.304867 86.19458 0.71408898
61.144367 68.978462 -0.94621468
60.758251 69.651611 -0.89878106
60.19828 70.627853 -0.84632999
58.674221 73.284874 -0.89224392
56.652737 76.809097 -0.82295662
57.85574 74.7118 -0.3448804
57.899849 74.634903 0
51.249611 86.228813 0.71568567
61.195045 68.87645 -0.92746967
60.763931 69.625946 -0.89532089
60.177608 70.645279 -0.84914386
58.66045 73.282883 -0.89267153
56.645004 76.786758 -0.82209146
57.819485 74.744911 -0.34618652
64 64 0
51.207222 86.240417 0.71655625
61.166931 68.911591 -0.93480361
60.769669 69.600304 -0.89186072
60.172119 70.636253 -0.84858155
59.500858 71.799995 -0.75059456
56.626976 76.782333 -0.82237947
57.785732 74.773445 -0.34734762
64 64 0
51.169971 86.24295 0.7171368
61.180798 68.873932 -0.92828387
60.710159 69.687584 -0.90639281
60.181919 70.60083 -0.84464079
59.483723 71.807884 -0.75187892
56.621899 76.755508 -0.8212263
57.780529 74.752426 -0.34691206
64 64 0
51.104069 86.294914 0.71931404
61.155067 68.904732 -0.93480361
60.713352 69.66626 -0.90362686
60.161198 70.618187 -0.84745467
59.512936 71.735802 -0.74545896
56.611679 76.73764 -0.82065028
57.738865 74.794342 -0.34850818
57.738838 74.794388 0
51.064106 86.301788 0.72003961
61.151627 68.897018 -0.93398941
60.709038 69.657936 -0.9029327
60.155758 70.609154 -0.84689236
59.524242 71.69487 -0.74203521
56.591095 76.73764 -0.8212263
57.717987 74.800255 -0.34894374
64 64 0
51.013653 86.326569 0.72134572
61.143223 68.897842 -0.93480361
60.702202 69.653954 -0.9029327
60.147774 70.6045 -0.84689236
64 64 -0
59.505035 71.706451 -0.49720332
57.718029 74.77021 -0.34821817
64 64 0
50.960495 86.355759 0.72279739
61.12233 68.919998 -0.93969494
60.725773 69.597992 -0.89462674
60.142361 70.595459 -0.84632999
64 64 -0
59.490509 71.709938 -0.49777937
59.449745 71.779633 -0.25170559
59.434071 71.806435 0
50.896767 86.402779 0.72482902
61.126389 68.89946 -0.9364351
60.711391 69.607018 -0.8967039
60.142109 70.577637 -0.84464079
64 64 -0
59.478584 71.708939 -0.49806738
59.440346 71.774132 -0.25170559
59.469402 71.724594 0
50.872334 86.382454 0.72468406
61.077873 68.968414 -0.95028871
60.707161 69.598724 -0.89601237
60.121284 70.594872 -0.84745467
64 64 -0
64 64 -0
59.438866 71.755173 -0.25127003
59.536583 71.58902 0
50.81105 86.424805 0.72657073
61.132137 68.862686 -0.93072957
60.705502 69.58609 -0.89462674
60.113319 70.590179 -0.84745467
59.45697 71.703072 -0.74545896
64 64 -0
59.403103 71.794411 -0.25272116
64 64 0
50.786602 86.404381 0.72642571
61.131294 68.850723 -0.92910117
60.701305 69.577789 -0.89393526
60.107944 70.581108 -0.84689236
59.426758 71.732925 -0.74888271
64 64 -0
64 64 -0
64 64 0
50.780701 86.352615 0.72526461
61.11031 68.872749 -0.93398941
60.666412 69.621277 -0.9015497
60.102585 70.572037 -0.84632999
59.385994 71.780388 -0.75401831
64 64 -0
64 64 -0
64 64 0
50.798767 86.260635 0.72279739
61.061474 68.941483 -0.94784302
60.677578 69.587051 -0.8967039
60.09724 70.562958 -0.84576762
59.345104 71.827759 -0.7591539
59.432091 71.68148 -0.49806738
64 64 -0
64 64 0
50.771877 86.244667 0.72279739
61.080818 68.895477 -0.93969494
60.668262 69.587341 -0.89739537
60.081512 70.57132 -0.84745467
59.333023 71.826538 -0.75958151
59.436058 71.653748 -0.4966262
64 64 -0
64 64 0
50.784935 86.161713 0.72062016
61.141216 68.787613 -0.9193216
60.652016 69.606873 -0.90085816
60.087963 70.551498 -0.84520316
59.336193 71.810486 -0.75829715
59.444695 71.628784 -0.49518502
64 64 -0
59.395523 71.711128 0
50.774212 86.149261 0.72047514
61.066875 68.898651 -0.94132334
60.668449 69.564072 -0.89462674
60.074825 70.555496 -0.84632999
59.30566 71.840088 -0.7617209
56.427425 76.647072 -0.82151538
59.394108 71.692368 -0.25039947
59.420967 71.647507 0
50.776825 86.084213 0.71887845
61.050781 68.912056 -0.94458318
60.651398 69.577248 -0.89739537
60.069519 70.546394 -0.84576762
59.298832 71.830009 -0.76129335
56.404167 76.651199 -0.82237947
57.461517 74.890137 -0.35474932
59.40638 71.650887 0
50.731422 86.099419 0.71989459
61.090736 68.832268 -0.92991537
60.655014 69.556 -0.89462674
60.051128 70.559052 -0.84801918
59.281425 71.837524 -0.76257765
56.391556 76.637589 -0.82209146
57.426918 74.917847 -0.35591042
53.64957 81.192009 0
50.766384 85.980957 0.71655625
61.041473 68.900688 -0.94376898
60.648304 69.551956 -0.89462674
60.048462 70.54557 -0.84689236
59.27462 71.827408 -0.76214844
56.394997 76.597397 -0.8200742
57.42717 74.887642 -0.35518432
53.64225 81.157211 0
50.68074 86.062843 0.71974957
61.050907 68.87175 -0.9388808
60.644192 69.543617 -0.89393526
60.045815 70.532104 -0.84576762
59.265167 71.821693 -0.76214844
57.287868 75.088081 -0.72234726
57.416706 74.875252 -0.35503933
53.635002 81.122421 0
50.672932 86.01561 0.71873349
61.009117 68.92733 -0.95028871
60.608856 69.586739 -0.9015497
60.053753 70.501244 -0.84238923
59.255718 71.815964 -0.76214844
57.223476 75.163986 -0.72782511
57.398174 74.876183 -0.35532987
53.608913 81.118797 0
50.71106 85.892868 0.71525013
61.051998 68.843483 -0.93480361
60.609936 69.569778 -0.89947253
60.040611 70.505165 -0.84351611
59.248943 71.805847 -0.7617209
57.20192 75.169052 -0.72869021
57.376938 74.8815 -0.35576487
53.59095 81.101768 0
50.630577 85.965576 0.71815288
61.048721 68.835701 -0.93398941
60.590141 69.58709 -0.9029327
60.027462 70.509041 -0.84464079
59.239517 71.800102 -0.7617209
57.185738 75.165237 -0.72897828
57.352966 74.891235 -0.35634544
53.589268 81.05809 0
50.609455 85.940544 0.7178629
61.053204 68.815262 -0.93072957
60.593868 69.565842 -0.90016401
60.01429 70.512917 -0.84576762
59.240814 71.776825 -0.76000905
57.164158 75.170227 -0.72984231
57.350662 74.865463 -0.35576487
53.574104 81.036613 0
64 64 0
61.02412 68.849617 -0.93806344
60.602886 69.536072 -0.89601237
60.00909 70.503754 -0.84520316
59.234104 71.766701 -0.75958151
57.153366 75.157547 -0.7295543
57.323948 74.879562 -0.35649043
53.539917 81.046181 0
64 64 0
61.054523 68.787079 -0.92665553
60.580429 69.557594 -0.90016401
60.014545 70.477287 -0.84238923
59.222034 71.765305 -0.76000905
57.175129 75.091995 -0.72580677
57.297184 74.893631 -0.35721654
53.541149 80.998062 0
64 64 0
61.064312 68.758286 -0.92176729
60.578979 69.54493 -0.89878106
59.998714 70.485443 -0.84407842
59.209961 71.763885 -0.76043659
57.161732 75.083748 -0.72580677
57.2813 74.889946 -0.35736156
53.517876 80.989853 0
64 64 0
61.045563 68.775749 -0.92584133
60.601322 69.493851 -0.89116657
59.982861 70.493576 -0.84576762
59.205982 71.749374 -0.75958151
57.137459 75.093071 -0.72695994
57.265415 74.88623 -0.35750654
53.502838 80.968315 0
64 64 0
61.050217 68.755371 -0.92258149
60.576172 69.519592 -0.89601237
59.999123 70.449852 -0.84070224
59.196621 71.743576 -0.75958151
57.126785 75.080383 -0.72667193
57.255001 74.87368 -0.35736156
53.471367 80.973312 0
64 64 0
61.015762 68.797966 -0.93154377
60.572151 69.511192 -0.89532089
59.972553 70.475212 -0.84464079
59.192696 71.729034 -0.75872475
57.099743 75.094025 -0.72811311
57.258343 74.839035 -0.35649043
53.483856 80.907539 0
64 64 0
60.98119 68.8405 -0.94050914
60.557537 69.519806 -0.89739537
59.967419 70.466034 -0.84407842
59.180637 71.727592 -0.7591539
57.097294 75.068123 -0.72695994
57.305748 74.733879 -0.35329765
53.466183 80.890411 0
53.752937 80.430618 0.54080164
61.01466 68.773979 -0.92828387
60.577469 69.473106 -0.89047509
59.973076 70.439613 -0.84126455
59.171303 71.721764 -0.7591539
57.067463 75.086098 -0.72869021
64 64 -0
53.459579 80.855606 0
53.711048 80.453476 0.5419628
60.99839 68.787117 -0.93154377
60.560196 69.485977 -0.89324373
59.959904 70.443344 -0.84238923
59.156528 71.724609 -0.76000905
57.032097 75.112755 -0.73099548
64 64 -0
53.450279 80.825218 0
53.652531 80.502663 0.54399449
61.02417 68.733284 -0.92176729
60.5509 69.486053 -0.89393526
59.954826 70.434158 -0.84182692
59.163589 71.692688 -0.75744206
57.013165 75.113098 -0.73157263
57.313904 74.63475 -0.35083041
53.454887 80.772804 0
53.624298 80.503349 0.54443002
61.013184 68.738045 -0.92339563
60.533569 69.498863 -0.8967039
59.933506 70.45076 -0.84464079
59.146091 71.699852 -0.75872475
57.008018 75.091515 -0.73070747
57.284424 74.653046 -0.35170153
53.476269 80.694 0
64 64 0
61.010101 68.730255 -0.92258149
60.532288 69.486198 -0.89532089
59.944714 70.415787 -0.84070224
59.134037 71.698334 -0.7591539
57.005676 75.065567 -0.7295543
57.257675 74.666885 -0.3524271
64 64 0
64 64 0
61.015179 68.715912 -0.9201358
60.526291 69.488335 -0.89601237
59.929966 70.430511 -0.84295374
59.137627 71.682373 -0.7578696
57.051552 74.978302 -0.72407758
57.198433 74.746231 -0.35518432
64 64 0
64 64 0
61.012127 68.70813 -0.9193216
60.54924 69.437531 -0.88839793
59.93309 70.408424 -0.84070224
59.122852 71.685158 -0.75872475
57.121441 74.838875 -0.71542937
57.146461 74.799446 -0.35721654
64 64 0
64 64 0
60.974594 68.754562 -0.92910117
60.523811 69.46299 -0.89324373
59.914436 70.420654 -0.84295374
59.12735 71.6576 -0.7565853
56.091991 76.427811 -0.82093829
57.166897 74.738541 -0.35547489
64 64 0
64 64 0
60.963539 68.759232 -0.93072957
60.511822 69.467239 -0.89462674
59.917618 70.398575 -0.84070224
59.109814 71.664696 -0.7578696
56.096451 76.387733 -0.81892103
57.187469 74.677704 -0.35373321
64 64 0
64 64 0
60.976433 68.726425 -0.92502713
60.521439 69.437668 -0.89047509
59.90168 70.406471 -0.84238923
59.119926 71.628502 -0.75487345
56.081486 76.378174 -0.81892103
57.16898 74.678215 -0.35402319
64 64 0
58.899742 71.972694 0.26432505
60.954716 68.747726 -0.92991537
60.495903 69.463028 -0.89532089
59.902164 70.388695 -0.84070224
59.096844 71.644226 -0.75701451
56.069336 76.364227 -0.81863195
57.170105 74.648087 -0.35329765
64 64 0
58.977081 71.830933 0.25982615
60.970371 68.710777 -0.92339563
60.475739 69.479889 -0.89878106
59.888954 70.392273 -0.84182692
59.095943 71.625336 -0.75573021
56.040405 76.376404 -0.8200742
57.123512 74.692276 -0.35503933
64 64 0
58.956379 71.842346 0.2604067
60.95129 68.727882 -0.92746967
60.518059 69.399734 -0.88632345
59.875721 70.395851 -0.84295374
59.078384 71.632355 -0.75701451
56.045082 76.336342 -0.81805587
57.076801 74.736366 -0.35678101
64 64 0
58.884953 71.93232 0.26359949
60.948261 68.720047 -0.92665553
60.481579 69.441856 -0.89393526
59.87352 70.382324 -0.84182692
59.080315 71.609154 -0.75530261
56.004906 76.365814 -0.82065028
56.897366 74.985474 -0.36534381
64 64 0
58.824577 72.0047 0.26621228
60.974827 68.666588 -0.9168759
60.475006 69.437599 -0.89393526
59.871334 70.368813 -0.84070224
59.068336 71.607506 -0.75573021
56.001228 76.338776 -0.81949711
56.78516 75.129494 -0.37042326
64 64 0
58.837524 71.963554 0.26505116
60.923397 68.733383 -0.93072957
60.479374 69.416512 -0.89116657
59.860874 70.368073 -0.84126455
59.061943 71.597244 -0.75530261
55.980679 76.337791 -0.8200742
56.763222 75.133842 -0.37085882
64 64 0
58.79393 72.009583 0.2667923
60.90958 68.742088 -0.93317521
60.434475 69.471115 -0.90085816
59.858738 70.354546 -0.84013772
59.035954 71.617073 -0.7578696
55.962955 76.33242 -0.82036221
56.752605 75.120743 -0.37071383
64 64 0
58.795593 71.985886 0.26621228
60.974148 68.630768 -0.91198772
60.469036 69.403793 -0.89047509
59.851063 70.349541 -0.84013772
59.040791 71.589584 -0.75573021
55.945236 76.327026 -0.82065028
56.744865 75.103271 -0.37042326
64 64 0
58.82859 71.91433 0.26403505
60.946884 68.660187 -0.9185074
60.426765 69.454079 -0.89947253
59.851742 70.331779 -0.83845067
59.034435 71.579292 -0.75530261
55.933178 76.312958 -0.82036221
56.740002 75.081451 -0.3699877
64 64 0
58.762074 71.995018 0.26693785
60.933121 68.668877 -0.92095
60.45599 69.395241 -0.89047509
59.866413 70.292786 -0.8339476
59.014008 71.590454 -0.75701451
55.923992 76.294548 -0.81978512
56.746582 75.042274 -0.36897215
64 64 0
58.735302 72.014732 0.26780841
60.889412 68.722969 -0.93236107
60.454987 69.382584 -0.88909209
59.858814 70.287781 -0.8339476
59.024609 71.554405 -0.75401831
55.900604 76.297745 -0.82065028
56.756111 74.998779 -0.36781102
64 64 0
58.708466 72.034416 0.26867953
60.88916 68.710953 -0.93072957
60.456783 69.36573 -0.88701493
59.848419 70.28701 -0.83450997
58.998512 71.574081 -0.7565853
55.897152 76.270683 -0.81949711
56.808697 74.890274 -0.36447269
64 64 0
58.650082 72.101738 0.27114674
60.886196 68.703072 -0.92991537
60.417061 69.411652 -0.89532089
59.846443 70.273506 -0.83338308
58.986523 71.572327 -0.75701451
55.8909 76.24794 -0.81863195
56.784065 74.898911 -0.36505324
64 64 0
58.631699 72.108253 0.27158174
60.88599 68.691063 -0.92828387
60.40221 69.419846 -0.89739537
59.833241 70.276962 -0.83450997
58.980225 71.561974 -0.7565853
55.876106 76.238136 -0.81863195
64 64 -0
64 64 0
58.619034 72.106087 0.27172676
60.89127 68.670853 -0.92502713
60.398441 69.411324 -0.8967039
59.834106 70.259224 -0.83282077
58.988155 71.530266 -0.75401831
55.858452 76.232628 -0.81892103
64 64 -0
55.603718 76.615364 0
58.614998 72.090935 0.27143675
60.874496 68.671532 -0.92665553
60.418854 69.352562 -0.88839793
59.813335 70.257599 -0.8339476
58.969971 71.518135 -0.75401831
55.837547 76.200012 -0.81805587
64 64 -0
55.506683 76.694534 0
58.566566 72.121078 0.27288786
60.896435 68.63269 -0.9193216
60.41003 69.358742 -0.88978362
59.818047 70.242393 -0.8322584
58.948288 71.54068 -0.7565853
55.838818 76.182182 -0.81719077
64 64 -0
55.539577 76.62886 0
58.558762 72.122131 0.27303341
60.888084 68.633034 -0.9201358
60.397968 69.362717 -0.89116657
59.804844 70.245766 -0.83338308
58.956352 71.509003 -0.75401831
55.815445 76.185196 -0.81805587
64 64 -0
55.652008 76.428528 0
58.537361 72.132805 0.27361399
60.87973 68.633362 -0.92095
60.411102 69.329247 -0.88632345
59.794453 70.244919 -0.8339476
58.938679 71.515686 -0.75530261
55.792057 76.188179 -0.81892103
64 64 -0
55.654449 76.392517 0
58.515926 72.14344 0.27419454
60.874134 68.629593 -0.92095
60.390629 69.345688 -0.88978362
59.801125 70.218781 -0.83113372
58.935352 71.501045 -0.75444585
55.777336 76.178253 -0.81892103
64 64 -0
55.648209 76.369492 0
58.514816 72.123886 0.27375898
60.832523 68.679024 -0.93154377
60.35886 69.378716 -0.89601237
59.793617 70.213699 -0.83113372
58.929169 71.490669 -0.75401831
55.762627 76.168304 -0.81892103
64 64 -0
55.653698 76.329224 0
58.470043 72.168892 0.27550066
60.871277 68.609764 -0.9185074
60.380539 69.332802 -0.88909209
59.757576 70.250656 -0.83676147
58.91724 71.488785 -0.75444585
55.747932 76.15834 -0.81892103
64 64 -0
55.638805 76.319122 0
58.457264 72.166496 0.27564564
60.829559 68.659103 -0.92910117
60.368458 69.336716 -0.89047509
59.770042 70.21611 -0.83282077
58.922634 71.461418 -0.75230646
55.741982 76.135529 -0.81805587
64 64 -0
55.459957 76.549973 0
58.441559 72.168381 0.27593565
60.865723 68.594017 -0.9168759
60.387459 69.295029 -0.88424629
59.759674 70.215187 -0.83338308
58.896267 71.480713 -0.75487345
55.718575 76.138367 -0.81892103
64 64 -0
55.28347 76.776115 0
58.425827 72.17025 0.27622622
60.83506 68.626945 -0.92420983
60.361229 69.319649 -0.88909209
59.763634 70.193298 -0.83113372
58.890125 71.470306 -0.75444585
55.700996 76.132614 -0.81920904
64 64 -0
55.262154 76.774178 0
58.401291 72.184952 0.27695176
60.795921 68.672035 -0.93398941
60.366158 69.298698 -0.88632345
59.738914 70.213318 -0.83450997
58.886906 71.455673 -0.75359076
55.695122 76.109779 -0.81834394
56.680729 74.672615 -0.36142489
55.214352 76.810814 0
58.376713 72.199608 0.27767733
60.851887 68.578552 -0.91606176
60.348385 69.310837 -0.88909209
59.748676 70.183044 -0.83113372
58.872089 71.457939 -0.75444585
55.683422 76.095474 -0.81805587
56.553001 74.830772 -0.36708549
55.187084 76.817345 0
58.352089 72.214218 0.27840289
60.818306 68.61544 -0.92420983
60.359062 69.281631 -0.88493782
59.746983 70.169525 -0.83000684
58.877647 71.430611 -0.75230646
55.668816 76.085419 -0.81805587
56.536972 74.826042 -0.36723047
55.130238 76.866692 0
58.324467 72.233063 0.27927402
60.804298 68.623795 -0.92665553
60.335564 69.302002 -0.88909209
59.748203 70.15184 -0.8283177
58.862839 71.432854 -0.75316155
55.657154 76.071091 -0.81776786
56.494358 74.859764 -0.36868158
56.413792 74.976326 0
58.320438 72.217644 0.27898344
60.80434 68.611809 -0.92502713
60.34631 69.27282 -0.88493782
59.7234 70.171768 -0.83169603
58.853863 71.426636 -0.75316155
55.636688 76.069496 -0.81834394
56.490112 74.837883 -0.36824659
56.406471 74.958588 0
58.292747 72.236412 0.27985457
60.835442 68.555161 -0.91443026
60.348534 69.256035 -0.88286066
59.707256 70.1791 -0.83338308
58.839027 71.428856 -0.75401831
55.62801 76.050896 -0.81776786
56.48592 74.815994 -0.36781102
56.39917 74.940865 0
58.270939 72.246582 0.28043512
60.796036 68.600006 -0.92420983
60.319244 69.284554 -0.88839793
59.717216 70.148895 -0.83000684
58.83593 71.414185 -0.75316155
55.622326 76.02803 -0.81690276
56.469887 74.811165 -0.36795604
56.374054 74.948753 0
58.246132 72.260971 0.28116068
60.770668 68.624504 -0.92991537
60.327221 69.259537 -0.88493782
59.703964 70.152061 -0.83113372
58.832848 71.399529 -0.75230646
55.6078 76.017899 -0.81690276
56.409225 74.870232 -0.37027827
56.381695 74.90966 0
58.218307 72.279572 0.28203124
60.787762 68.588203 -0.92339563
60.315109 69.263321 -0.88632345
59.699455 70.142693 -0.83056921
58.823914 71.39328 -0.75230646
56.088722 75.300095 -0.76875985
56.431862 74.809967 -0.36853659
56.446125 74.789589 0
58.19936 72.285355 0.2824668
60.824821 68.523628 -0.91117036
60.320282 69.242439 -0.88355482
59.686192 70.145813 -0.83169603
58.814983 71.387016 -0.75230646
56.283089 74.994164 -0.74858105
56.374016 74.864624 -0.37071383
56.460007 74.742119 0
58.180393 72.291107 0.28290236
60.756767 68.608734 -0.92910117
60.290848 69.270821 -0.88909209
59.696323 70.115654 -0.8283177
58.800156 71.389137 -0.75316155
56.299587 74.94252 -0.74569756
54.638279 77.303291 -0.4543097
56.423065 74.767052 0
58.167393 72.288315 0.28304735
60.805347 68.528061 -0.91361606
60.319191 69.217133 -0.88078618
59.688934 70.110451 -0.8283177
58.797146 71.374466 -0.75230646
56.137268 75.144547 -0.76011163
54.658165 77.241013 -0.45256802
56.380062 74.800415 0
58.136406 72.310989 0.28406346
60.78846 68.540344 -0.9168759
60.318691 69.204483 -0.87940049
59.663944 70.130142 -0.83169603
58.788239 71.368172 -0.75230646
56.096928 75.173042 -0.76270598
54.615166 77.267899 -0.45387414
56.35199 74.812439 0
58.114365 72.320869 0.28464404
60.745808 68.588875 -0.92746967
60.277576 69.249146 -0.88770646
59.665359 70.112457 -0.83000684
58.785286 71.353485 -0.7514497
55.625618 75.809067 -0.8068133
56.081112 75.166756 -0.38232443
56.317852 74.832916 0
58.095306 72.326454 0.28507903
60.748753 68.57885 -0.92584133
60.306351 69.201904 -0.88009465
59.670498 70.097397 -0.8283177
58.774895 71.358711 -0.75230646
55.534637 75.922089 -0.81488442
56.029243 75.225517 -0.3845011
56.31131 74.82827 0
58.063202 72.361023 0.28638515
60.766159 68.542702 -0.9193216
60.291348 69.209686 -0.88216913
59.657234 70.100456 -0.82944453
58.771965 71.344025 -0.7514497
55.499237 75.941353 -0.81690276
56.000618 75.237038 -0.38522667
56.397842 74.679047 0
58.044056 72.366547 0.28682071
60.76067 68.538795 -0.9193216
60.285057 69.2052 -0.88216913
59.649864 70.0952 -0.82944453
58.769054 71.329353 -0.75059456
55.472794 75.947914 -0.81805587
55.974972 75.244286 -0.38580722
56.27005 74.830841 0
58.027908 72.367813 0.28711125
60.726429 68.575073 -0.92746967
60.27877 69.200706 -0.88216913
59.642502 70.089943 -0.82944453
58.754234 71.331367 -0.7514497
55.464386 75.929184 -0.81747878
64 64 -0
56.244854 74.838425 0
58.017803 72.360588 0.28711125
60.74971 68.530952 -0.9193216
60.269566 69.200287 -0.88286066
59.638107 70.080544 -0.82888216
58.742378 71.329208 -0.75187892
55.446957 75.923073 -0.81776786
64 64 -0
56.210522 74.858658 0
58.001652 72.361794 0.28740126
60.752899 68.514977 -0.9168759
60.260345 69.19986 -0.88355482
59.636703 70.067009 -0.82775533
58.733524 71.322845 -0.75187892
55.432556 75.912735 -0.81776786
64 64 -0
56.27338 74.743599 0
57.967278 72.38829 0.28856236
60.750336 68.50705 -0.91606176
60.251137 69.199402 -0.88424629
59.629375 70.061737 -0.82775533
58.727692 71.312302 -0.7514497
55.415146 75.906563 -0.81805587
64 64 -0
56.208656 74.806023 0
57.926758 72.423141 0.29001349
60.727524 68.527145 -0.92095
60.25074 69.186729 -0.88286066
59.616096 70.064697 -0.82888216
58.730892 71.289284 -0.7497378
55.403793 75.891991 -0.81776786
55.92849 75.16613 -0.38479164
56.262684 74.703804 0
57.916584 72.415794 0.29001349
60.727852 68.51519 -0.9193216
60.235641 69.194382 -0.88493782
59.605789 70.063507 -0.82944453
58.713047 71.295387 -0.75102216
55.398537 75.869026 -0.81690276
64 64 -0
56.200897 74.761864 0
57.875919 72.450531 0.29146516
60.719494 68.515228 -0.9201358
60.247055 69.165482 -0.88078618
59.616394 70.033516 -0.82606614
58.716309 71.272377 -0.74931026
55.39333 75.846069 -0.8160376
55.858768 75.205444 -0.38682333
56.157299 74.794556 0
57.865715 72.443123 0.29146516
60.737324 68.479294 -0.91361606
60.231964 69.173103 -0.88286066
59.60611 70.032333 -0.82663065
58.707523 71.265991 -0.74931026
55.379021 75.835663 -0.8160376
64 64 -0
64 64 0
57.867756 72.4189 0.29088461
60.705681 68.511276 -0.92095
60.237541 69.152351 -0.88009465
59.592834 70.035217 -0.82775533
