# .PCD v0.7 - Point Cloud Data file format
VERSION 0.7
FIELDS x y z
SIZE 4 4 4
TYPE F F F
COUNT 1 1 1
WIDTH 1797
HEIGHT 1
VIEWPOINT 0 0 0 1 0 0 0
POINTS 1797
DATA ascii
64 64 0
64 64 0
64 64 0
64 64 0
64 64 0
64 64 0
64 64 0
64 64 0
64 64 0
64 64 0
64 64 0
64 64 0
64 64 0
64 64 0
64 64 0
64 64 0
64 64 0
64 64 0
64 64 0
64 64 0
64 64 0
64 64 0
64 64 0
64 64 0
64 64 0
64 64 0
64 64 0
64 64 0
64 64 0
64 64 0
64 64 0
64 64 0
64 64 0
64 64 0
64 64 0
64 64 0
64 64 0
64 64 0
64 64 0
64 64 0
64 64 0
64 64 0
64 64 0
64 64 0
64 64 0
64 64 0
64 64 0
64 64 0
64 64 0
64 64 0
64 64 0
64 64 0
64 64 0
64 64 0
64 64 0
64 64 0
64 64 0
64 64 0
64 64 0
64 64 0
64 64 0
64 64 0
64 64 0
64 64 0
64 64 0
64 64 0
64 64 0
64 64 0
64 64 0
64 64 0
64 64 -0
64 64 0
64 64 0
64 64 -0
64 64 0
64 64 0
64 64 0
64 64 0
64 64 0
64 64 0
64 64 0
64 64 0
64 64 0
64 64 0
64 64 0
64 64 0
64 64 0
64 64 0
64 64 0
64 64 0
64 64 0
64 64 0
64 64 0
64 64 -0
67.400162 71.271263 -0.88910705
64 64 0
67.41069 71.316818 -0.89417249
67.550613 71.616989 -0.70052445
64 64 0
67.436111 71.394669 -0.90317863
67.550064 71.6399 -0.70223635
64 64 0
67.437851 71.421867 -0.90599251
67.581833 71.732704 -0.7103681
86.975891 113.6019 1.5266832
67.433365 71.423943 -0.90599251
67.60733 71.800095 -0.71635884
86.865204 113.44125 1.5213132
67.435028 71.451157 -0.90880638
67.612946 71.83709 -0.71935505
64 64 0
86.838089 113.53964 1.5234904
67.453606 71.51532 -0.91612339
67.607758 71.850769 -0.72021013
64 64 0
86.767349 113.54357 1.5227643
67.436058 71.501007 -0.91387182
67.587578 71.831787 -0.71807069
64 64 0
64 64 0
67.448105 71.551392 -0.91950178
67.578117 71.836121 -0.71807069
64 64 0
64 64 0
67.449501 71.578674 -0.92231566
67.57077 71.845108 -0.71849829
64 64 0
86.473518 113.37511 1.5150726
67.459236 71.624481 -0.92738104
67.251602 71.166847 -0.65601915
64 64 0
86.394516 113.35963 1.5137665
67.431175 71.58699 -0.92231566
67.120239 70.899452 -0.63119787
64 64 0
86.289894 113.28723 1.5107187
67.430359 71.609657 -0.92456716
67.09713 70.870453 -0.62820172
64 64 0
86.223915 113.29991 1.5102831
67.406578 71.581345 -0.92062646
64 64 -0
64 64 0
64 64 0
67.322647 71.41851 -0.90036476
64 64 -0
67.221771 71.193291 -0.43925905
64 64 0
64 64 0
67.106522 70.958504 -0.84407842
64 64 -0
67.18145 71.126335 -0.43493548
64 64 0
64 64 0
66.99482 70.730118 -0.81593531
64 64 -0
67.162315 71.106537 -0.4334932
64 64 0
64 64 0
66.986687 70.733734 -0.81593531
64 64 -0
67.147446 71.096176 -0.43262917
64 64 0
64 64 0
66.964165 70.704811 -0.8119967
64 64 -0
67.111679 71.038475 -0.42888165
64 64 0
64 64 0
66.966309 70.731636 -0.81481057
64 64 -0
67.07814 70.98542 -0.42542213
107.01085 161.60736 0
64 64 0
66.976562 70.777084 -0.81987602
64 64 -0
67.092575 71.041222 -0.4285925
106.8845 161.6402 0
85.55616 113.07944 1.4970759
66.927612 70.687576 -0.80861831
64 64 -0
67.077843 71.030754 -0.42772847
106.75606 161.66809 0
85.511429 113.13879 1.4980921
66.941887 70.742348 -0.81481057
64 64 -0
67.063141 71.020233 -0.42686331
106.61927 161.67674 0
85.514389 113.30763 1.5024459
66.919548 70.713272 -0.81086987
64 64 -0
67.054657 71.023933 -0.42686331
106.47632 161.6709 0
85.446503 113.31453 1.5018654
66.915482 70.726128 -0.8119967
64 64 -0
67.052338 71.041862 -0.42772847
106.30652 161.60278 0
85.413765 113.40239 1.503752
66.913391 70.743629 -0.81368375
64 64 -0
67.039719 71.036041 -0.42715132
106.17616 161.62515 0
64 64 0
66.909317 70.745384 -0.81368375
64 64 -0
67.023178 71.009384 -0.42542213
106.06564 161.53113 0
64 64 0
66.879097 70.697556 -0.80749363
64 64 -0
67.014709 71.013031 -0.42542213
105.98888 161.67752 0
64 64 0
66.905022 70.780434 -0.81706214
64 64 -0
66.998085 70.99765 -0.42426896
105.90157 161.79996 0
84.553856 111.97353 1.4576002
66.88485 70.75589 -0.81368375
64 64 -0
66.973373 70.963203 -0.42196262
105.92236 162.17599 0
64 64 0
66.880669 70.76873 -0.81481057
64 64 -0
66.956856 70.947754 -0.42080945
105.85465 162.34631 0
64 64 0
66.864548 70.753494 -0.81255907
64 64 -0
66.926239 70.898933 -0.41763794
105.66669 162.2339 0
64 64 0
66.85836 70.761627 -0.81312138
64 64 -0
66.909843 70.883408 -0.41648477
84.668182 112.89182 0
64 64 0
66.846245 70.755714 -0.8119967
64 64 -0
66.8955 70.872627 -0.41562074
84.588882 112.86878 0
84.229347 112.01541 1.455133
66.85775 70.806 -0.81762451
64 64 -0
66.885185 70.871338 -0.4153316
84.453247 112.71127 0
84.165283 112.02544 1.4546974
66.82991 70.762573 -0.8119967
64 64 -0
66.874886 70.870049 -0.41504359
84.16935 112.19821 0
84.057083 111.92992 1.451069
66.827599 70.780045 -0.81368375
64 64 -0
66.856628 70.849655 -0.41360241
84.046989 112.06882 0
83.793129 111.46012 1.4361206
66.829155 70.806915 -0.81649762
64 64 -0
66.848351 70.853104 -0.41360241
83.952934 112.0065 0
83.753723 111.52719 1.4374268
66.82093 70.810333 -0.81649762
64 64 -0
66.844025 70.866089 -0.41417843
83.85508 111.9344 0
83.700256 111.56063 1.4377173
66.808823 70.804344 -0.81537294
64 64 -0
66.821915 70.83606 -0.41216123
85.316399 115.63873 0
83.559494 111.38266 1.4316218
66.81414 70.840637 -0.8193137
66.863266 70.960068 -0.62734658
66.813652 70.839462 -0.41216123
85.287651 115.74628 0
83.399422 111.15636 1.424075
66.830925 70.905151 -0.82663065
66.845123 70.939774 -0.62520719
66.805389 70.842857 -0.41216123
87.317886 120.87664 0
83.312859 111.10763 1.4218979
66.934044 71.181396 -0.85927469
66.842552 70.957451 -0.62648982
66.781464 70.807938 -0.40985489
87.249146 120.90478 0
83.281479 111.19347 1.4237845
66.973274 71.302597 -0.87334627
66.839951 70.975151 -0.62777412
66.78299 70.835243 -0.41129607
87.166634 120.89908 0
83.271469 111.33224 1.4272679
66.95108 71.273232 -0.86940771
66.839241 70.997604 -0.62948602
66.778625 70.848198 -0.41187322
87.086128 120.8981 0
83.253334 111.4518 1.4301701
64 64 -0
66.828865 70.996277 -0.62905848
66.770348 70.851547 -0.41187322
87.005646 120.89699 0
83.199883 111.48466 1.4304607
66.946785 71.313324 -0.87334627
64 64 -0
66.719528 70.749321 -0.40553021
103.7978 162.77016 0
83.134727 111.48856 1.42988
66.937943 71.316879 -0.87334627
64 64 -0
66.76149 70.877426 -0.41302639
103.66679 162.78918 0
83.088943 111.54056 1.4307506
66.948647 71.356392 -0.87784934
64 64 -0
66.734238 70.821472 -0.40956688
107.6891 172.99707 0
83.066025 111.56656 1.4311862
66.930336 71.336357 -0.87503546
64 64 -0
66.710648 70.786339 -0.40726054
64 64 0
83.037453 111.66196 1.4333634
66.936501 71.377663 -0.87953854
64 64 -0
66.713913 70.818436 -0.40898973
64 64 0
82.985611 111.6994 1.4337984
64 64 -0
66.923836 71.37175 -0.87841171
64 64 -0
64 64 -0
106.54726 171.27271 0
82.891556 111.63054 1.4310412
66.924271 71.398918 -0.88122773
64 64 -0
64 64 -0
67.549553 72.981003 -0.26970178
106.4463 171.39664 0
82.803429 111.576 1.4287189
66.906013 71.378792 -0.87841171
64 64 -0
64 64 -0
67.572975 73.072311 -0.27231401
106.28408 171.36552 0
64 64 -0
64 64 -0
64 64 -0
67.54303 73.028259 -0.27086288
106.14101 171.38263 0
82.737762 111.74707 1.4324923
66.875221 71.352676 -0.87447315
66.739021 71.004387 -0.62691903
64 64 -0
67.537796 73.047058 -0.27129844
106.03018 171.48193 0
82.642197 111.67288 1.4295895
66.873718 71.375092 -0.87672466
66.739876 71.031601 -0.62905848
64 64 -0
67.517426 73.0271 -0.27057233
104.78728 168.67625 0
82.639297 111.83579 1.4337984
66.870316 71.392754 -0.87841171
66.740669 71.05883 -0.63119787
66.652405 70.831512 -0.40841371
67.517807 73.060417 -0.27144346
104.65135 168.7012 0
82.587128 111.87282 1.434234
66.86322 71.40097 -0.87897623
66.71917 71.028618 -0.62820172
66.642288 70.829895 -0.4081257
67.501228 73.050117 -0.2710079
102.56426 163.68253 0
82.529266 111.89524 1.434234
66.859749 71.418633 -0.88066328
66.718056 71.051056 -0.62991357
66.648911 70.871674 -0.41043091
67.503372 73.088287 -0.27202401
100.78889 159.436 0
82.467651 111.90791 1.433944
66.850906 71.449265 -0.8834793
66.704681 71.067207 -0.63077033
66.672974 70.984352 -0.41677392
67.479546 73.091881 -0.27187899
100.48373 159.33017 0
82.3834 112.0349 1.4364113
66.834656 71.433716 -0.88122773
66.692482 71.060867 -0.62991357
66.601875 70.82325 -0.40697253
67.461151 73.07666 -0.27129844
100.38521 159.41795 0
82.306824 112.00851 1.4349595
66.840103 71.475121 -0.88572866
66.693062 71.088104 -0.63205302
66.578926 70.787704 -0.40466619
67.435417 73.041969 -0.27013734
96.774261 150.2614 0
82.2285 111.97717 1.4333634
66.83107 71.478546 -0.88572866
66.693588 71.115379 -0.63419408
66.5634 70.771461 -0.40351301
67.448402 73.109291 -0.27202401
96.658951 150.27174 0
64 64 0
66.832794 71.510498 -0.88910705
66.674118 71.089798 -0.63162541
66.617279 70.93911 -0.4133144
67.437393 73.113449 -0.27202401
96.552841 150.30626 0
64 64 0
66.821938 71.509163 -0.88854474
66.679993 71.13147 -0.63504916
66.588875 70.889 -0.4101429
67.424553 73.11274 -0.27187899
96.426559 150.28705 0
84.690536 119.05751 1.6426437
66.814636 71.517319 -0.88910705
66.665977 71.12027 -0.63376486
66.584183 70.901817 -0.41072005
67.413544 73.116867 -0.27187899
93.23069 142.06918 0
64 64 0
66.81443 71.544518 -0.89192092
66.657372 71.123489 -0.63376486
66.579453 70.914619 -0.41129607
67.386169 73.077148 -0.27057233
93.130875 142.08981 0
88.515152 129.71664 1.958886
66.808861 71.557449 -0.89304781
66.638031 71.097832 -0.63119787
66.508026 70.748032 -0.40120667
67.382439 73.100723 -0.27115288
93.016556 142.07127 0
64 64 0
66.811363 71.578201 -0.89529932
66.644455 71.128296 -0.63376486
66.509346 70.764107 -0.40207183
67.378754 73.107651 -0.27129844
92.965759 142.07904 0
64 64 0
66.803963 71.586357 -0.89586169
66.61982 71.08815 -0.62991357
66.544205 70.88356 -0.40898973
67.365944 73.106834 -0.27115288
92.864182 142.09445 0
64 64 0
66.808846 71.627892 -0.90036476
66.607712 71.08168 -0.62905848
66.52874 70.867218 -0.40783656
67.351349 73.101151 -0.27086288
92.782387 142.16347 0
64 64 0
66.804871 71.645576 -0.90205181
66.593842 71.070358 -0.62777412
66.531128 70.899414 -0.40956688
67.320656 73.051521 -0.26926622
92.693298 142.21283 0
88.365074 130.41489 1.9757211
66.811325 71.691917 -0.90711719
66.588829 71.083145 -0.62863088
66.53167 70.926758 -0.41100806
67.32399 73.094574 -0.27042732
92.596985 142.24255 0
88.316925 130.53214 1.9783338
66.836807 71.79081 -0.9183749
66.564453 71.042831 -0.62477797
66.512672 70.900635 -0.40927774
67.286331 73.025352 -0.26825064
92.51667 142.31619 0
88.156502 130.34174 1.9718027
66.867249 71.904106 -0.9313218
66.566452 71.074898 -0.62734658
66.504333 70.903664 -0.40927774
67.255928 72.975571 -0.26665398
92.425568 142.36037 0
109.54716 189.55925 3.7302217
66.907784 72.046165 -0.94764495
66.556152 71.073166 -0.62691903
66.501266 70.921288 -0.4101429
67.238014 72.959946 -0.26607344
92.343246 142.42892 0
81.401108 112.15082 1.42988
66.937645 72.15963 -0.96058965
66.542389 71.061752 -0.62563473
66.487648 70.909698 -0.40927774
67.232468 72.978531 -0.26650897
64 64 0
81.288353 112.02025 1.4253812
66.996407 72.354492 -0.98310286
66.53038 71.055145 -0.62477797
66.481049 70.91758 -0.40956688
67.223373 72.987312 -0.26665398
64 64 0
81.177689 111.89436 1.4210273
67.023926 72.463394 -0.99548745
66.513222 71.034027 -0.62263852
66.48661 70.959549 -0.41187322
67.191528 72.93248 -0.26491231
84.736992 122.03891 0
81.083084 111.81231 1.4179795
67.027328 72.505341 -0.99999052
66.502998 71.032227 -0.62221098
66.478195 70.962547 -0.41187322
67.175499 72.921631 -0.26447675
84.508034 121.61772 0
80.999161 111.75948 1.4158022
66.499649 71.049767 -0.62349528
66.480156 70.994781 -0.41360241
67.16993 72.940163 -0.26491231
64 64 0
80.929276 111.74568 1.4147861
66.508224 71.101189 -0.62777412
66.471695 70.997772 -0.41360241
67.147018 72.909698 -0.26389673
83.465622 119.11026 0
80.875038 111.77592 1.4150767
66.501343 71.109047 -0.62820172
66.463242 71.000755 -0.41360241
67.13797 72.918396 -0.26404175
67.264244 73.277283 0
80.839722 111.86 1.4169633
66.50634 71.150826 -0.63162541
66.453072 70.998848 -0.4133144
67.13063 72.931976 -0.26433176
67.232384 73.222298 0
80.7836 111.88521 1.4171084
66.521393 71.221725 -0.63761783
66.487244 71.123894 -0.42052144
67.107849 72.901421 -0.26331618
67.197212 73.157387 0
80.720581 111.89073 1.4166728
66.517723 71.239296 -0.63890046
66.532997 71.283226 -0.42974567
67.093674 72.895348 -0.26302564
81.952675 115.62 0
80.667831 111.92563 1.4171084
66.512337 71.252045 -0.63975722
66.549599 71.359604 -0.43407035
67.089722 72.918716 -0.26360619
81.805099 115.39574 0
80.598 111.91135 1.4160923
66.498543 71.240509 -0.63847291
66.557579 71.411575 -0.43695271
67.070473 72.897888 -0.26288062
81.55793 114.88095 0
80.540092 111.93137 1.4160923
66.488129 71.238678 -0.63804537
66.535164 71.375519 -0.43464637
67.064789 72.916336 -0.26331618
81.273109 114.2524 0
80.488922 111.97098 1.4166728
66.520401 71.347008 -0.64745981
66.552528 71.440659 -0.43839389
67.061081 72.923103 -0.2634612
81.036697 113.6622 0
80.925346 113.33762 1.4567297
66.548042 71.456924 -0.6568743
66.543533 71.443733 -0.43839389
67.057022 72.946465 -0.26404175
80.931244 113.54979 0
80.86908 113.36785 1.4570197
66.54068 71.464851 -0.65730184
66.542877 71.471306 -0.43983617
67.032814 72.910797 -0.26288062
80.76236 113.24995 0
80.817787 113.4128 1.4577452
66.546501 71.511688 -0.66115475
66.543808 71.503754 -0.44156539
67.015373 72.89476 -0.26230007
70.207153 82.309921 0
80.656296 113.13287 1.4488924
64 64 -0
66.55056 71.553658 -0.66457689
66.531433 71.497009 -0.44098824
67.014595 72.927933 -0.26317063
70.15506 82.228653 0
70.161575 82.247955 0.5378989
66.544701 71.566475 -0.66543365
66.547104 71.573616 -0.44531292
66.997177 72.911865 -0.26259008
70.146301 82.275543 0
70.137871 82.250465 0.53775388
66.542084 71.58902 -0.66714549
66.559311 71.64045 -0.44906044
66.983109 72.90564 -0.26230007
70.127518 82.292816 0
70.127365 82.292366 0.53877002
66.539413 71.611565 -0.66885734
66.548439 71.638634 -0.44877243
66.97728 72.924026 -0.26273564
70.090584 82.255775 0
70.106903 82.304688 0.53891498
66.544777 71.65847 -0.67270863
66.54084 71.646614 -0.44906044
66.951752 72.88324 -0.26142952
70.066887 82.258186 0
70.084785 82.31205 0.53891498
67.115036 73.412643 -0.55255216
66.936111 72.871994 -0.26099396
70.044815 82.265503 0
70.057755 82.304581 0.53847945
67.103661 73.416397 -0.55255216
66.922134 72.865654 -0.26070338
70.027634 82.287628 0
70.007973 82.227989 0.53601223
67.074532 73.366074 -0.54938066
66.913048 72.87413 -0.26084897
70.013649 82.319618 0
69.976227 82.205612 0.53514165
67.071259 73.394379 -0.55082297
66.902321 72.87764 -0.26084897
64 64 0
78.123505 107.20109 1.2693639
64 64 -0
67.055099 73.383324 -0.54995781
66.885155 72.861374 -0.26026839
64 64 0
78.074509 107.22801 1.2696545
64 64 -0
67.04216 73.382095 -0.5496698
66.869637 72.850021 -0.25983283
64 64 0
78.017456 107.23016 1.2692189
67.022873 73.361137 -0.54822749
66.854149 72.838638 -0.2593973
64 64 0
77.962021 107.23718 1.2689289
67.011559 73.364777 -0.54822749
66.838699 72.827255 -0.25896227
64 64 0
77.906586 107.24411 1.2686384
66.998665 73.363495 -0.54793948
66.8312 72.840569 -0.25925228
69.861626 82.303253 0
77.849564 107.24603 1.2682028
66.984207 73.357262 -0.54736346
66.815773 72.829124 -0.25881672
69.841087 82.315277 0
77.765724 107.16373 1.2653005
66.969765 73.35099 -0.54678631
66.801964 72.822624 -0.25852671
69.828407 82.352097 0
77.667946 107.0367 1.2610917
66.952225 73.334839 -0.54563314
66.785027 72.806183 -0.25794616
69.8125 82.378952 0
77.514084 106.73112 1.2516583
66.937836 73.328545 -0.54505712
66.772827 72.804588 -0.25780118
69.790291 82.385963 0
77.237648 106.03365 1.2307588
66.927544 73.315506 -0.54419196
66.769066 72.811218 -0.25794616
69.771378 82.364639 0
76.916237 105.09972 1.2031842
66.9132 73.309174 -0.54361594
66.756866 72.809601 -0.25780118
69.736748 82.331856 0
76.771896 104.81276 1.1943308
66.906563 73.327484 -0.54447997
66.758591 72.852615 -0.25896227
69.734726 82.403374 0
76.637543 104.55529 1.1863486
68.868172 79.689224 -0.91549373
66.732483 72.806297 -0.2575106
75.649254 101.54341 0
76.533089 104.39186 1.1811241
68.847679 79.690155 -0.91520572
66.731049 72.839394 -0.25838172
75.602341 101.5525 0
75.59761 101.53717 1.0972377
66.720367 72.84269 -0.25838172
75.530945 101.48192 0
75.53849 101.50645 1.0959315
64 64 -0
66.712723 72.855896 -0.25867173
75.458206 101.40623 0
75.476425 101.46571 1.094335
66.7005 72.854202 -0.25852671
75.391739 101.35036 0
75.402344 101.38512 1.0915776
66.694336 72.872383 -0.25896227
75.336014 101.32923 0
75.337532 101.33423 1.089691
68.604218 79.227722 -0.44429576
75.290901 101.3429 0
75.284889 101.32301 1.0889649
68.585808 79.233276 -0.44429576
75.24427 101.35154 0
75.238281 101.33165 1.0888199
64 64 -0
64 64 -0
75.155464 101.38358 0
75.15844 101.39356 1.089836
64 64 -0
64 64 -0
75.108803 101.39205 0
75.10585 101.38211 1.0891105
64 64 -0
64 64 -0
75.068039 101.42043 0
75.066566 101.41544 1.089691
68.473145 79.190903 -0.44226354
75.027229 101.44876 0
75.009605 101.3889 1.0885298
68.453323 79.191315 -0.44211856
74.990753 101.49201 0
74.945419 101.33736 1.0866432
68.434967 79.196686 -0.44211856
74.954193 101.53523 0
74.891556 101.3206 1.085772
68.413704 79.192055 -0.44182855
74.914642 101.56844 0
74.846451 101.33374 1.085772
68.398224 79.207352 -0.44211856
74.86924 101.5816 0
74.801338 101.34682 1.085772
68.371223 79.182701 -0.44124797
74.825264 101.59972 0
74.766266 101.39481 1.0867882
68.36348 79.190331 -0.44139299
74.802544 101.60625 0
74.73793 101.38132 1.0862076
68.347977 79.205574 -0.44168299
74.762817 101.63928 0
74.702759 101.42923 1.0872232
68.331032 79.215836 -0.44182855
74.717331 101.65225 0
74.657524 101.44214 1.0872232
68.312645 79.221054 -0.44182855
74.676086 101.68021 0
74.613693 101.46001 1.0873687
68.29425 79.226257 -0.44182855
74.627724 101.68307 0
74.565598 101.46278 1.0870782
68.277252 79.236427 -0.44197354
74.57093 101.65579 0
74.518921 101.47053 1.0869333
68.260231 79.24659 -0.44211856
74.508614 101.60838 0
74.472244 101.47821 1.0867882
68.241806 79.251724 -0.44211856
74.461769 101.61604 0
74.429733 101.50084 1.0870782
68.223373 79.256836 -0.44211856
74.42881 101.6738 0
74.391342 101.53845 1.0878037
68.209084 79.276962 -0.44255409
74.398483 101.74155 0
74.350121 101.56602 1.0882393
68.193367 79.292053 -0.44284409
74.363884 101.79425 0
74.307472 101.58853 1.0885298
68.17762 79.307144 -0.44313467
68.063911 78.890495 0
74.263412 101.60596 1.0886749
68.165932 79.337257 -0.4438602
68.052734 78.920509 0
74.217964 101.61834 1.0886749
68.150108 79.352303 -0.44415021
64 64 0
74.172501 101.63066 1.0886749
68.139656 79.387428 -0.44502133
64 64 0
74.125679 101.63791 1.0885298
68.126442 79.412498 -0.44560188
67.985168 78.884834 0
74.080193 101.65012 1.0885298
68.110489 79.427505 -0.44589189
67.959137 78.859451 0
74.042717 101.69239 1.0894004
68.88562 82.426208 -0.53239053
67.929169 78.818947 0
74.00116 101.71957 1.089836
68.859375 82.417015 -0.531955
67.90728 78.808578 0
73.960884 101.75172 1.0904166
64 64 -0
67.886742 78.80323 0
73.912621 101.75368 1.090126
68.813538 82.423683 -0.53180999
67.859642 78.772659 0
73.870934 101.78072 1.0905615
68.514648 81.365463 -0.99995869
68.79258 82.434509 -0.531955
67.836548 78.757164 0
73.82135 101.77752 1.090126
68.769005 82.435265 -0.53180999
67.817413 78.756752 0
73.777 101.79439 1.090271
68.48188 81.368614 -0.99967068
68.757866 82.438141 -0.53180999
67.809799 78.764091 0
73.754166 101.80029 1.090271
68.459602 81.369011 -0.99938267
68.731705 82.428772 -0.53137445
67.786774 78.74852 0
73.709778 101.81709 1.0904166
68.44117 81.384399 -0.99995869
68.710724 82.439522 -0.53152001
67.768951 78.753082 0
73.671791 101.85899 1.0912871
68.687157 82.440147 -0.53137445
67.74984 78.752586 0
73.631165 101.89081 1.0918677
68.661049 82.430702 -0.53093946
67.732018 78.757111 0
73.587921 101.9125 1.0921582
68.642578 82.451424 -0.53137445
67.711639 78.751518 0
73.54464 101.93413 1.0924482
68.622803 82.46711 -0.53166497
67.693817 78.755997 0
73.50132 101.9557 1.0927383
68.597977 82.462585 -0.53137445
67.67598 78.760445 0
73.452942 101.95708 1.0924482
68.575661 82.468132 -0.53137445
67.660645 78.774971 0
73.409561 101.97855 1.0927383
68.550858 82.463562 -0.53108442
67.644035 78.784431 0
73.35994 101.97478 1.0923033
68.528549 82.469048 -0.53108442
67.624931 78.783775 0
73.319 102.00624 1.0928838
68.506226 82.47451 -0.53108442
67.607063 78.788147 0
73.275528 102.02757 1.0931737
68.481453 82.469849 -0.53079444
67.591652 78.80262 0
73.234474 102.05894 1.0937543
68.455475 82.460091 -0.53035885
67.578644 78.827187 0
73.189697 102.07512 1.0938994
68.433167 82.465462 -0.53035885
67.574089 78.887161 0
73.142471 102.08115 1.0937543
68.416885 82.496071 -0.53108442
67.56456 78.92691 0
73.101288 102.11239 1.094335
68.39093 82.486221 -0.53064889
67.552536 78.95652 0
73.054024 102.11831 1.0941899
68.372177 82.506691 -0.53108442
67.53566 78.965866 0
73.005569 102.11909 1.0938994
68.355751 82.537254 -0.53180999
67.514008 78.954941 0
72.95356 102.10466 1.0931737
68.347542 82.603226 -0.53355169
67.500671 78.979446 0
67.407333 78.58007 0.41816509
68.336823 82.659073 -0.53500277
67.480209 78.973518 0
67.383835 78.558868 0.41743952
68.313103 82.659241 -0.53485781
67.460945 78.972641 0
67.359222 78.532578 0.41656896
68.295998 82.636536 -0.53413224
67.448387 78.959511 0
67.34227 78.499153 0.41555285
68.253731 82.555603 -0.53166497
72.840485 102.56389 0
64 64 0
68.21283 82.47966 -0.52934277
72.799667 102.59993 0
67.297981 78.466652 0.41439176
68.185898 82.464462 -0.52876222
72.758774 102.63591 0
67.27935 78.465561 0.41424674
67.941269 81.483299 -0.99880552
68.164726 82.474571 -0.52890718
72.701782 102.60077 0
67.258438 78.4543 0.41381118
67.917877 81.477966 -0.9982295
68.137856 82.459305 -0.52832663
72.656273 102.61633 0
67.234154 78.427811 0.41294062
67.888878 81.447334 -0.99621117
68.117813 82.474442 -0.5286172
72.606209 102.61152 0
67.21106 78.406334 0.41221452
67.859955 81.416664 -0.9941929
68.096611 82.484474 -0.52876222
72.561798 102.63206 0
67.193649 78.410202 0.41221452
67.834457 81.401108 -0.99303973
68.073151 82.484344 -0.5286172
72.524078 102.68304 0
67.171768 78.393768 0.4116345
67.799004 81.440659 -0.99476999
68.02626 82.483963 -0.52832663
72.438324 102.73911 0
67.134758 78.391228 0.41134396
67.777924 81.445236 -0.99476999
68.008316 82.509132 -0.52890718
72.390404 102.7442 0
67.109665 78.359444 0.41032785
67.759018 81.4599 -0.99534607
67.981575 82.493645 -0.52832663
72.342491 102.74922 0
67.090126 78.353043 0.41003785
67.740082 81.474548 -0.99592316
67.963577 82.518768 -0.52890718
71.783691 100.36723 0
67.06517 78.321182 0.40902174
67.720047 81.484116 -0.99621117
67.9412 82.523544 -0.52890718
71.735413 100.35625 0
67.047859 78.324875 0.40902174
67.692497 81.458237 -0.99448198
67.919891 82.533386 -0.52905273
71.688248 100.35028 0
67.02948 78.323471 0.40887672
67.670326 81.457611 -0.9941929
67.895355 82.527931 -0.52876222
71.64753 100.37483 0
67.015373 78.342384 0.40931228
67.652405 81.477226 -0.995058
67.872963 82.532623 -0.52876222
71.605698 100.39423 0
66.99379 78.325668 0.40873173
67.62603 81.456314 -0.99361682
67.850571 82.537292 -0.52876222
71.561722 100.4034 0
66.975426 78.324188 0.40858671
67.60598 81.465744 -0.99390483
67.83342 82.567375 -0.52948779
71.518776 100.41759 0
66.954964 78.3125 0.40815115
67.584869 81.470085 -0.99390483
67.807854 82.556732 -0.52905273
71.478958 100.44705 0
66.940796 78.331337 0.40858671
67.562912 81.416512 -0.99073446
67.795593 82.553925 -0.52890718
71.457977 100.45668 0
66.931099 78.328011 0.40844116
67.5429 81.425873 -0.99102247
67.773178 82.558502 -0.52890718
71.415993 100.47585 0
66.911713 78.321365 0.40815115
67.521835 81.430138 -0.99102247
67.752808 82.573242 -0.52919775
71.372948 100.48988 0
66.895432 78.329956 0.40829617
67.499756 81.429314 -0.99073446
67.731384 82.582855 -0.52934277
71.329872 100.50386 0
66.885277 78.369118 0.40931228
67.474648 81.413239 -0.98958129
67.709946 82.592438 -0.52948779
71.284744 100.5076 0
66.870964 78.387871 0.40974727
67.453606 81.417419 -0.98958129
67.687477 82.596909 -0.52948779
71.246704 100.54701 0
66.859642 78.421921 0.41061839
67.426552 81.391121 -0.98785096
67.665001 82.601349 -0.52948779
71.206558 100.57617 0
66.851257 78.471252 0.41192451
64 64 -0
67.407524 81.405411 -0.98842812
67.645523 82.621071 -0.52992332
71.167358 100.61038 0
66.834763 78.479782 0.4120695
67.377602 81.3638 -0.98583269
67.622025 82.620361 -0.5297783
71.119141 100.59859 0
66.813293 78.462791 0.41148895
67.360542 81.388184 -0.98698586
67.60051 82.629822 -0.52992332
71.080841 100.63781 0
66.791878 78.44577 0.4109084
67.338554 81.387161 -0.98669779
67.577995 82.634163 -0.52992332
71.038528 100.65657 0
71.036087 100.64384 1.0420874
67.312698 81.365776 -0.98525661
67.553535 82.628273 -0.52963334
70.995209 100.67016 0
70.992775 100.65742 1.0422325
67.29364 81.379929 -0.98583269
67.532959 82.642754 -0.52992332
70.951859 100.68369 0
70.948479 100.66584 1.0422325
67.270721 81.373734 -0.98525661
67.514275 82.667435 -0.53050387
70.908493 100.69717 0
70.908012 100.69464 1.0428131
67.244972 81.352249 -0.98381543
67.489807 82.661469 -0.53021389
70.861282 100.69016 0
70.867493 100.72339 1.0433936
67.222115 81.345978 -0.98323834
67.471054 82.686104 -0.53079444
70.82074 100.71889 0
70.824066 100.73677 1.0435386
67.19928 81.339699 -0.98266226
68.387589 87.780205 -0.67534554
70.778259 100.73734 0
70.761757 100.6479 1.0407814
67.174591 81.323196 -0.98150909
68.356979 87.775276 -0.67505556
70.727295 100.70966 0
70.71653 100.65094 1.0406364
67.154587 81.332108 -0.9817971
68.331039 87.795853 -0.67549056
71.157318 103.32416 0
71.089127 102.94949 1.1056556
67.12812 81.305374 -0.98006791
67.415817 82.896965 -0.53630888
71.106094 103.31229 0
71.050377 103.00404 1.1069616
67.106293 81.304047 -0.9797799
67.392067 82.895966 -0.53616393
71.059509 103.32597 0
71.007835 103.03811 1.1076872
67.086288 81.312881 -0.98006791
67.37014 82.905167 -0.53630888
71.014725 103.34985 0
70.96431 103.06702 1.1082678
67.068596 81.273994 -0.97776157
66.785194 79.678673 -0.44473076
70.990044 103.34895 0
70.939796 103.0661 1.1081227
67.047722 81.277695 -0.97776157
66.759026 79.641083 -0.44356966
70.947014 103.383 0
70.890778 103.06421 1.1078322
67.031303 81.306831 -0.97920275
66.744614 79.670021 -0.44429576
70.899422 103.39137 0
70.852539 103.12369 1.1092833
67.004181 81.274803 -0.97718447
66.724785 79.66819 -0.44415021
70.851822 103.39967 0
70.802589 103.11659 1.1088483
66.904976 80.82476 -0.95152783
66.712036 79.707321 -0.44516632
70.809517 103.43869 0
70.757088 103.13502 1.1091383
66.746567 80.022728 -0.90598035
66.696571 79.731079 -0.4457469
70.763618 103.45715 0
70.711548 103.15341 1.1094289
66.708115 79.913857 -0.89963847
66.673203 79.70871 -0.44502133
70.719429 103.48582 0
70.663361 103.15636 1.1092833
66.689743 79.922211 -0.89992648
66.651619 79.696548 -0.44458577
70.671715 103.49391 0
70.624702 103.21562 1.1107349
66.671356 79.93055 -0.90021455
66.630936 79.689507 -0.44429576
70.61882 103.47114 0
70.576454 103.21848 1.11059
66.649559 79.918472 -0.89935046
66.61795 79.728539 -0.44531134
70.572838 103.48939 0
70.526505 103.21101 1.1101544
66.627792 79.906342 -0.8984853
66.601486 79.747078 -0.4457469
69.113472 94.952438 0
70.483353 103.24451 1.11088
66.620285 79.980965 -0.9025209
66.582451 79.750214 -0.4457469
69.064278 94.886696 0
69.079674 94.980606 0.87678242
66.601807 79.98922 -0.9028089
66.554237 79.696892 -0.44415021
69.004379 94.754074 0
69.025543 94.884132 0.87387961
66.593201 80.058731 -0.90655643
66.533615 79.689713 -0.4438602
68.955605 94.688171 0
68.972481 94.792702 0.87112182
66.577896 80.08741 -0.90799868
66.510544 79.667114 -0.44313467
68.905342 94.611908 0
68.919647 94.701202 0.86836457
66.569824 80.162025 -0.91203421
66.226402 78.002182 -0.39596671
68.868347 94.617813 0
68.875206 94.660934 0.86705846
66.176262 77.794304 -0.77827322
66.201378 77.953522 -0.39451504
68.823242 94.572266 0
68.832481 94.630867 0.86604238
66.166794 77.842918 -0.78086758
66.170052 77.863762 -0.3919028
68.788712 94.593506 0
68.799484 94.662354 0.86676794
65.840248 75.850449 -0.99965918
66.154831 77.876205 -0.78259784
66.153297 77.866371 -0.3919028
68.750938 94.594116 0
68.764832 94.68354 0.86720347
65.823586 75.83744 -0.99837488
66.140419 77.894119 -0.78346193
66.110435 77.699471 -0.38711333
66.405556 79.615219 0
68.728539 94.694405 0.86734849
65.807861 75.782707 -0.99366683
66.128105 77.86985 -0.78202075
66.091125 77.628838 -0.38508165
66.400864 79.647545 0
68.709991 94.697258 0.86734849
65.794403 75.789978 -0.99409604
66.111343 77.872414 -0.78202075
66.069183 77.595383 -0.38406554
66.377251 79.619553 0
68.668991 94.677246 0.86662292
65.776321 75.766739 -0.99195498
66.102303 77.926117 -0.78490418
66.058182 77.63385 -0.38508165
66.350609 79.570953 0
68.637352 94.718834 0.86763906
65.760582 75.758728 -0.99109983
66.091599 77.969574 -0.78721052
66.036316 77.600342 -0.38406554
66.333336 79.584091 0
68.602539 94.739822 0.86807406
65.74411 75.745605 -0.98981553
66.086876 78.05394 -0.79182214
66.012253 77.551399 -0.38261443
66.316032 79.597183 0
68.566154 94.750511 0.86821961
65.726173 75.722313 -0.98767614
66.083458 78.148582 -0.79701191
65.98452 77.476692 -0.3804372
66.289604 79.548485 0
68.532021 94.776573 0.86880016
65.710526 75.714241 -0.986821
66.07309 78.197151 -0.79960626
65.969734 77.48938 -0.38072774
66.276077 79.58728 0
68.498589 94.807739 0.86952573
65.695633 75.711205 -0.98639178
66.057411 78.209877 -0.80018234
65.953438 77.491745 -0.38072774
66.237846 79.456093 0
68.461357 94.813148 0.86952573
65.678566 75.692917 -0.98467994
66.043915 78.237946 -0.80162352
65.937874 77.499237 -0.38087276
66.214737 79.427887 0
68.423386 94.813362 0.86938018
65.667328 75.715271 -0.98639178
66.027443 78.245544 -0.80191261
65.92083 77.496429 -0.38072774
66.183624 79.342949 0
68.387611 94.828979 0.86967069
65.63546 75.693848 -0.98425239
65.993729 78.255516 -0.80220068
65.896843 77.56279 -0.38246942
66.151588 79.384254 0
68.311661 94.829193 0.86938018
65.623444 75.711075 -0.98553669
65.969391 78.206665 -0.79931718
64 64 -0
66.130135 79.366219 0
66.602539 82.774002 0.52933609
65.609291 75.713028 -0.98553669
65.946594 78.16806 -0.79701191
64 64 -0
66.110153 79.358475 0
66.574196 82.735947 0.52817494
65.594444 75.709885 -0.98510915
65.923889 78.129395 -0.79470557
65.85257 77.605614 -0.38348499
66.089485 79.345535 0
66.54805 82.713303 0.52744937
65.578918 75.701614 -0.98425239
65.902664 78.100937 -0.79297531
65.831963 77.57695 -0.38261443
66.068855 79.332596 0
66.519875 82.675171 0.52628827
65.564102 75.698425 -0.98382485
65.881516 78.072479 -0.79124612
64 64 -0
66.051704 79.34539 0
66.49662 82.67305 0.52614325
65.552658 75.720665 -0.98553669
65.849564 77.961929 -0.78490418
64 64 -0
66.031113 79.332375 0
66.470642 82.650299 0.52541775
65.537163 75.712341 -0.98467994
65.823273 77.892334 -0.78086758
65.780708 77.568039 -0.38217887
66.01123 79.324501 0
66.442696 82.612053 0.52425659
65.522346 75.709106 -0.98425239
65.795143 77.807327 -0.77596688
65.763641 77.565033 -0.38203385
65.992043 79.321762 0
66.417526 82.594376 0.52367604
65.50885 75.716026 -0.98467994
65.769211 77.737671 -0.77193135
65.745926 77.556854 -0.38174388
65.97818 79.360283 0
66.392403 82.576668 0.52309549
65.492744 75.702576 -0.98339725
64 64 -0
65.728226 77.54863 -0.38145331
65.955666 79.331696 0
66.369293 82.574394 0.52295047
65.478607 75.704369 -0.98339725
64 64 -0
65.705338 77.499161 -0.3800022
65.935837 79.323708 0
66.347504 82.58239 0.52309549
65.461914 75.685776 -0.9816854
65.704636 77.625946 -0.76530141
65.689674 77.506363 -0.38014719
65.916672 79.320877 0
66.321823 82.559433 0.52236992
65.445267 75.667145 -0.97997355
65.682442 77.581779 -0.76270598
65.6791 77.55481 -0.38145331
65.893036 79.28186 0
66.299393 82.562225 0.52236992
65.438217 75.668022 -0.97997355
65.65905 77.459595 -0.75578809
65.671547 77.560974 -0.38159829
65.890175 79.334663 0
66.285637 82.542984 0.52178937
65.4235 75.664658 -0.97954595
65.640282 77.441055 -0.75463492
65.652641 77.542343 -0.38101774
65.869751 79.321434 0
66.262604 82.540573 0.52164435
65.406319 75.640869 -0.97740489
65.620316 77.412201 -0.75290459
65.632538 77.51339 -0.38014719
65.851242 79.323685 0
66.238953 82.532967 0.52135384
65.388596 75.611984 -0.9748379
65.602264 77.39875 -0.75204051
65.618675 77.535988 -0.38072774
65.830246 79.305237 0
66.216553 82.53566 0.52135384
65.375771 75.62384 -0.97569305
65.582428 77.36985 -0.75031024
65.599266 77.512138 -0.3800022
65.815422 79.33844 0
66.191711 82.517685 0.52077323
65.358742 75.599998 -0.9735536
65.566872 77.3769 -0.75059932
65.587776 77.555351 -0.3811633
65.79689 79.340622 0
66.169334 82.520317 0.52077323
65.342949 75.586334 -0.9722693
65.557259 77.435295 -0.75376976
65.571396 77.557259 -0.3811633
65.781952 79.37381 0
66.146957 82.522926 0.52077323
65.333046 75.623657 -0.9752655
65.545738 77.478279 -0.7560761
65.557976 77.584961 -0.38188887
65.762779 79.370789 0
64 64 0
65.31842 75.620163 -0.9748379
65.540527 77.577782 -0.76155281
65.54097 77.581673 -0.38174388
65.743614 79.367722 0
66.099846 82.507401 0.52019268
65.304375 75.621742 -0.9748379
65.539703 77.718437 -0.769337
65.524559 77.583527 -0.38174388
65.716919 79.297409 0
66.078636 82.520264 0.52048326
65.2892 75.613098 -0.97398114
65.532829 77.807686 -0.77423769
65.506996 77.57502 -0.38145331
65.702454 79.335693 0
64 64 0
65.273491 75.59935 -0.97269851
65.525742 77.896942 -0.77913839
65.493431 77.602654 -0.38217887
65.68676 79.363602 0
66.030472 82.494232 0.51961213
65.259468 75.600883 -0.97269851
65.511177 77.919342 -0.78029156
65.474747 77.583786 -0.38159829
65.668762 79.370796 0
66.009247 82.507011 0.51990271
65.242714 75.576874 -0.97055906
65.496017 77.9366 -0.78115666
65.459999 77.601059 -0.38203385
65.646294 79.336571 0
65.984665 82.488754 0.51932216
65.229805 75.58857 -0.97141421
65.480812 77.953812 -0.78202075
65.442467 77.592491 -0.38174388
65.999611 82.842499 0
65.965065 82.516975 0.52004772
65.214195 75.574722 -0.97012985
65.464493 77.960747 -0.78230983
65.428207 77.614899 -0.38232443
65.970322 82.782776 0
65.941605 82.50901 0.51975769
65.200211 75.57618 -0.97012985
65.445488 77.941925 -0.78115666
65.409081 77.590752 -0.38159829
65.944405 82.754074 0
65.920845 82.52684 0.52019268
65.183601 75.552094 -0.96799046
65.428642 77.943665 -0.78115666
65.393715 77.602791 -0.38188887
65.922806 82.766769 0
65.896339 82.508469 0.51961213
65.169647 75.553513 -0.96799046
65.412834 77.955666 -0.78173274
65.376755 77.599304 -0.38174388
65.901176 82.779434 0
65.875549 82.52626 0.52004772
65.158241 75.58046 -0.97012985
65.397514 77.972809 -0.78259784
65.36187 77.616455 -0.38217887
65.878487 82.781715 0
65.852646 82.523346 0.51990271
65.140717 75.546097 -0.96713531
65.387749 78.046547 -0.78663343
65.353592 77.700836 -0.3845011
65.855278 82.778793 0
65.832306 82.546257 0.52048326
65.136749 75.577431 -0.9697023
65.375221 78.006195 -0.78432709
65.345314 77.701653 -0.3845011
65.844948 82.79026 0
65.820084 82.537003 0.52019268
65.120277 75.553253 -0.96756291
65.360291 78.028442 -0.78548026
65.333275 77.749817 -0.38580722
65.822243 82.79248 0
65.798683 82.549545 0.52048326
65.106316 75.554596 -0.96756291
65.574074 80.43988 -0.92039442
65.316162 77.746246 -0.38566223
65.79805 82.779137 0
65.777756 82.56723 0.52091885
65.093803 75.571266 -0.96884722
65.549828 80.395432 -0.91780007
65.299065 77.742661 -0.38551721
65.448654 79.325142 0
65.75679 82.584869 0.52135384
65.076958 75.541893 -0.96627855
65.530495 80.402435 -0.91808808
65.288254 77.806313 -0.38725889
65.421913 79.238785 0
65.734329 82.586983 0.52135384
65.06443 75.558533 -0.96756291
65.510201 80.399124 -0.91780007
65.267754 77.766464 -0.38609776
65.403503 79.240494 0
65.711868 82.589066 0.52135384
65.050461 75.559807 -0.96756291
65.488976 80.385483 -0.91693491
65.704948 82.762146 -0.52614999
65.383667 79.226624 0
65.688934 82.585953 0.52120882
65.03466 75.540619 -0.96585101
65.470566 80.402725 -0.91780007
65.687386 82.821136 -0.52774668
65.365738 79.233482 0
65.666946 82.593147 0.52135384
65.018448 75.516289 -0.96371162
65.451653 80.414787 -0.91837615
65.659607 82.766212 -0.52614999
65.340912 79.162521 0
65.647224 82.626221 0.52222496
65.00766 75.553299 -0.96670616
65.428223 80.375305 -0.91606981
65.639633 82.799255 -0.52702051
65.332085 79.273018 0
65.625168 82.633369 0.52236992
64.992821 75.544289 -0.96585101
65.411537 80.413101 -0.91808808
64 64 -0
64 64 0
65.601761 82.624954 0.52207935
64.979736 75.555702 -0.96670616
65.390831 80.404472 -0.91751099
64 64 -0
64 64 0
65.581009 82.647583 0.52265996
64.962776 75.52108 -0.96371162
65.374451 80.447388 -0.91981733
64 64 -0
65.587486 82.996582 0
65.558479 82.649483 0.52265996
64.948433 75.51712 -0.96328402
65.351181 80.407791 -0.91751099
64 64 -0
65.560257 82.946609 0
65.536797 82.66172 0.52295047
64.934937 75.523369 -0.96371162
65.33387 80.440353 -0.91924125
65.523926 82.782928 -0.52629495
65.542831 83.015915 0
65.515503 82.679108 0.52338606
64.919373 75.504021 -0.96199971
65.313591 80.436798 -0.91895324
65.501236 82.784752 -0.52629495
65.516541 82.97628 0
65.492523 82.675735 0.52324051
64.904266 75.489761 -0.96071541
65.295349 80.459007 -0.92010641
65.478127 82.78138 -0.52614999
65.494019 82.983276 0
65.472809 82.713791 0.52425659
64.889984 75.485733 -0.96028787
65.274666 80.450233 -0.91952932
65.455833 82.78833 -0.52629495
65.470673 82.979889 0
65.449791 82.710381 0.52411163
64.877274 75.502167 -0.96157217
65.255966 80.467239 -0.92039442
65.432732 82.784897 -0.52614999
65.450508 83.017967 0
65.427582 82.7173 0.52425659
64.861839 75.482735 -0.95986032
65.237228 80.484222 -0.92125958
65.408867 82.771057 -0.5257144
65.423637 82.967812 0
65.404572 82.713829 0.52411163
64.850235 75.514481 -0.96242726
65.216545 80.47538 -0.92068243
65.385422 82.76239 -0.52542442
65.405319 83.031807 0
65.38311 82.731064 0.52454716
64.842529 75.504761 -0.96157217
65.20697 80.48127 -0.9209705
65.373711 82.758049 -0.5252794
65.392296 83.011887 0
65.371796 82.731903 0.52454716
64.826042 75.469917 -0.95857596
65.187057 80.482712 -0.9209705
65.348801 82.728584 -0.52440828
65.369698 83.018738 0
65.349533 82.738724 0.52469218
64.813637 75.491394 -0.96028787
65.166412 80.473831 -0.92039442
65.326904 82.740578 -0.52469885
65.345978 83.01001 0
65.327621 82.750702 0.52498215
64.800819 75.507736 -0.96157217
65.145782 80.46489 -0.91981733
65.302094 82.711052 -0.52382773
65.323372 83.016808 0
65.304962 82.752289 0.52498215
64.786911 75.508698 -0.96157217
65.126945 80.48175 -0.92068243
65.280197 82.722992 -0.5241183
65.302521 83.049545 0
65.284073 82.77977 0.52570772
64.772659 75.504501 -0.96114296
65.105995 80.467613 -0.91981733
65.25618 82.703781 -0.52353776
65.277061 83.014763 0
65.261383 82.781311 0.52570772
64.756058 75.464447 -0.95771921
65.086433 80.474113 -0.92010641
65.234261 82.715652 -0.52382773
65.257851 83.07341 0
65.23835 82.777634 0.5255627
64.730301 75.496994 -0.96028787
65.046951 80.48185 -0.92039442
65.190018 82.734146 -0.52426332
65.211098 83.06601 0
65.194283 82.801323 0.52614325
64.717049 75.508102 -0.96114296
65.026711 80.477943 -0.92010641
64.995773 79.981491 -0.447198
65.190002 83.098625 0
65.172859 82.823502 0.52672386
64.701576 75.483345 -0.95900357
65.007111 80.484329 -0.92039442
64.981537 80.065674 -0.44952023
65.167236 83.10524 0
65.149796 82.819717 0.52657884
64.688011 75.489304 -0.95943111
64.984718 80.444229 -0.91808808
64.970512 80.206902 -0.45343858
65.143532 83.096252 0
65.128609 82.847031 0.52730441
64.673828 75.485008 -0.95900357
64.965454 80.455719 -0.91866416
64.957924 80.327393 -0.45677692
65.121674 83.118408 0
65.106445 82.858742 0.52759439
64.658478 75.46019 -0.95686412
64.945572 80.456879 -0.91866416
64.946243 80.468605 -0.46069527
65.097679 83.104149 0
65.081863 82.828949 0.52672386
64.645203 75.471222 -0.95771921
64.9254 80.45285 -0.91837615
64.925766 80.459366 -0.46040529
65.074593 83.105461 0
65.061157 82.866562 0.52773994
64.630211 75.451485 -0.95600736
64.905235 80.448792 -0.91808808
64.909584 80.527931 -0.46229196
65.050652 83.091156 0
65.039505 82.888596 0.52832049
64.617203 75.467621 -0.95729166
64.885078 80.444717 -0.91780007
64.888779 80.513443 -0.4618564
65.027023 83.082024 0
65.016678 82.889832 0.52832049
64.602539 75.452972 -0.95600736
64.86657 80.471596 -0.91924125
64.869095 80.519691 -0.46200138
65.002319 83.052048 0
64.993851 82.891052 0.52832049
64.589752 75.474205 -0.95771921
64.848785 80.513962 -0.92154759
64.850204 80.541489 -0.46258196
64.980103 83.068848 0
64.972092 82.912994 0.5289011
64.575119 75.459541 -0.95643657
64.827538 80.489151 -0.92010641
64.829697 80.532135 -0.46229196
64.956276 83.05442 0
64.949501 82.919342 0.52904606
64.560768 75.449959 -0.95557982
64.808624 80.510803 -0.92125958
64.811241 80.564255 -0.46316251
64 64 0
64.927147 82.930847 0.52933609
64.547913 75.471146 -0.95729166
64.790398 80.54792 -0.92327684
64.78875 80.513321 -0.46171141
64.911224 83.077469 0
64.904518 82.937157 0.52948165
64.541222 75.476593 -0.95771921
64.780159 80.543236 -0.92298877
64.77755 80.487846 -0.46098584
64.899452 83.072823 0
64.893814 82.953262 0.52991664
64.52594 75.44648 -0.95515227
64.76017 80.544167 -0.92298877
64.750229 80.327835 -0.45648637
64.87664 83.079086 0
64.871147 82.959511 0.5300616
64.512108 75.447105 -0.95515227
64.73925 80.524399 -0.9218356
64.723297 80.167801 -0.45198748
64.851959 83.043755 0
64.847542 82.944992 0.52962661
64.498726 75.457962 -0.95600736
64.720413 80.551117 -0.92327684
64.690659 79.867538 -0.44356966
64.829407 83.055161 0
64.825333 82.961563 0.5300616
64.484444 75.448311 -0.95515227
64.699753 80.536469 -0.92241168
64.664673 79.70742 -0.43907076
64.807701 83.087357 0
64.803299 82.983315 0.53064221
64.469978 75.433487 -0.95386791
64.680412 80.552811 -0.92327684
64.634171 79.427826 -0.4312335
64.784851 83.093513 0
64.780144 82.97908 0.53049719
64.456573 75.444321 -0.95472467
64.661026 80.56913 -0.92414194
64.606827 79.210495 -0.42513791
64.761566 83.089256 0
64.758247 83.005974 0.53122276
64.442146 75.429466 -0.95344037
64.64061 80.55957 -0.92356485
64.587242 79.180069 -0.42426735
64.740311 83.136963 0
64.735283 83.006874 0.53122276
64.428528 75.43512 -0.95386791
64.621376 80.581009 -0.92471802
64.571426 79.248276 -0.42615405
64.717773 83.153435 0
64.712708 83.018143 0.53151327
64.415459 75.456154 -0.95557982
64.601151 80.576584 -0.92443001
64.552254 79.22818 -0.42557347
64.695953 83.190704 0
64.690666 83.044952 0.53223884
64.400719 75.431 -0.95344037
64.581665 80.592812 -0.92529511
64.536583 79.306747 -0.42775071
64.675865 83.279953 0
64.66729 83.0354 0.53194886
64.387772 75.457123 -0.95557982
64.56144 80.588333 -0.9250071
64.518616 79.322952 -0.4281857
64.655914 83.379601 0
64.644463 83.041382 0.53209388
64.372925 75.426804 -0.95301282
64.541565 80.59417 -0.92529511
64.500946 79.349533 -0.42891127
64.63063 83.323151 0
64.623154 83.094078 0.53354496
64.360245 75.46315 -0.95600736
64.521187 80.584457 -0.92471802
64.481583 79.324158 -0.4281857
64.607933 83.344711 0
64.599915 83.089622 0.5334
64.345459 75.4328 -0.95344037
64.501305 80.590263 -0.9250071
64.462906 79.319534 -0.42804071
64.58519 83.366241 0
64.577164 83.100716 0.53368998
64.33239 75.458862 -0.95557982
64.482155 80.621872 -0.9267363
64.442886 79.26815 -0.42658958
64.560577 83.32531 0
64.55484 83.127388 0.53441608
64.317978 75.438728 -0.95386791
64.406448 78.621368 -0.81517243
64.422707 79.206337 -0.42484793
64.459274 80.521713 0
64.531868 83.133232 0.5345611
64.304703 75.459633 -0.95557982
64.389877 78.663223 -0.81747878
64.398392 78.983459 -0.41860735
64.442078 80.626305 0
64.50972 83.170212 0.53557664
64.290199 75.434334 -0.95344037
64.371902 78.653351 -0.81690276
64.373436 78.713776 -0.41106009
64.421059 80.590416 0
64.48642 83.165627 0.53543162
64.277374 75.475739 -0.95686412
64.353691 78.633102 -0.81574959
64.350632 78.506424 -0.40525508
64.401016 80.590912 0
64.463387 83.171387 0.53557664
64.263512 75.476067 -0.95686412
64.336128 78.638687 -0.8160376
64.331078 78.418518 -0.40278783
64.380371 80.565353 0
64.44046 83.182335 0.53586721
64.249977 75.491776 -0.95814842
64.318108 78.623558 -0.81517243
64.313431 78.408508 -0.40249729
64.358887 80.498154 0
64.417961 83.21402 0.53673774
64.244774 75.574036 -0.96499425
64.309708 78.64444 -0.8163256
64.30439 78.39312 -0.40206227
64.346825 80.399513 0
64.406464 83.219475 0.53688329
64.232018 75.635925 -0.97012985
64.292221 78.655151 -0.81690276
64.285553 78.320724 -0.40003005
64.326286 80.363487 0
64.383446 83.230339 0.53717333
64.218147 75.646469 -0.9709866
64.274414 78.65033 -0.81661469
64.26786 78.300278 -0.3994495
64.302711 80.160927 0
64.360306 83.235977 0.53731835
64.205154 75.708328 -0.97612226
64.256805 78.655815 -0.81690276
64.249756 78.25383 -0.39814338
64.284187 80.218529 0
64.338158 83.298752 0.53906
64.191513 75.739357 -0.97868919
64.239006 78.650948 -0.81661469
64.231262 78.176193 -0.39596671
64.263657 80.161606 0
64.317123 83.439445 0.54297888
64.178101 75.790901 -0.98296809
64.221306 78.65123 -0.81661469
64.213509 78.134895 -0.39480558
64.243263 80.10466 0
64.293716 83.445007 0.5431239
64.164139 75.811646 -0.98467994
64.202744 78.589417 -0.81315517
64.197006 78.176712 -0.39596671
64.223732 80.099747 0
64.270798 83.486923 0.544285
64.150063 75.82724 -0.98596424
64.184387 78.532745 -0.80998373
64.180077 78.192513 -0.3964017
64.205132 80.167656 0
64.246925 83.461235 0.5435589
64.136124 75.858208 -0.98853123
64.16671 78.522621 -0.80940765
64.16304 78.203125 -0.39669225
64.185181 80.131477 0
64.223648 83.482307 0.54413944
64.121742 75.853233 -0.98810369
64.149696 78.574532 -0.81229007
64.145882 78.203308 -0.39669225
64.166061 80.168106 0
64.200317 83.503349 0.54471999
64.107376 75.848244 -0.98767614
64.134003 78.786781 -0.82410973
64.128723 78.203476 -0.39669225
64.147942 80.324432 0
64.176613 83.487999 0.544285
64.093102 75.853493 -0.98810369
64.117035 78.900726 -0.83045167
64.112289 78.29715 -0.39930448
64.127968 80.293381 0
64.153351 83.524567 0.5453006
64.078537 75.817673 -0.98510915
64.099167 78.921547 -0.83160484
64.096504 78.520721 -0.40554506
64.108978 80.397614 0
64.129616 83.503944 0.54471999
64.064285 75.822891 -0.98553669
64.080544 78.813026 -0.82555097
64.082039 79.087257 -0.42136458
64.089302 80.423759 0
64.106163 83.524879 0.5453006
64.050003 75.82296 -0.98553669
64.060677 78.34758 -0.79960626
64.064377 79.222458 -0.42513791
64.069611 80.460297 0
64.082596 83.530205 0.54544616
64.035713 75.823013 -0.98553669
64.042496 78.068314 -0.78403908
64.046043 79.243309 -0.42571849
64.049644 80.434326 0
64.05909 83.561462 0.54631668
64.021439 75.828171 -0.98596424
64.025406 78.01664 -0.78115666
64.027588 79.222565 -0.42513791
64.029747 80.413551 0
64.035492 83.582306 0.54689723
64.007156 75.848724 -0.98767614
64.008453 77.990776 -0.77971441
64.00914 79.134247 -0.42267069
64.009872 80.345917 0
64.011841 83.597931 0.54733282
63.992859 75.817932 -0.98510915
63.99155 77.985611 -0.7794264
63.990944 78.988754 -0.41860735
63.990158 80.288681 0
63.988174 83.57193 0.54660672
63.97858 75.817917 -0.98510915
63.974697 77.959732 -0.77798522
63.973087 78.848412 -0.41468844
63.970638 80.200172 0
63.964462 83.608284 0.5476228
63.964317 75.812729 -0.98467994
63.957832 77.959686 -0.77798522
63.95549 78.734047 -0.41149566
63.951096 80.189705 0
63.940769 83.608231 0.5476228
63.950108 75.797295 -0.98339725
63.941029 77.944107 -0.77712005
63.937996 78.66124 -0.40946397
63.931774 80.132393 0
63.917141 83.592545 0.54718727
63.943031 75.78698 -0.98254049
63.932507 77.96476 -0.77827322
63.92934 78.619621 -0.40830284
63.921951 80.147949 0
63.905155 83.62368 0.54805839
63.928913 75.766365 -0.98082864
63.915756 77.943977 -0.77712005
63.912052 78.557159 -0.4065612
63.902599 80.121826 0
63.881222 83.659912 0.54907393
63.914547 75.786812 -0.98254049
63.899021 77.92836 -0.77625597
63.894577 78.541451 -0.40612563
63.883381 80.085258 0
63.857468 83.65976 0.54907393
63.900566 75.755905 -0.97997355
63.881798 77.974777 -0.77885032
63.877136 78.525742 -0.40569061
63.838371 83.108955 0
63.833801 83.649185 0.5487839
63.886063 75.786568 -0.98254049
63.865009 77.964264 -0.77827322
63.859787 78.504791 -0.40511006
63.815331 83.103546 0
63.810207 83.633377 0.54834837
63.858013 75.750336 -0.97954595
63.831139 77.974258 -0.77885032
63.82555 78.436859 -0.4032234
63.76841 83.165482 0
63.761696 83.721199 0.55081558
63.84409 75.729622 -0.97783411
63.814529 77.953354 -0.77769715
63.807762 78.462616 -0.40394896
63.745598 83.139168 0
