# .PCD v0.7 - Point Cloud Data file format
VERSION 0.7
FIELDS x y z
SIZE 4 4 4
TYPE F F F
COUNT 1 1 1
WIDTH 1577
HEIGHT 1
VIEWPOINT 0 0 0 1 0 0 0
POINTS 1577
DATA ascii
69.242058 60.009403 -0.90882903
70.29599 59.207081 -0.87645435
72.392311 57.611221 -0.87920016
77.270378 53.89772 -0.9294802
79.190742 52.43581 -0.53319198
80.143188 51.710751 0
80.083679 51.75605 0.56453371
68.486275 60.593307 -0.92870975
69.24688 60.015739 -0.90882903
70.28154 59.230057 -0.87364042
72.383675 57.633785 -0.87748832
77.270226 53.923138 -0.92861617
79.233665 52.432182 -0.53420752
80.15387 51.733421 0
80.081909 51.788063 0.56395316
68.545547 60.55695 -0.94011772
69.255699 60.019043 -0.90952319
70.315643 59.216179 -0.87757903
72.415924 57.625313 -0.88005692
77.278259 53.94231 -0.92832708
79.25177 52.447464 -0.53435254
80.156242 51.762367 0
80.088356 51.813786 0.56366259
68.522095 60.583309 -0.93441218
69.264503 60.022373 -0.91021466
70.30925 59.233009 -0.87588984
72.394943 57.657158 -0.87706077
77.290398 53.958363 -0.92832708
79.257431 52.47216 -0.5340625
80.179314 51.775627 0
80.090637 51.842625 0.56322759
68.569641 60.556046 -0.94337755
69.245255 60.046864 -0.9060604
70.31501 59.240635 -0.87588984
72.423096 57.651855 -0.87920016
77.277748 53.993103 -0.92659783
79.238152 52.515625 -0.53290141
80.206543 51.785786 0
80.105316 51.862076 0.56322759
68.569855 60.564537 -0.94256335
69.274101 60.035107 -0.91021466
70.328888 59.242157 -0.87701666
72.422562 57.668205 -0.87834507
77.281563 54.015366 -0.92602181
79.285248 52.509064 -0.5340625
80.200493 51.821014 0
80.107506 51.890915 0.56279206
68.558182 60.581924 -0.93930352
69.234726 60.0746 -0.90260023
70.318367 59.262001 -0.87476516
72.417877 57.68763 -0.87706077
77.289467 54.034534 -0.92573267
79.249229 52.564957 -0.53232086
80.202698 51.849968 0
80.117973 51.913506 0.56264704
68.572105 60.575798 -0.94174606
69.301353 60.029636 -0.91367483
70.317169 59.268864 -0.87420279
72.44223 57.67733 -0.87920016
77.291351 54.045662 -0.92544466
79.276932 52.558598 -0.53304642
80.222542 51.850395 0
80.129425 51.920132 0.56279206
68.544571 60.60498 -0.93522948
69.265961 60.066071 -0.90675455
70.322876 59.276501 -0.87420279
72.462204 57.678314 -0.88048452
77.319946 54.049347 -0.92659783
79.282425 52.583279 -0.53275639
80.224693 51.879356 0
80.144012 51.939629 0.56279206
68.560555 60.601624 -0.93767202
69.318985 60.036461 -0.91506046
70.340797 59.27504 -0.87588984
72.42868 57.719215 -0.87620562
77.340248 54.059273 -0.92717391
79.275375 52.617275 -0.53203082
80.235161 51.902077 0
80.171082 51.949825 0.56322759
68.620209 60.565845 -0.94908309
69.295578 60.063843 -0.91021466
70.350586 59.279667 -0.87645435
72.456863 57.714092 -0.87834507
77.356415 54.072304 -0.927463
79.309967 52.620243 -0.53275639
80.233055 51.93412 0
80.173111 51.978676 0.56279206
68.536987 60.636204 -0.93115228
69.29631 60.073231 -0.90952319
70.348114 59.293404 -0.87532747
72.472694 57.718208 -0.87920016
77.397476 54.066891 -0.9294802
79.261086 52.685181 -0.53057915
80.251801 51.950645 0
80.20015 51.988941 0.56322759
68.533104 60.647564 -0.92952394
69.317184 60.067699 -0.91229182
70.353798 59.301075 -0.87532747
72.488541 57.722336 -0.88005692
77.40947 54.083088 -0.9294802
79.270569 52.706718 -0.53043419
80.253792 51.97958 0
80.243889 51.9869 0.56424314
68.541122 60.650112 -0.93033814
69.281548 60.10392 -0.90536886
70.367661 59.302719 -0.87645435
72.467194 57.753937 -0.87706077
77.454742 54.07473 -0.93178654
79.242393 52.75602 -0.52898306
80.297623 51.977596 0
80.304398 51.972599 0.56583983
68.616829 60.602871 -0.94500595
69.322617 60.083542 -0.91159767
70.365135 59.316444 -0.87532747
72.482994 57.758091 -0.87791586
77.470901 54.087921 -0.93207568
79.188995 52.823727 -0.5266608
80.375015 51.951035 0
80.327286 51.986153 0.56612986
68.620934 60.608452 -0.94500595
69.286903 60.119659 -0.90467739
70.370789 59.324139 -0.87532747
72.486397 57.771381 -0.87748832
77.474525 54.110332 -0.93149853
79.135452 52.891289 -0.5243386
80.511246 51.881519 0
80.278961 52.05201 0.56395316
68.501389 60.704552 -0.91974437
69.291588 60.126049 -0.90467739
70.376434 59.331841 -0.87532747
72.502213 57.77557 -0.87834507
77.486465 54.126621 -0.93149853
79.123711 52.927998 -0.52346802
80.563667 51.87381 0
80.255646 52.099312 0.56264704
68.597191 60.642941 -0.93848932
69.340843 60.099895 -0.91229182
70.382072 59.33955 -0.87532747
72.501427 57.791908 -0.87748832
77.502556 54.139877 -0.93178654
79.111893 52.964676 -0.5225969
80.498459 51.952148 0
80.236443 52.143482 0.56148595
68.565277 60.674698 -0.93115228
69.32933 60.118168 -0.90952319
70.379486 59.353241 -0.87420279
72.513069 57.799164 -0.87791586
77.518654 54.153145 -0.93207568
79.121017 52.986 -0.52245194
80.382584 52.067081 0
80.242348 52.169235 0.56119537
68.633339 60.642227 -0.94337755
69.318367 60.14579 -0.9060604
70.378349 59.377621 -0.87251359
72.519722 57.825775 -0.87706077
77.550781 54.179775 -0.9326517
79.134964 53.031723 -0.52201635
80.33551 52.16169 0
80.24144 52.229858 0.56017983
68.549263 60.711533 -0.92544991
69.335228 60.143394 -0.9081375
70.400406 59.373425 -0.87476516
72.539658 57.827049 -0.87834507
77.566826 54.19313 -0.93293971
79.139786 53.056103 -0.52172637
80.337158 52.190575 0
80.272499 52.237312 0.56076038
68.597328 60.685238 -0.93441218
69.331749 60.155708 -0.90675455
70.401871 59.384129 -0.87420279
72.542938 57.840382 -0.87791586
77.587067 54.203472 -0.93351686
79.165649 53.065285 -0.5221619
80.338745 52.21946 0
80.274048 52.266106 0.56032479
68.599335 60.688019 -0.93441218
69.346275 60.150143 -0.90882903
70.396408 59.393944 -0.87307596
72.550835 57.842537 -0.87834507
77.576187 54.223774 -0.93236369
79.168022 53.077492 -0.52201635
80.358536 52.220207 0
80.281136 52.27594 0.56032479
68.579247 60.710873 -0.92952394
69.338707 60.165379 -0.90675455
70.410233 59.395741 -0.87420279
72.549919 57.858868 -0.87748832
77.59639 54.234158 -0.93293971
79.168564 53.104916 -0.52158135
80.360069 52.249092 0
80.299507 52.292591 0.56046981
68.619385 60.690502 -0.93685782
69.343338 60.171833 -0.90675455
70.399261 59.415329 -0.87195122
72.54483 57.878166 -0.87620562
77.587158 54.265652 -0.93149853
79.177475 53.126286 -0.5214358
80.374252 52.268871 0
80.313644 52.312294 0.56046981
68.615341 60.701828 -0.93522948
69.3153 60.20163 -0.90121722
70.396523 59.428978 -0.8708244
72.581444 57.867607 -0.87920016
77.594704 54.28508 -0.93121052
79.228653 53.117443 -0.52274191
80.37571 52.297745 0
80.315063 52.341084 0.56003428
68.655548 60.681587 -0.94256335
69.356659 60.181847 -0.90744603
70.42688 59.419006 -0.87420279
72.567947 57.892879 -0.87706077
77.60643 54.301514 -0.93121052
79.207954 53.159973 -0.52158135
80.398323 52.311493 0
80.320686 52.366833 0.55974424
68.667603 60.681492 -0.94419175
69.381706 60.173786 -0.9109062
70.424118 59.432671 -0.87307596
72.566963 57.90918 -0.87620562
77.605484 54.326958 -0.93034536
79.246445 53.160294 -0.52245194
80.386971 52.349419 0
80.334732 52.386559 0.55974424
68.611137 60.730019 -0.93196964
69.402695 60.168682 -0.91367483
70.44207 59.431614 -0.87476516
72.603615 57.898758 -0.87920016
77.608734 54.349384 -0.92976934
79.234108 53.196754 -0.52158135
80.418022 52.357182 0
80.348747 52.406307 0.55974424
68.590866 60.752724 -0.92707825
69.366371 60.204185 -0.90675455
70.410248 59.465809 -0.86969972
72.581657 57.929901 -0.87620562
77.603493 54.377785 -0.92861617
79.242889 53.218178 -0.5214358
80.427834 52.380032 0
80.354271 52.432064 0.55945426
68.623062 60.738323 -0.93278378
69.350456 60.225132 -0.90329438
70.436485 59.458916 -0.87251359
72.588982 57.940277 -0.87620562
77.623558 54.388268 -0.92919219
79.26017 53.233601 -0.52158135
80.441864 52.399891 0
80.359734 52.457832 0.55916369
68.63913 60.735374 -0.93522948
69.412453 60.191177 -0.9129833
70.437813 59.469616 -0.87195122
72.613075 57.93885 -0.87791586
77.660553 54.386871 -0.93092251
79.260414 53.261024 -0.52114582
80.455864 52.419765 0
80.369423 52.480598 0.55901867
68.594521 60.775063 -0.92544991
69.371872 60.229431 -0.90536886
70.459923 59.465721 -0.87420279
72.620392 57.949261 -0.87791586
77.659447 54.4123 -0.93005735
79.277626 53.276489 -0.52129078
80.465591 52.442646 0
80.379082 52.503365 0.55887371
68.687492 60.71825 -0.94337755
69.376419 60.235928 -0.90536886
70.452904 59.482277 -0.87251359
72.606674 57.974403 -0.87577647
77.671021 54.428814 -0.93005735
79.286316 53.297932 -0.52114582
80.48806 52.456585 0
80.405716 52.514233 0.55930871
68.614449 60.777695 -0.92789245
69.389206 60.236675 -0.90675455
70.454193 59.492981 -0.87195122
72.605537 57.990681 -0.87492132
77.695305 54.436451 -0.93092251
79.303497 53.313438 -0.52129078
80.489204 52.485447 0
80.398285 52.548939 0.55858314
68.589958 60.80304 -0.92219001
69.397858 60.240322 -0.90744603
70.476311 59.489166 -0.87420279
72.63385 57.986412 -0.87706077
77.689873 54.464832 -0.92976934
79.295082 53.346786 -0.52056521
80.503105 52.505379 0
80.403587 52.574696 0.55829316
68.666878 60.757828 -0.93685782
69.410629 60.241127 -0.90882903
70.448372 59.520191 -0.86969972
72.641113 57.996849 -0.87706077
77.714119 54.472534 -0.93063337
79.312202 53.362312 -0.52071023
80.512695 52.528305 0
80.404572 52.603424 0.55785757
68.731743 60.721233 -0.94908309
69.382195 60.270519 -0.90329438
70.474663 59.513515 -0.87251359
72.661026 57.99852 -0.87834507
77.712875 54.497944 -0.92976934
79.303696 53.395618 -0.51998466
80.53511 52.542332 0
80.4226 52.620296 0.55800259
68.719437 60.738197 -0.94582325
69.423836 60.251354 -0.90952319
70.48008 59.521343 -0.87251359
72.642921 58.026508 -0.87577647
77.7286 54.511581 -0.93005735
79.312225 53.417068 -0.5198397
80.540375 52.568245 0
80.440613 52.637196 0.55814761
68.550552 60.858982 -0.91159624
69.405441 60.26889 -0.9060604
70.499512 59.51371 -0.87476516
72.65921 58.02298 -0.87706077
77.708778 54.537514 -0.92832708
79.335724 53.414513 -0.52042025
80.560135 52.569366 0
80.430359 52.658939 0.557567
68.595055 60.836456 -0.91974437
69.393433 60.286797 -0.90329438
70.504929 59.521568 -0.87476516
72.666428 58.033447 -0.87706077
77.703156 54.565819 -0.92717391
79.327103 53.447784 -0.51969469
80.561066 52.598244 0
80.444054 52.678802 0.557567
68.602943 60.839214 -0.92055851
69.397919 60.293316 -0.90329438
70.485207 59.546684 -0.87138891
72.67363 58.043922 -0.87706077
77.69751 54.594086 -0.92602181
79.344124 53.463371 -0.5198397
80.566254 52.624149 0
80.453445 52.701618 0.55742204
68.667938 60.802876 -0.93278378
69.40239 60.299839 -0.90329438
70.498962 59.54879 -0.87251359
72.680817 58.054409 -0.87706077
77.696053 54.619415 -0.92515665
79.339691 53.493668 -0.51925915
80.575699 52.647114 0
80.454216 52.73032 0.55698645
68.679955 60.802948 -0.93441218
69.40686 60.30637 -0.90329438
70.504333 59.556644 -0.87251359
72.687996 58.064903 -0.87706077
77.7202 54.627213 -0.92602181
79.369537 53.500484 -0.5198397
80.593697 52.664215 0
80.467819 52.75021 0.55698645
68.708328 60.791901 -0.93930352
69.407158 60.315739 -0.90260023
70.513893 59.561646 -0.87307596
72.686684 58.081181 -0.87620562
77.727226 54.646721 -0.92573267
79.35215 53.539551 -0.51882356
80.603088 52.687202 0
80.472824 52.775963 0.55669647
68.622261 60.858711 -0.92137587
69.45311 60.294067 -0.90952319
70.498238 59.583801 -0.87026203
72.698074 58.088799 -0.87663323
77.734238 54.666218 -0.92544466
79.377678 53.549343 -0.51925915
80.608124 52.713131 0
80.486374 52.795876 0.55669647
68.66288 60.83934 -0.92870975
69.407745 60.334442 -0.90121722
70.528816 59.574543 -0.87364042
72.692451 58.107956 -0.87534887
77.71553 54.70314 -0.92342639
79.398888 53.562103 -0.51954913
80.604515 52.744888 0
80.499893 52.815804 0.55669647
68.740402 60.795147 -0.94337755
69.449577 60.315689 -0.90744603
70.534164 59.582436 -0.87364042
72.69957 58.118462 -0.87534887
77.731049 54.716816 -0.92371547
79.394272 53.592361 -0.51896858
80.6138 52.767872 0
80.5177 52.83284 0.55684149
68.678696 60.845097 -0.93033814
69.462341 60.316673 -0.90882903
70.518417 59.604546 -0.8708244
72.723694 58.117496 -0.87706077
77.716515 54.750771 -0.92198515
79.419762 53.602249 -0.51940411
80.618713 52.793777 0
80.509644 52.867332 0.55611593
68.670189 60.859032 -0.92789245
69.433495 60.345665 -0.90329438
70.532166 59.60675 -0.87195122
72.713753 58.139503 -0.87534887
77.731972 54.764465 -0.92227322
79.41507 53.632492 -0.51882356
80.636581 52.810955 0
80.52739 52.884392 0.55626088
68.637039 60.889458 -0.92055851
69.437904 60.352234 -0.90329438
70.533249 59.617474 -0.87138891
72.72509 58.147179 -0.87577647
77.747429 54.778175 -0.9225623
79.453484 53.633751 -0.51969469
80.632797 52.842663 0
80.562378 52.889896 0.55698645
68.780479 60.801609 -0.94826579
69.442307 60.358807 -0.90329438
70.538544 59.62537 -0.87138891
72.732155 58.157726 -0.87577647
77.775757 54.783287 -0.92371547
79.457352 53.658215 -0.51940411
80.650589 52.859879 0
80.549889 52.92725 0.55611593
68.656883 60.892437 -0.92300421
69.450874 60.362602 -0.90398586
70.531136 59.641739 -0.86969972
72.72641 58.176823 -0.87449378
77.765358 54.814304 -0.92227322
79.465515 53.679779 -0.51925915
80.668358 52.877117 0
80.558937 52.950138 0.55597091
68.722366 60.856979 -0.93522948
69.459442 60.366417 -0.90467739
70.553322 59.638371 -0.87195122
72.763344 58.167469 -0.87748832
77.793671 54.819481 -0.92342639
79.4823 53.695599 -0.51940411
80.664459 52.908802 0
80.572273 52.970154 0.55597091
68.668495 60.90097 -0.92381841
69.451279 60.381344 -0.90260023
70.55011 59.65192 -0.8708244
72.753273 58.189419 -0.87577647
77.809082 54.833282 -0.92371547
79.494736 53.714314 -0.51940411
80.69519 52.917431 0
80.58992 52.987316 0.55611593
68.676369 60.903877 -0.92463571
69.45565 60.387932 -0.90260023
70.568077 59.651417 -0.87251359
72.760292 58.200001 -0.87577647
77.837402 54.838554 -0.92486864
79.494156 53.741653 -0.51896858
80.691208 52.949104 0
80.598877 53.010235 0.55597091
68.711212 60.884899 -0.93115228
69.462029 60.388454 -0.90329438
70.557983 59.663799 -0.8708244
72.750954 58.213779 -0.87449378
77.842934 54.846916 -0.92486864
79.48735 53.759605 -0.51853359
80.676178 52.973545 0
80.59684 53.026005 0.55568033
68.714973 60.890594 -0.93115228
69.529205 60.35363 -0.91367483
70.580185 59.660534 -0.87307596
72.753647 58.227192 -0.87406456
77.858292 54.860802 -0.92515665
79.512718 53.769753 -0.51896858
80.70253 52.985104 0
80.614441 53.043198 0.55582589
68.7146 60.89901 -0.93033814
69.453972 60.412693 -0.90052575
70.581177 59.67128 -0.87251359
72.773483 58.229309 -0.87534887
77.860672 54.883247 -0.9245795
79.520729 53.791359 -0.51882356
80.720169 53.002434 0
80.636337 53.057571 0.55611593
68.755539 60.880306 -0.93767202
69.475082 60.408276 -0.90329438
70.582161 59.682018 -0.87195122
72.780449 58.239914 -0.87534887
77.867363 54.902836 -0.92429149
79.533058 53.81012 -0.51882356
80.733444 53.022644 0
80.632172 53.089085 0.55553538
68.763451 60.883343 -0.93848932
69.479416 60.414894 -0.90329438
70.591621 59.687195 -0.87251359
72.791695 58.247719 -0.87577647
77.899979 54.905441 -0.92573267
79.549698 53.82605 -0.51896858
80.746696 53.042873 0
80.654045 53.103493 0.55582589
68.804466 60.864788 -0.94582325
69.45433 60.440716 -0.89844859
70.579803 59.706272 -0.87026203
72.785751 58.266754 -0.87449378
77.884979 54.939198 -0.92400348
79.548935 53.853359 -0.51853359
80.759926 53.063118 0
80.662834 53.126472 0.55568033
68.712959 60.932617 -0.92707825
69.504868 60.41721 -0.9060604
70.602028 59.703136 -0.87251359
72.796974 58.274578 -0.87492132
77.895912 54.955982 -0.92400348
79.552467 53.877831 -0.51824301
80.75132 53.097569 0
80.671616 53.149448 0.55553538
68.637894 60.989445 -0.91159624
69.483955 60.44025 -0.90190876
70.590164 59.722183 -0.87026203
72.808189 58.282417 -0.87534887
77.911163 54.969963 -0.92429149
79.542892 53.910774 -0.51751745
80.768845 53.114986 0
80.684708 53.169601 0.55553538
68.741104 60.930588 -0.93115228
69.505096 60.43597 -0.90467739
70.612389 59.719105 -0.87251359
72.828026 58.284691 -0.87663323
77.922066 54.986782 -0.92429149
79.559433 53.926743 -0.51766247
80.799461 53.12394 0
80.697784 53.189766 0.55553538
68.719894 60.9524 -0.92626411
69.522049 60.434456 -0.90675455
70.617554 59.727097 -0.87251359
72.813362 58.309284 -0.87449378
77.94165 54.997993 -0.92486864
79.55851 53.953999 -0.51722747
80.799469 53.152721 0
80.710831 53.209953 0.55553538
68.781754 60.920643 -0.93767202
69.505264 60.454712 -0.90329438
70.609894 59.743355 -0.8708244
72.811592 58.325504 -0.87363702
77.948151 55.017654 -0.9245795
79.566254 53.975624 -0.51708192
80.795059 53.184299 0
80.710747 53.238594 0.55509979
68.756371 60.945114 -0.93196964
69.50531 60.464088 -0.90260023
70.623596 59.745846 -0.87195122
72.831406 58.327827 -0.87492132
77.963364 55.031708 -0.92486864
79.578354 53.994442 -0.51708192
80.838776 53.18491 0
80.72374 53.258797 0.55509979
68.760056 60.950863 -0.93196964
69.522263 60.46262 -0.90467739
70.603043 59.770302 -0.86857283
72.842567 58.335735 -0.87534887
77.948044 55.065334 -0.92313832
79.603569 54.00486 -0.51751745
80.821144 53.224918 0
80.73233 53.281811 0.55495477
68.751236 60.964603 -0.92952394
69.518082 60.474693 -0.90329438
70.63385 59.761864 -0.87195122
72.845085 58.349186 -0.87492132
77.954475 55.084976 -0.92285031
79.628777 54.015327 -0.51795304
80.825394 53.250851 0
80.74527 53.302036 0.55495477
68.700706 61.004875 -0.91893017
69.539246 60.470589 -0.9060604
70.617546 59.783535 -0.86913735
72.834587 58.370914 -0.87320948
77.973953 55.096291 -0.92342639
79.645203 54.031425 -0.518098
80.847137 53.265602 0
80.753807 53.325066 0.55480981
68.821129 60.936333 -0.94174606
69.513878 60.496113 -0.90121722
70.631203 59.786087 -0.87026203
72.854385 58.373329 -0.87449378
77.989082 55.110401 -0.92371547
79.679169 54.036407 -0.51882356
80.855705 53.288754 0
80.771072 53.342533 0.55495477
68.839668 60.92865 -0.94500595
69.52446 60.494072 -0.90260023
70.612297 59.803707 -0.86744815
72.844772 58.386936 -0.87320948
77.972595 55.132721 -0.92227322
79.672012 54.054237 -0.51838803
80.853394 53.304512 0
80.777512 53.352669 0.55495477
68.793274 60.966217 -0.93522948
69.549881 60.487335 -0.9060604
70.625946 59.806271 -0.86857283
72.855881 58.394882 -0.87363702
78.009537 55.133003 -0.92400348
79.675247 54.078735 -0.518098
80.875092 53.319321 0
80.781586 53.378502 0.55466479
68.847076 60.940357 -0.94500595
69.566856 60.486008 -0.9081375
70.648193 59.803429 -0.8708244
72.862648 58.405586 -0.87363702
78.011482 55.155468 -0.92342639
79.696007 54.09214 -0.51838803
80.865982 53.353607 0
80.794411 53.398788 0.55466479
68.854965 60.943573 -0.94582325
69.541389 60.51144 -0.90329438
70.636063 59.822292 -0.86857283
72.860725 58.421768 -0.87278193
78.013412 55.17791 -0.92285031
79.699181 54.116642 -0.518098
80.892052 53.365673 0
80.794006 53.427395 0.55422926
68.774925 61.002014 -0.92952394
69.524338 60.531487 -0.89983159
70.662636 59.816795 -0.87138891
72.876144 58.427021 -0.87363702
78.041588 55.183846 -0.92400348
79.702301 54.141151 -0.51780742
80.904892 53.386093 0
80.802376 53.450455 0.55408424
68.795303 60.997292 -0.93278378
69.566795 60.514202 -0.9060604
70.659065 59.83025 -0.87026203
72.865463 58.44865 -0.87192518
78.052231 55.200821 -0.92400348
79.709801 54.162888 -0.51766247
80.917702 53.406525 0
80.823914 53.465256 0.55437422
68.798927 61.003086 -0.93278378
69.541222 60.539528 -0.90121722
70.664093 59.838299 -0.87026203
72.876518 58.45665 -0.87235272
78.062851 55.217804 -0.92400348
79.730499 54.176369 -0.51795304
80.921654 53.432495 0
80.82782 53.491093 0.55408424
68.798355 61.011497 -0.93196964
69.579475 60.525005 -0.90675455
70.677757 59.840977 -0.87138891
72.900642 58.45652 -0.87406456
78.091019 55.223866 -0.92515665
79.733521 54.200882 -0.51766247
80.92115 53.461208 0
80.840508 53.511433 0.55408424
68.785172 61.027733 -0.92870975
69.541039 60.558228 -0.89983159
70.678444 59.851738 -0.8708244
72.898621 58.472694 -0.87320948
78.097221 55.243626 -0.92486864
79.732124 54.228119 -0.51722747
80.938309 53.478905 0
80.848755 53.534531 0.55393922
68.860191 60.989265 -0.94256335
69.52813 60.575497 -0.89706296
70.696419 59.851776 -0.87251359
72.918388 58.475334 -0.87449378
78.103378 55.263397 -0.9245795
79.743919 54.247131 -0.51722747
80.946564 53.502129 0
80.861389 53.554893 0.55393922
68.770653 61.060661 -0.92381841
69.557762 60.575699 -0.90052575
70.697777 59.873299 -0.87138891
72.922966 58.502296 -0.87363702
78.120049 55.300217 -0.92429149
79.745308 54.298847 -0.51650131
80.963036 53.548569 0
80.891006 53.592949 0.55408424
68.854225 61.017254 -0.93930352
69.574707 60.574543 -0.90260023
70.694092 59.886719 -0.87026203
72.933968 58.510395 -0.87406456
78.134956 55.314579 -0.9245795
79.743744 54.326035 -0.51606631
80.98008 53.566353 0
80.903564 53.613365 0.55408424
68.798813 61.059284 -0.92789245
69.58313 60.578651 -0.90329438
70.690399 59.900116 -0.86913735
72.931854 58.526554 -0.87320948
78.136627 55.337063 -0.92400348
79.746552 54.350502 -0.5157758
80.988243 53.589592 0
80.902809 53.641945 0.55364865
68.857208 61.031567 -0.93848932
69.625793 60.561855 -0.90952319
70.691002 59.910862 -0.86857283
72.912163 58.553421 -0.87064087
78.169151 55.340668 -0.92544466
79.758202 54.369534 -0.5157758
80.996368 53.612839 0
80.924187 53.656952 0.55393922
68.831238 61.05545 -0.93278378
69.599945 60.586937 -0.90467739
70.70462 59.913654 -0.86969972
72.945053 58.548157 -0.87320948
78.157516 55.371254 -0.92400348
79.760956 54.393986 -0.51548576
81.000015 53.638805 0
80.936676 53.67741 0.55393922
68.724976 61.12804 -0.91159624
69.591202 60.601524 -0.90260023
70.696526 59.92968 -0.86801052
72.934082 58.569633 -0.87149757
78.163521 55.391048 -0.92371547
79.781425 54.407642 -0.5157758
81.021423 53.653942 0
80.935806 53.705982 0.55350369
68.832344 61.066772 -0.93196964
69.597549 60.602295 -0.90329438
70.716362 59.92318 -0.87026203
72.94175 58.572372 -0.87192518
78.151031 55.410343 -0.9225623
79.796112 54.411781 -0.51606631
81.018761 53.669636 0
80.942024 53.716217 0.55350369
68.831642 61.075184 -0.93115228
69.623108 60.596069 -0.90675455
70.712593 59.936558 -0.86913735
72.948296 58.583179 -0.87192518
78.1614 55.427448 -0.9225623
79.789902 54.441639 -0.51548576
81.031235 53.690205 0
80.958878 53.734009 0.55364865
68.801338 61.101452 -0.92463571
69.60144 60.618431 -0.90260023
70.717499 59.944672 -0.86913735
72.959229 58.591347 -0.87235272
78.171745 55.444565 -0.9225623
79.814774 54.452675 -0.51592076
81.03923 53.713478 0
80.957916 53.762566 0.55321312
68.834465 61.089413 -0.93033814
69.609833 60.622604 -0.90329438
70.731094 59.947552 -0.87026203
72.95697 58.607468 -0.87149757
78.177628 55.464371 -0.92227322
79.804047 54.485191 -0.51519519
81.051643 53.734077 0
80.96138 53.788422 0.55292314
68.901558 61.057087 -0.94256335
69.609596 60.631977 -0.90260023
70.744705 59.950451 -0.87138891
72.972275 58.613014 -0.87235272
78.187935 55.48151 -0.92227322
79.815529 54.504295 -0.51519519
81.068497 53.75201 0
80.969254 53.811592 0.55277812
68.777885 61.139191 -0.91811597
69.617981 60.636173 -0.90329438
70.727783 59.971664 -0.86857283
73.000809 58.610664 -0.87449378
78.176025 55.511944 -0.92083198
79.809158 54.534088 -0.51461464
81.080864 53.772644 0
80.981552 53.832108 0.55277812
68.840744 61.109489 -0.92952394
69.643578 60.630104 -0.90675455
70.737022 59.977184 -0.86913735
72.985268 58.634712 -0.87235272
78.172966 55.537025 -0.91996795
79.856277 54.531883 -0.5157758
81.075333 53.803963 0
80.993828 53.852631 0.55277812
68.878212 61.095108 -0.93604368
69.656258 60.631798 -0.9081375
70.741875 59.985329 -0.86913735
72.996162 58.642937 -0.87278193
78.165398 55.564747 -0.91881478
79.827522 54.574978 -0.51446968
81.078705 53.829922 0
81.001595 53.875839 0.55263257
68.868965 61.108578 -0.93359798
69.651703 60.643753 -0.90675455
70.768562 59.980507 -0.87195122
73.007042 58.651192 -0.87320948
78.193375 55.571304 -0.91996795
79.847832 54.588806 -0.51475966
81.104408 53.84259 0
81.018295 53.89373 0.55277812
68.81292 61.149723 -0.92219001
69.677338 60.637802 -0.91021466
70.760292 59.99646 -0.87026203
73.004654 58.667316 -0.87235272
78.185745 55.599003 -0.91881478
79.872612 54.600018 -0.51519519
81.107704 53.868576 0
81.030495 53.914299 0.55277812
68.948288 61.077621 -0.94745159
69.633865 60.672733 -0.90260023
70.760757 60.00721 -0.86969972
72.993408 58.688644 -0.87064087
78.200333 55.613522 -0.91910279
79.879486 54.621841 -0.51505023
81.115456 53.891899 0
81.047142 53.932243 0.55292314
68.921997 61.101166 -0.94174606
69.681122 60.654076 -0.90952319
70.756813 60.020546 -0.86857283
73.008675 58.694298 -0.87149757
78.20153 55.635941 -0.91852564
79.88633 54.643673 -0.51490521
81.132141 53.909946 0
81.045853 53.960766 0.55248755
68.865829 61.142159 -0.93033814
69.637566 60.688896 -0.90190876
70.748482 60.036427 -0.86688584
73.019501 58.702591 -0.87192518
78.207176 55.655724 -0.91823763
79.884178 54.670773 -0.51446968
81.135353 53.935921 0
81.075897 53.97084 0.5530681
68.88208 61.140541 -0.93278378
69.680527 60.67289 -0.9081375
70.753265 60.044582 -0.86688584
73.030319 58.710899 -0.87235272
78.217247 55.672897 -0.91823763
79.881981 54.697853 -0.51403409
81.160965 53.94875 0
81.052132 54.012493 0.551907
68.894066 61.141464 -0.93441218
69.654228 60.697464 -0.90329438
70.810699 60.021992 -0.87364042
73.036705 58.721817 -0.87235272
78.218369 55.695297 -0.91766161
79.884247 54.72229 -0.51374412
81.177597 53.966862 0
81.073166 54.027855 0.55219758
68.765114 61.224499 -0.9091506
69.645203 60.711876 -0.90121722
70.784752 60.04813 -0.86969972
73.029785 58.740482 -0.87107003
78.232864 55.709881 -0.91794962
79.90892 54.733639 -0.51417965
81.18071 53.992867 0
81.085205 54.048492 0.55219758
68.852249 61.17767 -0.92544991
69.72525 60.669884 -0.91367483
70.80471 60.042007 -0.87195122
73.037392 58.743362 -0.87149757
78.251289 55.710674 -0.91881478
79.914513 54.743252 -0.51417965
81.173248 54.011105 0
81.100189 54.053596 0.55248755
68.906967 61.15377 -0.93522948
69.651154 60.722115 -0.90121722
70.791908 60.060432 -0.86969972
73.043739 58.754284 -0.87149757
78.247864 55.735691 -0.91794962
79.903198 54.775536 -0.51345354
81.189819 54.029243 0
81.10321 54.079475 0.55219758
68.914673 61.15723 -0.93604368
69.70723 60.698799 -0.90952319
70.801056 60.066101 -0.87026203
73.054504 58.76265 -0.87192518
78.266785 55.747738 -0.91852564
79.91433 54.794754 -0.51345354
81.197334 54.052635 0
81.119682 54.097549 0.55234253
68.88813 61.180462 -0.93033814
69.672096 60.728256 -0.90329438
70.810204 60.071785 -0.8708244
73.056389 58.776154 -0.87149757
78.276749 55.76498 -0.91852564
79.93895 54.806198 -0.51388913
81.200333 54.078617 0
81.12262 54.123444 0.55205202
68.912949 61.174049 -0.93441218
69.671684 60.737621 -0.90260023
70.823761 60.074944 -0.87195122
73.062691 58.787102 -0.87149757
78.295662 55.777077 -0.91910279
79.959068 54.820278 -0.51417965
81.239372 54.083839 0
81.121048 54.151905 0.55161703
68.834908 61.226711 -0.91893017
69.675621 60.744476 -0.90260023
70.828499 60.083191 -0.87195122
73.073433 58.795502 -0.87192518
78.296608 55.799507 -0.91852564
79.934082 54.860252 -0.51301855
81.242325 54.109852 0
81.132935 54.1726 0.55161703
68.872581 61.212921 -0.92544991
69.683922 60.74884 -0.90329438
70.824394 60.096497 -0.8708244
73.066345 58.814121 -0.87064087
78.319977 55.809082 -0.9193908
79.963158 54.869194 -0.5135991
81.254257 54.130695 0
81.135765 54.198471 0.55132645
68.871651 61.221256 -0.92463571
69.722694 60.735832 -0.90882903
70.807045 60.117332 -0.86801052
73.09491 58.812355 -0.87278193
78.316383 55.83408 -0.91852564
79.938065 54.909088 -0.512438
81.261658 54.154125 0
81.147591 54.219185 0.55132645
68.948051 61.1856 -0.93848932
69.691765 60.762585 -0.90329438
70.824982 60.118019 -0.86969972
73.087784 58.830963 -0.87149757
78.321747 55.853939 -0.91823763
79.944511 54.930927 -0.51229244
81.264481 54.180141 0
81.159401 54.239914 0.55132645
68.929932 61.203781 -0.93441218
69.734947 60.747189 -0.90952319
70.842934 60.118744 -0.87138891
73.094025 58.841949 -0.87149757
78.322586 55.87635 -0.91766161
79.950943 54.952763 -0.51214743
81.280853 54.198444 0
81.171181 54.260654 0.55132645
68.834358 61.265709 -0.91567034
69.686462 60.78376 -0.90121722
70.860878 60.119518 -0.87307596
73.086838 58.860527 -0.87021327
78.32338 55.898758 -0.91708446
79.957344 54.974598 -0.51200241
81.279106 54.227013 0
81.187469 54.278843 0.55147201
68.902229 61.23513 -0.92789245
69.725311 60.770916 -0.90675455
70.847855 60.137798 -0.8708244
73.097504 58.868988 -0.87064087
78.337662 55.913536 -0.91737252
79.981819 54.986225 -0.512438
81.295433 54.245346 0
81.203728 54.297066 0.55161703
68.948662 61.21682 -0.93604368
69.694221 60.797512 -0.90121722
70.843666 60.151051 -0.86969972
73.112656 58.874947 -0.87149757
78.333908 55.938465 -0.91650844
79.992699 55.005543 -0.512438
81.298126 54.271355 0
81.210915 54.320404 0.55147201
68.861488 61.273579 -0.91893017
69.71122 60.797031 -0.90329438
70.852737 60.156841 -0.87026203
73.123322 58.883453 -0.87192518
78.343636 55.955791 -0.91650844
80.026215 55.012165 -0.51316357
81.309868 54.292267 0
81.227127 54.338669 0.55161703
68.955376 61.228786 -0.93604368
69.71508 60.803932 -0.90329438
70.861809 60.162643 -0.8708244
73.125015 58.896984 -0.87149757
78.366875 55.965561 -0.91737252
80.046127 55.026466 -0.51345354
81.330681 54.308102 0
81.25238 54.351891 0.55205202
68.829208 61.306999 -0.91159624
69.745224 60.796185 -0.90744603
70.857574 60.175884 -0.86969972
73.13118 58.908012 -0.87149757
78.363037 55.990479 -0.91650844
80.106888 55.018021 -0.51505023
81.333275 54.334126 0
81.245888 54.382858 0.55147201
68.953407 61.245579 -0.93441218
69.705246 60.827507 -0.90052575
70.86219 60.184174 -0.86969972
73.128342 58.924046 -0.87064087
78.363647 56.012871 -0.91593128
80.104103 55.045067 -0.51461464
81.331314 54.362656 0
81.266571 54.398659 0.55176198
68.96804 61.241371 -0.93685782
69.707169 60.830956 -0.90052575
70.877823 60.180916 -0.87138891
73.144875 58.922081 -0.87192518
78.38205 56.014015 -0.91679645
80.118607 55.049747 -0.51490521
81.350769 54.365555 0
81.258736 54.41666 0.55132645
68.902176 61.28569 -0.92381841
69.768051 60.806259 -0.90952319
70.864655 60.199078 -0.86913735
73.137527 58.940598 -0.87064087
78.391685 56.031395 -0.91679645
80.133949 55.066715 -0.51505023
81.348747 54.394085 0
81.274857 54.434998 0.55147201
68.931427 61.277275 -0.92870975
69.719193 60.842335 -0.90121722
70.887039 60.197548 -0.87138891
73.152626 58.946674 -0.87149757
78.414894 56.04129 -0.91766161
80.13562 55.091244 -0.51475966
81.360344 54.415054 0
81.286407 54.455879 0.55147201
68.90007 61.302307 -0.92219001
69.74498 60.837151 -0.90467739
70.896072 60.203426 -0.87195122
73.149727 58.962696 -0.87064087
78.392776 56.07618 -0.91564327
80.114517 55.128284 -0.51374412
81.376465 54.433533 0
81.284264 54.484291 0.55103642
68.972656 61.270168 -0.93522948
69.761993 60.836849 -0.90675455
70.882835 60.221542 -0.86969972
73.146812 58.978691 -0.86978573
78.397804 56.096062 -0.91535527
80.088783 55.16777 -0.51258302
81.383453 54.457035 0
81.309418 54.497681 0.55147201
68.932587 61.299919 -0.92707825
69.77021 60.841404 -0.90744603
70.874023 60.237183 -0.86801052
73.148376 58.99221 -0.86935818
78.398262 56.118439 -0.91477811
80.07666 55.199692 -0.51185745
81.390411 54.480545 0
81.316315 54.521103 0.55132645
68.918488 61.315353 -0.92381841
69.729988 60.872414 -0.90052575
70.8964 60.235752 -0.87026203
73.176949 58.990971 -0.87149757
78.407776 56.135841 -0.91477811
80.09639 55.214149 -0.51214743
81.415596 54.494091 0
81.314087 54.549496 0.55089146
68.956459 61.302395 -0.93033814
69.835114 60.824181 -0.91644347
70.900948 60.244091 -0.87026203
73.160446 59.014332 -0.86935818
78.421822 56.150776 -0.91506726
80.075058 55.250988 -0.51113188
81.413368 54.522598 0
81.339172 54.562981 0.55132645
68.955376 61.310741 -0.92952394
69.786026 60.859951 -0.9081375
70.887611 60.262127 -0.86801052
73.179993 59.018066 -0.87064087
78.426735 56.170681 -0.91477811
80.071907 55.277855 -0.51069629
81.429375 54.541164 0
81.350563 54.583939 0.55132645
68.962967 61.314381 -0.93033814
69.794228 60.864559 -0.90882903
70.923416 60.253521 -0.87195122
73.190529 59.026711 -0.87107003
78.422554 56.195499 -0.91391408
80.077866 55.299751 -0.51055133
81.440796 54.562233 0
81.357361 54.60738 0.55118144
68.979263 61.313335 -0.93278378
69.793602 60.873943 -0.9081375
70.905579 60.273952 -0.86913735
73.20105 59.035385 -0.87149757
78.422859 56.21785 -0.91333693
80.088371 55.319187 -0.51055133
81.452179 54.583313 0
81.345833 54.640694 0.55045587
68.930267 61.347458 -0.92300421
69.784111 60.888081 -0.9060604
70.927979 60.272667 -0.87138891
73.220612 59.039204 -0.87278193
78.418579 56.242638 -0.91247183
80.071381 55.353409 -0.50968021
81.47271 54.59948 0
81.370865 54.654274 0.55089146
68.929115 61.355751 -0.92219001
69.756927 60.911667 -0.90121722
70.919037 60.28825 -0.86969972
73.217537 59.05521 -0.87192518
78.423386 56.262508 -0.91218376
80.058922 55.385117 -0.50895464
81.474884 54.625515 0
81.372978 54.680187 0.55060089
69.019485 61.315079 -0.93848932
69.787193 60.90443 -0.90536886
70.927994 60.29422 -0.87026203
73.218987 59.068771 -0.87149757
78.419037 56.287262 -0.91131866
80.087646 55.394722 -0.50953519
81.472427 54.654007 0
81.393402 54.696278 0.55089146
68.979103 61.344414 -0.93033814
69.773224 60.920872 -0.90260023
70.905571 60.316936 -0.86688584
73.233986 59.075085 -0.87235272
78.41011 56.314419 -0.91016656
80.088875 55.419052 -0.50924522
81.483711 54.675125 0
81.404633 54.7173 0.55089146
68.986664 61.348114 -0.93115228
69.821251 60.904285 -0.90952319
70.936928 60.31097 -0.87026203
73.230873 59.091064 -0.87149757
78.419388 56.331837 -0.91016656
80.099228 55.438499 -0.50924522
81.504166 54.691364 0
81.406647 54.743225 0.55060089
68.963669 61.368031 -0.92626411
69.802811 60.92308 -0.9060604
70.932411 60.324112 -0.86913735
73.236801 59.102219 -0.87149757
78.428635 56.349266 -0.91016656
80.100372 55.462833 -0.50895464
81.501602 54.719837 0
81.408646 54.769127 0.55031091
68.978371 61.36409 -0.92870975
69.81797 60.91954 -0.9081375
70.939117 60.325928 -0.86969972
73.239754 59.1078 -0.87149757
78.41954 56.365246 -0.9093014
80.087158 55.482288 -0.50837409
81.511795 54.727982 0
81.423393 54.774788 0.55060089
69.012138 61.353958 -0.93441218
69.839439 60.917206 -0.9109062
70.979507 60.315334 -0.87420279
73.227501 59.128555 -0.86978573
78.415024 56.389923 -0.90843624
80.092842 55.504158 -0.50822908
81.532204 54.744282 0
81.420738 54.803127 0.55016536
69.006592 61.364616 -0.93278378
69.816528 60.938282 -0.90675455
70.970459 60.330872 -0.87251359
73.247009 59.132534 -0.87107003
78.405899 56.416985 -0.90728307
80.116898 55.516346 -0.50866467
81.534157 54.770325 0
81.431839 54.824184 0.55016536
69.106056 61.320133 -0.95071149
69.84243 60.933655 -0.91021466
71.006386 60.322765 -0.87645435
73.248329 59.146103 -0.87064087
78.401306 56.441612 -0.90641797
80.108734 55.545486 -0.50808406
81.536087 54.796352 0
81.433716 54.850079 0.54987532
69.008575 61.379013 -0.93196964
69.81501 60.957005 -0.90536886
70.979301 60.347729 -0.87251359
73.26329 59.152515 -0.87149757
78.415024 56.456612 -0.90670705
80.105118 55.572186 -0.50764853
81.547195 54.817551 0
81.45858 54.863922 0.55031091
68.981056 61.401073 -0.92626411
69.800888 60.973316 -0.90260023
70.952171 60.37262 -0.86857283
73.264595 59.166084 -0.87107003
78.424133 56.474037 -0.90670705
80.12912 55.584438 -0.50808406
81.567497 54.833946 0
81.45578 54.892235 0.54987532
68.914024 61.443596 -0.91322464
69.791199 60.987267 -0.90052575
70.94754 60.385712 -0.86744815
73.270432 59.177284 -0.87107003
78.433212 56.49147 -0.90670705
80.120834 55.613525 -0.50750351
81.569336 54.859978 0
81.466766 54.913334 0.54987532
68.981667 61.423687 -0.92463571
69.829651 60.985146 -0.90536886
70.996872 60.381504 -0.87251359
73.268372 59.206779 -0.86978573
78.469696 56.516869 -0.90786022
80.136421 55.654903 -0.50735795
81.586731 54.904861 0
81.488678 54.955574 0.54987532
69.033096 61.404793 -0.93359798
69.788704 61.015182 -0.89844859
71.010284 60.3853 -0.87364042
73.283272 59.21328 -0.87064087
78.483322 56.531986 -0.90814823
80.160355 55.667259 -0.50779355
81.602348 54.923729 0
81.499596 54.976711 0.54987532
68.965889 61.447037 -0.92055851
69.859222 60.987774 -0.90882903
70.969444 60.417011 -0.86801052
73.298195 59.219799 -0.87149757
78.519928 56.535305 -0.90987742
80.179665 55.682037 -0.50808406
81.604034 54.949768 0
81.510483 54.997864 0.54987532
69.083328 61.394421 -0.94174606
69.822678 61.01545 -0.90260023
70.97377 60.425434 -0.86801052
73.290253 59.238068 -0.87021327
78.547348 56.543419 -0.91103059
80.203568 55.694489 -0.50851911
81.61496 54.971046 0
81.535225 55.011913 0.55031091
69.095291 61.396061 -0.94337755
69.830765 61.020199 -0.90329438
70.978081 60.433865 -0.86801052
73.305153 59.244617 -0.87107003
78.570175 56.553936 -0.91189575
80.195076 55.723534 -0.5079385
81.621223 54.994701 0
81.522919 55.044937 0.54958475
69.01474 61.444862 -0.92789245
69.834358 61.027245 -0.90329438
70.991447 60.437679 -0.86913735
73.31089 59.255867 -0.87107003
78.565331 56.578594 -0.91103059
80.195816 55.747822 -0.50764853
81.627457 55.01836 0
81.542999 55.061394 0.54987532
69.061905 61.428528 -0.93604368
69.896095 61.004757 -0.91229182
71.03199 60.427715 -0.87364042
73.312027 59.269451 -0.87064087
78.588127 56.589169 -0.91189575
80.219681 55.760334 -0.50808406
81.638298 55.039665 0
81.563049 55.077896 0.55016536
68.937126 61.499416 -0.91241044
69.81913 61.052696 -0.89983159
70.9683 60.470661 -0.86519665
73.326904 59.276062 -0.87149757
78.610916 56.599785 -0.91276091
80.224976 55.782291 -0.5079385
81.658386 55.056286 0
81.573814 55.099125 0.55016536
69.072517 61.438545 -0.93685782
69.840607 61.050682 -0.90260023
71.022461 60.453884 -0.87138891
73.318848 59.294281 -0.87021327
78.61985 56.617447 -0.91276091
80.23954 55.799553 -0.50808406
81.655243 55.084671 0
81.589211 55.118015 0.55031091
69.065239 61.446056 -0.93522948
69.860306 61.045177 -0.90536886
71.033669 60.453556 -0.87251359
73.321693 59.299911 -0.87021327
78.633537 56.621628 -0.91333693
80.239838 55.811714 -0.5079385
81.66993 55.090649 0
81.576012 55.138 0.5497303
69.059479 61.456623 -0.93359798
69.84594 61.061272 -0.90260023
71.024323 60.468906 -0.8708244
73.331947 59.308876 -0.87064087
78.656311 56.632343 -0.91420209
80.254379 55.829002 -0.50808406
81.676033 55.114342 0
81.609917 55.147575 0.55045587
69.053719 61.467163 -0.93196964
69.88089 61.052601 -0.90744603
71.010414 60.486504 -0.86857283
73.337608 59.320152 -0.87064087
78.669823 56.647743 -0.9144901
80.287468 55.837006 -0.50880963
81.68676 55.135704 0
81.597374 55.180504 0.5497303
69.039093 61.482109 -0.92870975
69.915871 61.044006 -0.91229182
71.032837 60.485889 -0.8708244
73.343254 59.33144 -0.87064087
78.683319 56.663162 -0.91477811
80.311264 55.84972 -0.50924522
81.697456 55.157082 0
81.603355 55.204102 0.54958475
69.006729 61.505833 -0.92219001
69.861061 61.080238 -0.90329438
71.005249 60.510246 -0.86688584
73.344299 59.34502 -0.87021327
78.701439 56.676292 -0.91535527
80.321106 55.869438 -0.50924522
81.717438 55.173836 0
81.623283 55.220741 0.54987532
69.107132 61.463516 -0.94011772
69.896027 61.071709 -0.9081375
71.059509 60.493855 -0.87307596
73.349915 59.356316 -0.87021327
78.714905 56.691761 -0.91564327
80.344864 55.882233 -0.50968021
81.714096 55.202198 0
81.638527 55.239731 0.55002034
69.083626 61.482845 -0.93522948
69.84111 61.107777 -0.89914006
71.022758 60.522682 -0.86801052
73.350922 59.369892 -0.86978573
78.700554 56.721024 -0.91420209
80.391922 55.883541 -0.51084131
81.734055 55.218987 0
81.635124 55.267971 0.54958475
69.064484 61.499935 -0.93115228
69.858101 61.10817 -0.90121722
71.049736 60.519924 -0.8708244
73.351913 59.383465 -0.86935818
78.72789 56.72963 -0.91535527
80.411041 55.89875 -0.51113188
81.721321 55.251938 0
81.64566 55.289284 0.54958475
69.054214 61.5126 -0.92870975
69.906601 61.093098 -0.9081375
71.031143 60.539661 -0.86801052
73.362083 59.392502 -0.86978573
78.72274 56.754288 -0.9144901
80.420822 55.918587 -0.51113188
81.750557 55.264164 0
81.646858 55.315197 0.54929477
69.026146 61.533951 -0.92300421
69.928131 61.091396 -0.9109062
71.039879 60.545925 -0.86857283
73.386086 59.394772 -0.87149757
78.759338 56.758415 -0.91621935
80.444557 55.931572 -0.51156688
81.747078 55.292496 0
81.652679 55.338814 0.54914975
69.03801 61.535679 -0.92463571
69.895584 61.116199 -0.90536886
71.030365 60.561127 -0.86688584
73.400856 59.401608 -0.87235272
78.749512 56.785336 -0.91506726
80.435623 55.960579 -0.51098633
81.76693 55.30938 0
81.658447 55.362442 0.5490042
69.152039 61.48761 -0.94500595
69.908089 61.118923 -0.90675455
71.061913 60.556263 -0.87026203
73.351044 59.439964 -0.86721873
78.762863 56.8009 -0.91535527
80.459343 55.97361 -0.51142186
81.786781 55.326286 0
81.673553 55.3815 0.54914975
69.110619 61.515446 -0.93685782
69.875465 61.143616 -0.90121722
71.052353 60.571465 -0.86857283
73.384247 59.437805 -0.86978573
78.752937 56.827789 -0.91420209
80.469025 55.993504 -0.51142186
81.801926 55.345509 0
81.707321 55.391502 0.54987532
69.04245 61.556118 -0.92381841
69.924057 61.128838 -0.9081375
71.01992 60.59771 -0.86407197
73.380501 59.453629 -0.86892897
78.794167 56.829834 -0.91621935
80.478691 56.013409 -0.51142186
81.81237 55.367027 0
81.713043 55.415169 0.5497303
69.081001 61.54501 -0.93033814
69.864281 61.166553 -0.89844859
71.074348 60.581882 -0.87026203
73.413734 59.451561 -0.87149757
78.784203 56.856709 -0.91506726
80.497696 56.028801 -0.51171243
81.827469 55.386292 0
81.709358 55.443359 0.54929477
69.15522 61.516827 -0.94337755
69.863182 61.175816 -0.89775711
71.064735 60.597054 -0.86857283
73.377602 59.48299 -0.86764628
78.783493 56.87907 -0.9144901
80.511993 56.046486 -0.51185745
81.847252 55.40332 0
81.700958 55.473785 0.54871422
69.064644 61.567993 -0.92626411
69.902779 61.165527 -0.90329438
71.087166 60.59679 -0.8708244
73.424698 59.474323 -0.87149757
78.782776 56.901413 -0.91391408
80.540329 56.057446 -0.512438
81.843544 55.431652 0
81.725304 55.48843 0.54914975
69.186447 61.513355 -0.94826579
69.899948 61.171268 -0.90260023
71.070892 60.609863 -0.86857283
73.418167 59.484463 -0.87064087
78.787056 56.910347 -0.91391408
80.545128 56.06744 -0.512438
81.83934 55.44693 0
81.735123 55.496895 0.54929477
69.109184 61.557991 -0.93359798
69.907906 61.176231 -0.90329438
71.056641 60.627174 -0.86632133
73.409729 59.50248 -0.86935818
78.790932 56.930458 -0.91362494
80.559387 56.085197 -0.51258302
81.844955 55.470741 0
81.75946 55.511604 0.5497303
69.058578 61.589684 -0.92381841
69.924889 61.176903 -0.90536886
71.106598 60.613838 -0.87195122
73.429047 59.507236 -0.87064087
78.799461 56.948334 -0.91362494
80.592392 56.09404 -0.51330853
81.874039 55.483353 0
81.755623 55.53978 0.54929477
69.034706 61.608517 -0.91893017
69.88298 61.205585 -0.89844859
71.069374 60.642052 -0.86688584
73.415924 59.527443 -0.86892897
78.798637 56.970657 -0.91304892
80.601929 56.114094 -0.51330853
81.879623 55.507187 0
81.775208 55.556786 0.54958475
69.00631 61.629414 -0.91322464
69.913551 61.199818 -0.90260023
71.114761 60.631023 -0.87195122
73.467728 59.516846 -0.87320948
78.807121 56.988541 -0.91304892
80.57856 56.149731 -0.51229244
81.871056 55.537708 0
81.776016 55.582714 0.54929477
69.0494 61.616478 -0.92055851
69.876099 61.226238 -0.89637142
71.109627 60.643967 -0.8708244
73.459206 59.534866 -0.87192518
78.815582 57.006439 -0.91304892
80.611549 56.158669 -0.51301855
81.885971 55.557091 0
81.790863 55.601982 0.54943979
69.065697 61.616264 -0.92300421
69.902145 61.222664 -0.89983159
71.109085 60.65472 -0.87026203
73.450653 59.55286 -0.87064087
78.82402 57.024345 -0.91304892
80.62571 56.176537 -0.51316357
81.896156 55.578709 0
81.786888 55.630127 0.5490042
69.095421 61.609795 -0.92789245
69.955467 61.206352 -0.90744603
71.108521 60.66547 -0.86969972
73.446732 59.568638 -0.86978573
78.832436 57.042263 -0.91304892
80.625732 56.20105 -0.51287299
81.896904 55.604755 0
81.806412 55.647205 0.54929477
69.093826 61.618046 -0.92707825
69.9543 61.215675 -0.90675455
71.094131 60.682671 -0.86744815
73.428833 59.590927 -0.86764628
78.850197 57.055809 -0.91362494
80.649269 56.214539 -0.51330853
81.925896 55.617565 0
81.82119 55.666527 0.54943979
69.101181 61.622116 -0.92789245
69.916733 61.241951 -0.90052575
71.121162 60.680511 -0.87026203
73.476028 59.582806 -0.87149757
78.858582 57.073761 -0.91362494
80.677505 56.225876 -0.51388913
81.921852 55.645832 0
81.840675 55.68367 0.5497303
69.139915 61.611614 -0.93441218
69.983757 61.219501 -0.91021466
71.125168 60.689117 -0.87026203
73.467384 59.60075 -0.87021327
78.852875 57.098251 -0.91276091
80.672745 56.252605 -0.51345354
81.941383 55.663101 0
81.836571 55.711807 0.54929477
69.075531 61.648987 -0.92219001
69.937027 61.249935 -0.90260023
71.10611 60.708408 -0.86744815
73.482018 59.607872 -0.87107003
78.851807 57.120556 -0.91218376
80.658516 56.283676 -0.51272798
81.946709 55.686981 0
81.85128 55.731182 0.54943979
69.1008 61.64476 -0.92626411
69.931244 61.261314 -0.90121722
71.105476 60.719124 -0.86688584
73.459343 59.632252 -0.86850142
78.855415 57.140675 -0.91189575
80.681992 56.297276 -0.51316357
81.961479 55.706482 0
81.856552 55.754936 0.54929477
69.193451 61.609589 -0.94256335
69.943657 61.26429 -0.90260023
71.109436 60.727715 -0.86688584
73.473953 59.639389 -0.86935818
78.873085 57.154308 -0.91247183
80.695999 56.315266 -0.51330853
81.971489 55.728191 0
81.861778 55.778687 0.54914975
69.182854 61.622055 -0.94011772
69.96064 61.265194 -0.90467739
71.117996 60.734188 -0.86744815
73.488541 59.646561 -0.87021327
78.871948 57.176594 -0.91189575
80.672203 56.350616 -0.51229244
81.96727 55.756428 0
81.895317 55.789444 0.54987532
69.172234 61.634487 -0.93767202
69.986755 61.261967 -0.9081375
71.112686 60.747025 -0.86632133
73.489128 59.66016 -0.86978573
78.870766 57.198875 -0.91131866
80.705078 56.359955 -0.51301855
82.000885 55.767319 0
81.914665 55.806751 0.55016536
69.061249 61.688942 -0.91729867
69.988403 61.265583 -0.9081375
71.128525 60.744987 -0.86801052
73.473068 59.674423 -0.86807388
78.851349 57.218601 -0.90987742
80.733322 56.359257 -0.51374412
82.001122 55.780357 0
81.886536 55.83268 0.54914975
69.127029 61.666386 -0.92870975
69.95517 61.289452 -0.90260023
71.16021 60.740967 -0.87138891
73.468948 59.690125 -0.86721873
78.845421 57.242973 -0.90901339
80.733078 56.383793 -0.51345354
81.996826 55.808586 0
81.905838 55.849998 0.54943979
69.152351 61.662373 -0.93278378
69.994995 61.280064 -0.9081375
71.154877 60.753822 -0.87026203
73.49752 59.690964 -0.86935818
78.858284 57.258781 -0.9093014
80.75174 56.399719 -0.51374412
82.016197 55.826031 0
81.887291 55.884518 0.5485692
69.168686 61.662487 -0.93522948
70.002846 61.285244 -0.90882903
71.140274 60.770847 -0.86801052
73.488686 59.708794 -0.86807388
78.856979 57.281006 -0.90872425
80.76564 56.417824 -0.51388913
82.021301 55.849957 0
81.892349 55.908276 0.54842418
69.139961 61.682957 -0.92952394
69.983253 61.302807 -0.90536886
71.130264 60.785744 -0.86632133
73.507904 59.713928 -0.86935818
78.860374 57.301086 -0.90843624
80.755844 56.446632 -0.51330853
82.040642 55.867455 0
81.902115 55.929901 0.54842418
69.147263 61.687145 -0.93033814
69.981934 61.312096 -0.90467739
71.124886 60.798523 -0.86519665
73.5037 59.729633 -0.86850142
78.844872 57.329647 -0.90699506
80.769691 56.464756 -0.51345354
82.050453 55.889259 0
81.921326 55.947285 0.54871422
69.132004 61.701447 -0.92707825
69.95771 61.331627 -0.90052575
71.142662 60.800903 -0.86688584
73.53228 59.730629 -0.87064087
78.86235 57.343365 -0.90757114
80.778786 56.485023 -0.51345354
82.055496 55.913204 0
81.931046 55.968945 0.54871422
69.24762 61.657276 -0.94745159
70.011322 61.316334 -0.9081375
71.169724 60.799179 -0.86969972
73.546814 59.737961 -0.87149757
78.856232 57.367649 -0.90670705
80.773628 56.511654 -0.51301855
82.065254 55.935024 0
81.940735 55.990616 0.54871422
69.223358 61.675671 -0.94256335
70.014557 61.323597 -0.9081375
71.150375 60.818172 -0.86688584
73.519119 59.764111 -0.86850142
78.864235 57.385605 -0.90670705
80.773163 56.536156 -0.51272798
82.074982 55.95686 0
81.955139 56.010189 0.54885924
69.144821 61.718063 -0.92789245
70.02697 61.326794 -0.90952319
71.140274 60.833 -0.86519665
73.543007 59.767288 -0.87021327
78.853302 57.411957 -0.90555388
80.782166 56.556427 -0.51272798
82.075165 55.982929 0
81.974289 56.027672 0.54914975
69.025513 61.778244 -0.9058907
69.984299 61.35437 -0.90260023
