# .PCD v0.7 - Point Cloud Data file format
VERSION 0.7
FIELDS x y z
SIZE 4 4 4
TYPE F F F
COUNT 1 1 1
WIDTH 1640
HEIGHT 1
VIEWPOINT 0 0 0 1 0 0 0
POINTS 1640
DATA ascii
60.967274 71.198334 -0.86519665
59.849075 73.852432 -0.89118326
58.39621 77.300888 -0.8043685
57.350201 79.783638 -0.47833174
57.992001 78.2603 0
55.576794 83.99292 0.60589612
61.733482 69.36158 -0.95967686
61.378098 70.202263 -0.92890102
60.950665 71.213387 -0.86744815
59.849174 73.819031 -0.88861465
58.362015 77.33699 -0.80696285
57.325062 79.789963 -0.47876731
57.99707 78.200287 0
55.564781 83.95401 0.60502553
61.730869 69.349731 -0.95804536
61.378445 70.180611 -0.92613238
60.937984 71.21904 -0.86857283
59.825279 73.842377 -0.89118326
58.347923 77.325409 -0.80667484
57.289753 79.82016 -0.47992843
57.992107 78.164284 0
55.556911 83.905533 0.60386443
61.720531 69.356087 -0.95967686
61.420097 70.062027 -0.90882903
60.951149 71.163918 -0.86238277
59.809372 73.846756 -0.8920384
58.323723 77.337608 -0.80782801
57.268612 79.816818 -0.48007342
57.979076 78.147423 0
55.53083 83.900093 0.60400945
61.696594 69.394241 -0.9670108
61.373367 70.151192 -0.92267227
60.934513 71.178925 -0.86463428
59.80352 73.827538 -0.89075571
58.297455 77.354523 -0.80926919
57.241341 79.827789 -0.48065397
57.970165 78.120987 0
55.531281 83.832489 0.60226774
61.688133 69.395996 -0.96782494
61.375813 70.124954 -0.9192121
60.921841 71.184547 -0.86575896
59.769413 73.874359 -0.8954621
58.271141 77.371391 -0.81071037
57.232452 79.795731 -0.47992843
57.969505 78.075417 0
55.511414 83.812698 0.60197777
61.679665 69.397736 -0.96863914
61.356529 70.149429 -0.92336375
60.915169 71.176155 -0.86519665
59.775734 73.82679 -0.8916108
58.240685 77.397728 -0.8127287
57.192852 79.835274 -0.48137954
57.946331 78.082474 0
55.499802 83.773773 0.60110664
61.706421 69.317764 -0.95478553
61.325253 70.201523 -0.93166971
60.92662 71.125771 -0.85956883
59.7598 73.8311 -0.89246595
58.224499 77.390762 -0.8127287
57.163433 79.850891 -0.48210511
57.937569 78.05603 0
55.471794 83.773041 0.60139722
61.719627 69.26963 -0.94663745
61.323734 70.184486 -0.92959517
60.899849 71.164024 -0.86463428
59.741806 73.840111 -0.89375025
58.202168 77.398003 -0.81359279
57.113323 79.914169 -0.48428231
57.945393 77.991371 0
55.476799 83.695953 0.59936553
61.706615 69.290924 -0.95071149
61.355923 70.099991 -0.91713494
60.905628 71.13884 -0.8618204
59.7379 73.832832 -0.89332271
58.183788 77.418228 -0.81503397
57.917992 78.031425 -0.42710045
57.932796 77.997269 0
55.454567 83.714645 0.6000911
61.684452 69.324417 -0.95723122
61.342548 70.110596 -0.9192121
60.894978 71.139748 -0.86238277
59.730122 73.818245 -0.89246595
58.161388 77.425423 -0.81589913
57.876183 78.081238 -0.42884156
57.936642 77.942207 0
55.436974 83.690002 0.59965551
61.69186 69.289894 -0.95152563
61.367271 70.033806 -0.9081375
60.890423 71.126671 -0.86125588
59.705936 73.841324 -0.89503455
58.141029 77.427849 -0.81647623
64 64 -0
57.896908 77.987335 0
55.431892 83.636772 0.59834939
61.653751 69.359558 -0.9645651
61.295593 70.177704 -0.93028671
60.877731 71.132225 -0.86238277
59.710522 73.7985 -0.8916108
58.116512 77.439713 -0.8176294
64 64 -0
57.909233 77.913208 0
55.42276 83.593079 0.59733331
61.689022 69.261681 -0.94745159
61.292171 70.16523 -0.92890102
60.85482 71.161003 -0.86632133
59.690426 73.812119 -0.89332271
58.098198 77.437332 -0.81791741
64 64 -0
57.890335 77.910599 0
55.399094 83.582703 0.59733331
61.630844 69.376488 -0.96863914
61.298882 70.129829 -0.9240579
60.85231 71.143265 -0.86463428
59.676506 73.811592 -0.89375025
58.06736 77.463326 -0.81993574
64 64 -0
57.875626 77.898445 0
55.375435 83.572296 0.59733331
61.65033 69.31485 -0.95804536
61.285397 70.140312 -0.92613238
60.847794 71.13015 -0.86350745
59.670883 73.792274 -0.89246595
58.040642 77.479797 -0.82137692
57.812229 77.99646 -0.42739043
57.877777 77.848198 0
55.366497 83.528595 0.59631771
61.639896 69.321053 -0.95967686
61.263737 70.169144 -0.93097818
60.847424 71.10775 -0.86125588
59.661133 73.782349 -0.8920384
58.026463 77.46785 -0.82108784
57.795322 77.988968 -0.42739043
57.856831 77.850296 0
55.37241 83.451637 0.59428549
61.631462 69.322708 -0.96049106
61.278725 70.115402 -0.92336375
60.838837 71.103935 -0.86125588
59.647232 73.781784 -0.89246595
58.005981 77.470085 -0.82166493
57.772083 77.995712 -0.42782599
57.854916 77.80957 0
55.363697 83.407974 0.59326994
61.629066 69.310806 -0.95885956
61.293831 70.061722 -0.91575199
60.811615 71.141869 -0.86632133
59.629135 73.790581 -0.89375025
57.983383 77.477005 -0.82253009
57.750946 77.997658 -0.42811599
57.836105 77.8069 0
55.323303 83.435486 0.59443104
61.62265 69.307938 -0.95885956
61.280354 70.072189 -0.9178291
60.807137 71.128746 -0.86519665
59.625702 73.766556 -0.8920384
57.956532 77.493324 -0.82397127
57.75103 77.952156 -0.4269549
57.813049 77.813683 0
55.323196 83.372818 0.59283435
61.650681 69.228409 -0.94500595
61.266853 70.082619 -0.91990358
60.813107 71.09243 -0.86125588
59.60759 73.775314 -0.89332271
57.916916 77.537903 -0.8271417
57.725655 77.963554 -0.42753544
57.809158 77.777718 0
55.304058 83.352829 0.59254384
61.656548 69.19854 -0.94011772
61.236824 70.129631 -0.92751807
60.806625 71.083946 -0.86069357
59.604221 73.751274 -0.8916108
57.902687 77.525833 -0.82685369
57.717331 77.937012 -0.4269549
57.807491 77.737007 0
55.289223 83.323349 0.59196329
61.625828 69.249756 -0.94989729
61.23769 70.108002 -0.92474937
60.793877 71.089355 -0.8618204
59.594555 73.741287 -0.89118326
57.879951 77.5326 -0.82771879
57.700497 77.929413 -0.4269549
57.80162 77.705803 0
55.270157 83.303352 0.59167325
61.611317 69.264885 -0.95315713
61.251038 70.058975 -0.9178291
60.783215 71.090096 -0.86238277
59.578548 73.7453 -0.8920384
57.865738 77.520493 -0.82743078
57.670784 77.950195 -0.42782599
57.785065 77.698303 0
55.255428 83.273857 0.59109271
61.594719 69.284485 -0.95723122
61.239563 70.064774 -0.9192121
60.787285 71.058449 -0.85900438
59.55827 73.758636 -0.89375025
57.836555 77.541306 -0.82915998
57.636707 77.980377 -0.42898712
57.777142 77.671837 0
55.23645 83.25383 0.59080273
61.586285 69.286072 -0.95804536
61.24683 70.02948 -0.9143663
60.763981 71.086922 -0.86294508
59.552879 73.73925 -0.89246595
57.798714 77.580894 -0.8320424
57.617664 77.977402 -0.4291321
57.773594 77.63591 0
55.234779 83.195938 0.58935106
61.604603 69.229218 -0.94826579
61.210289 70.090019 -0.9240579
60.755421 71.083008 -0.86294508
59.536835 73.74321 -0.89332271
57.786613 77.563995 -0.83146632
57.561825 78.054718 -0.43174434
57.750618 77.642578 0
55.209431 83.190056 0.58949602
61.573517 69.28022 -0.95804536
61.255306 69.972672 -0.90675455
60.755352 71.060608 -0.86069357
59.537926 73.709831 -0.89075571
57.752949 77.594086 -0.83377266
57.555695 78.023315 -0.4310188
57.749355 77.601906 0
55.21228 83.122772 0.58775491
61.571274 69.268318 -0.95641702
61.203979 70.065033 -0.92128927
60.768097 71.010544 -0.85506576
59.530499 73.695099 -0.88989896
57.732201 77.595909 -0.83434874
57.530052 78.034401 -0.43159935
57.704597 77.655785 0
55.200066 83.088531 0.5870288
61.562836 69.269859 -0.95723122
61.215607 70.020668 -0.91506046
60.7383 71.05275 -0.86069357
59.518787 73.68969 -0.88989896
57.707092 77.607109 -0.83550191
57.491291 78.07373 -0.43305045
57.707764 77.605652 0
55.17701 83.077881 0.5870288
61.575191 69.226555 -0.94989729
61.19989 70.035507 -0.9178291
60.727642 71.053406 -0.86125588
59.487637 73.726181 -0.89375025
57.666702 77.651115 -0.83867335
57.526772 77.952736 -0.42956766
57.704475 77.569702 0
55.164898 83.04364 0.58630323
61.54385 69.277405 -0.95967686
61.22224 69.968422 -0.9081375
60.721264 71.044846 -0.86069357
59.495384 73.678833 -0.88989896
57.672035 77.596565 -0.83579099
57.509918 77.944901 -0.42956766
64 64 0
55.155045 83.004692 0.58543271
61.590786 69.168388 -0.94011772
61.197433 70.01223 -0.91506046
60.70842 71.061287 -0.86294508
59.49387 73.666809 -0.88904387
57.679123 77.559914 -0.83377266
56.285156 80.550339 -0.50997078
57.69968 77.515816 0
55.14576 82.994637 0.58528769
61.546856 69.246071 -0.95478553
61.209305 69.967918 -0.90882903
60.702042 71.052704 -0.86238277
59.477848 73.670654 -0.88989896
57.664932 77.547585 -0.83348465
56.276169 80.517471 -0.50924522
57.687759 77.498772 0
55.133827 82.960373 0.58456159
61.574108 69.171494 -0.94174606
61.208485 69.950928 -0.90675455
60.691368 71.053314 -0.86294508
59.461803 73.674484 -0.89075571
57.626602 77.586746 -0.83636701
56.234146 80.555168 -0.51069629
57.678085 77.476997 0
55.099884 82.97319 0.58528769
61.544708 69.217766 -0.95071149
61.171391 70.011101 -0.91644347
60.691502 71.030914 -0.86069357
59.437004 73.696861 -0.89332271
57.594772 77.611801 -0.83838534
56.214149 80.545776 -0.51069629
57.666237 77.459938 0
55.116798 82.877769 0.58267492
61.55106 69.187981 -0.94582325
61.179123 69.975914 -0.91159767
60.693851 71.003944 -0.85787964
59.436245 73.668129 -0.89118326
57.600414 77.557266 -0.83550191
56.198605 80.526947 -0.51040578
57.654423 77.442848 0
56.156555 80.616028 0.51315683
61.52153 69.234146 -0.95478553
61.139694 70.040527 -0.92198074
60.68322 71.004532 -0.85844201
59.424568 73.662613 -0.89118326
57.577396 77.563553 -0.83636701
56.163071 80.550392 -0.51142186
57.63596 77.439873 0
64 64 0
61.519444 69.222229 -0.95315713
61.164688 69.969078 -0.91159767
60.676937 70.995934 -0.85787964
59.415096 73.652443 -0.89075571
57.561012 77.555786 -0.83636701
56.160915 80.503357 -0.51026076
57.637592 77.394562 0
54.912411 83.13179 0.59152824
61.500381 69.245995 -0.95804536
61.15316 69.974716 -0.9129833
60.677231 70.973557 -0.85562813
59.39019 73.67469 -0.89332271
57.544636 77.547989 -0.83636701
56.127563 80.522026 -0.51113188
57.612457 77.405655 0
54.963066 82.965973 0.58673882
61.508961 69.211761 -0.95234299
61.132965 69.998428 -0.91713494
60.662228 70.983299 -0.85731733
59.402859 73.618156 -0.88861465
57.528271 77.540184 -0.83636701
56.132259 80.460922 -0.50953519
57.591766 77.407333 0
54.899822 83.039436 0.58935106
61.517628 69.177544 -0.94663745
61.169094 69.904488 -0.90329438
60.642811 71.002167 -0.8601312
59.366825 73.663528 -0.89332271
57.511913 77.532349 -0.83636701
56.094402 80.488892 -0.51069629
57.586823 77.376114 0
54.906029 82.967506 0.58746433
61.477093 69.245819 -0.95967686
61.103252 70.02314 -0.92198074
60.651974 70.961472 -0.85562813
59.355152 73.657921 -0.89332271
57.491089 77.533813 -0.83694309
56.083492 80.460594 -0.51011574
57.545856 77.419945 0
54.894379 82.93309 0.58673882
61.518013 69.144806 -0.94174606
61.137402 69.933762 -0.90882903
60.636936 70.971153 -0.85731733
59.3591 73.619926 -0.8903265
57.479233 77.516632 -0.83636701
57.111309 78.279289 -0.44277439
57.540951 77.388695 0
54.894085 82.875282 0.58528769
61.498875 69.16851 -0.94663745
61.112747 69.966431 -0.9143663
60.608597 71.008247 -0.86238277
59.343006 73.623566 -0.89118326
57.471916 77.49012 -0.83521384
57.046524 78.369186 -0.44582218
57.538376 77.352783 0
54.796593 83.018616 0.59007657
61.499111 69.152138 -0.94419175
61.125259 69.922318 -0.9081375
60.611225 70.981293 -0.85956883
59.317932 73.64563 -0.89375025
57.448841 77.496185 -0.836079
57.031433 78.356102 -0.44567719
57.497253 77.396454 0
64 64 0
61.469082 69.198006 -0.95315713
61.118103 69.918846 -0.9081375
60.611691 70.958916 -0.85731733
59.317516 73.61689 -0.8916108
57.432541 77.488258 -0.836079
57.023193 78.328979 -0.44509661
57.499298 77.351151 0
64 64 0
61.467144 69.18605 -0.95152563
61.102146 69.933388 -0.9109062
60.612206 70.936554 -0.85506576
59.317162 73.588165 -0.88947141
57.427597 77.457077 -0.83463782
57.015007 78.301865 -0.44451606
57.453476 77.404083 0
64 64 0
61.458698 69.187439 -0.95234299
61.101604 69.916367 -0.90882903
60.590416 70.959831 -0.85844201
59.296547 73.600945 -0.89118326
57.415897 77.439827 -0.83406067
57.009159 78.270081 -0.4437905
57.423542 77.424217 0
64 64 0
61.463341 69.16217 -0.94826579
61.112152 69.876846 -0.90329438
60.584248 70.951149 -0.85787964
59.289482 73.586029 -0.8903265
57.374565 77.482941 -0.83723217
56.99651 78.252289 -0.44349995
57.405033 77.420929 0
64 64 0
61.444298 69.169327 -0.95071149
61.06461 69.937309 -0.91367483
60.571968 70.933754 -0.85675281
59.261776 73.583832 -0.89118326
57.35117 77.448334 -0.836079
56.948265 78.263283 -0.44437107
57.342632 77.465607 0
54.677513 82.856247 0.58746433
61.429268 69.183945 -0.95397133
61.06189 69.924774 -0.91229182
60.570358 70.915962 -0.85506576
59.231949 73.614899 -0.89460701
57.346413 77.41713 -0.83463782
56.838692 78.440964 -0.45017609
57.305557 77.499512 0
64 64 0
61.425205 69.176414 -0.95315713
61.070377 69.889771 -0.90744603
60.559746 70.916359 -0.85562813
59.234058 73.581535 -0.8920384
57.33482 77.399803 -0.83406067
56.781902 78.511398 -0.45264331
57.307796 77.454132 0
64 64 0
61.419876 69.179276 -0.95397133
61.042206 69.937401 -0.91506046
60.555565 70.914276 -0.85562813
59.225983 73.583244 -0.89246595
57.322109 77.405045 -0.83463782
56.773136 78.507034 -0.45264331
57.290386 77.468727 0
64 64 0
61.398151 69.207115 -0.95967686
61.055225 69.893417 -0.90882903
60.558571 70.887383 -0.85281426
59.209816 73.58667 -0.89332271
57.308235 77.392326 -0.83434874
56.720768 78.568031 -0.45482054
57.274117 77.460609 0
64 64 0
61.429512 69.128845 -0.94582325
61.054848 69.876411 -0.90675455
60.525211 70.933182 -0.85900438
59.207436 73.562515 -0.8916108
57.312916 77.342613 -0.83175439
56.698517 78.568512 -0.45511055
57.22987 77.508308 0
64 64 0
61.394455 69.183144 -0.95641702
61.02972 69.908714 -0.91229182
60.523674 70.915375 -0.85731733
59.191277 73.56588 -0.89246595
57.315384 77.297546 -0.82944804
56.68092 78.559677 -0.45511055
57.199524 77.52803 0
64 64 0
61.428261 69.100533 -0.94174606
61.040653 69.869278 -0.90675455
60.517616 70.906616 -0.85675281
59.179722 73.560059 -0.89246595
57.290009 77.307938 -0.83060122
56.668007 78.54155 -0.45482054
57.194904 77.496552 0
64 64 0
61.431015 69.079796 -0.93848932
61.038097 69.856735 -0.90536886
60.523029 70.875198 -0.85337657
59.161221 73.567978 -0.89375025
57.264595 77.318283 -0.83175439
56.657482 78.518761 -0.45438498
57.157455 77.530136 0
64 64 0
61.409229 69.107536 -0.94419175
61.017399 69.880005 -0.90952319
60.494038 70.911781 -0.85844201
59.156635 73.548386 -0.89246595
57.250843 77.305527 -0.83146632
56.618786 78.55159 -0.4556911
57.13876 77.526497 0
64 64 0
61.409786 69.091179 -0.94174606
61.033054 69.831665 -0.90260023
60.508728 70.862251 -0.85281426
59.159065 73.515076 -0.88989896
57.237114 77.292755 -0.83117831
56.629486 78.487076 -0.45394942
57.098824 77.564575 0
64 64 0
61.378922 69.136482 -0.95071149
61.000919 69.877243 -0.91021466
60.484276 70.889702 -0.85675281
59.149902 73.504654 -0.88947141
57.225765 77.275352 -0.83060122
56.614349 78.473534 -0.45380443
57.075336 77.570145 0
64 64 0
61.379475 69.12011 -0.94826579
61.016678 69.828964 -0.90329438
60.475952 70.885452 -0.85675281
59.12439 73.526199 -0.8920384
57.214439 77.257957 -0.83002514
56.606335 78.446091 -0.45322388
57.061314 77.557137 0
64 64 0
61.422951 69.020203 -0.93033814
61.011932 69.820877 -0.90260023
60.47924 70.858589 -0.85393894
59.110542 73.524864 -0.89246595
57.205513 77.235939 -0.82915998
56.586517 78.441772 -0.45336887
57.037815 77.562622 0
64 64 0
61.414623 69.021469 -0.93115228
60.99342 69.839561 -0.9060604
60.477924 70.84079 -0.85225189
59.091984 73.532646 -0.89375025
57.189526 77.227715 -0.82915998
56.599995 78.372742 -0.45148221
56.99522 77.60511 0
64 64 0
61.397213 69.040321 -0.93522948
60.981758 69.844849 -0.90744603
60.462673 70.85006 -0.85393894
59.080467 73.526711 -0.89375025
57.173546 77.219482 -0.82915998
56.580242 78.368416 -0.45162776
56.985954 77.582756 0
64 64 0
61.368393 69.081055 -0.94337755
60.990852 69.810005 -0.90260023
60.447388 70.859322 -0.85562813
59.078407 73.502525 -0.8920384
57.148064 77.229591 -0.83031315
56.53899 78.405579 -0.45307887
56.948006 77.61586 0
64 64 0
61.357704 69.086639 -0.94500595
60.96764 69.83754 -0.90744603
60.448471 70.836983 -0.85337657
59.066925 73.496567 -0.8920384
57.146385 77.193771 -0.82858396
56.523983 78.391945 -0.45293388
56.909958 77.648918 0
64 64 0
61.346989 69.092216 -0.94663745
60.962906 69.829422 -0.90675455
60.437866 70.837189 -0.85393894
59.053085 73.495148 -0.89246595
57.135231 77.176292 -0.8280068
56.468178 78.45665 -0.4552561
56.886261 77.654175 0
64 64 0
61.347706 69.075859 -0.94419175
60.96748 69.80352 -0.90329438
60.429607 70.832878 -0.85393894
59.048744 73.475525 -0.89118326
57.112129 77.181747 -0.82887197
56.474789 78.401466 -0.45380443
56.874584 77.636353 0
64 64 0
61.323219 69.107681 -0.95071149
60.944176 69.830948 -0.9081375
60.43079 70.810555 -0.85168737
59.039677 73.464996 -0.89075571
57.113014 77.141342 -0.82685369
56.438095 78.429184 -0.45496553
56.850872 77.641548 0
64 64 0
61.328545 69.082565 -0.94663745
60.934799 69.831688 -0.90882903
60.417831 70.815247 -0.85281426
59.013916 73.486252 -0.89332271
57.092323 77.142174 -0.82743078
56.396488 78.466034 -0.45641667
56.831966 77.63752 0
64 64 0
61.343151 69.039986 -0.93930352
60.930092 69.823547 -0.9081375
60.41671 70.797424 -0.85112506
59.000069 73.484756 -0.89375025
57.08128 77.124657 -0.82685369
56.374165 78.466034 -0.45670721
54.131115 82.721054 0
64 64 0
61.30703 69.093575 -0.94989729
60.939468 69.788795 -0.90329438
60.398998 70.811058 -0.85337657
58.995811 73.465088 -0.89246595
57.046082 77.152878 -0.82915998
56.354263 78.461403 -0.45685223
54.217968 82.502068 0
64 64 0
61.370342 68.959305 -0.92544991
60.944233 69.762917 -0.89983159
60.39077 70.806702 -0.85337657
58.989185 73.449974 -0.8916108
57.0205 77.162743 -0.83031315
56.329491 78.465935 -0.45728779
54.146858 82.582184 0
64 64 0
61.314034 69.058121 -0.94419175
60.940754 69.76107 -0.89983159
60.391422 70.795547 -0.85225189
58.971439 73.469612 -0.89375025
57.005268 77.172234 -0.83117831
56.298817 78.502602 -0.4585939
54.147839 82.553253 0
64 64 0
61.331154 69.011253 -0.93604368
60.93615 69.752945 -0.89914006
60.380825 70.79567 -0.85281426
58.974476 73.436348 -0.89118326
56.984501 77.172897 -0.83175439
56.278858 78.497864 -0.45873889
54.145 82.504578 0
64 64 0
61.329765 68.99929 -0.93441218
60.917385 69.771362 -0.90260023
60.370224 70.795769 -0.85337657
58.950985 73.452911 -0.89332271
56.980774 77.141602 -0.83031315
56.266239 78.47937 -0.45844889
54.12265 82.492661 0
64 64 0
61.330719 68.983002 -0.93196964
60.879616 69.825127 -0.91159767
60.354816 70.804817 -0.85506576
58.939568 73.4468 -0.89332271
56.955128 77.151352 -0.83146632
57.382423 76.353668 -0.39139754
54.107677 82.466957 0
52.941101 84.644714 0.65408015
61.296638 69.032013 -0.94174606
60.903446 69.763893 -0.90260023
60.35141 70.791451 -0.85393894
58.930584 73.436165 -0.89289516
56.951481 77.120049 -0.83002514
57.303551 76.464706 -0.39517143
54.107548 82.413712 0
52.940765 84.585556 0.65262848
61.309307 68.993942 -0.93522948
60.894096 69.76458 -0.90329438
60.348022 70.778099 -0.85281426
58.928925 73.411949 -0.89118326
56.925819 77.129738 -0.83117831
57.290966 76.452019 -0.39502588
54.09024 82.392593 0
52.861664 84.672836 0.65582186
61.303276 68.990692 -0.93522948
60.896675 69.743164 -0.90052575
60.339836 70.773682 -0.85281426
58.927322 73.387749 -0.88947141
56.924717 77.093864 -0.82944804
57.266045 76.462189 -0.39560643
57.252399 76.487442 0
54.380707 81.801941 0.56511426
61.278416 69.022179 -0.94174606
60.875397 69.765869 -0.90467739
60.336502 70.760307 -0.85168737
58.908642 73.395157 -0.89075571
56.906429 77.089867 -0.82973713
57.238613 76.476883 -0.396332
57.252201 76.451813 0
52.336365 85.523071 0.68368697
61.279423 69.005867 -0.93930352
60.892387 69.718018 -0.89775711
60.325901 70.760353 -0.85225189
58.882587 73.416054 -0.89332271
56.925205 77.017647 -0.82570052
58.114376 74.829567 -0.34423012
57.264492 76.393356 0
52.235924 85.645943 0.68804085
61.2994 68.954834 -0.93033814
60.851868 69.775925 -0.90744603
60.30315 70.782669 -0.85562813
58.890869 73.373802 -0.88989896
56.914429 77.000015 -0.82512444
58.08886 74.845261 -0.34495568
57.247032 76.389771 0
52.174961 85.695587 0.69007254
61.234146 69.059998 -0.95071149
60.832863 69.794128 -0.9109062
60.309574 70.751457 -0.85225189
58.867237 73.390144 -0.8920384
56.933464 76.927887 -0.82108784
58.048351 74.88826 -0.34655181
54.074165 82.158836 0
52.118843 85.736008 0.69181418
61.261295 68.995972 -0.93930352
60.852386 69.741913 -0.90329438
60.303871 70.742523 -0.85168737
58.848488 73.397446 -0.89332271
56.937733 76.883064 -0.81878257
58.050182 74.853722 -0.34568125
54.007198 82.228981 0
52.072601 85.758087 0.69297534
61.233829 69.031647 -0.94663745
60.855122 69.720512 -0.90052575
60.298172 70.733597 -0.85112506
58.854454 73.359718 -0.8903265
58.001198 74.911781 -0.69395781
58.047085 74.828308 -0.34510067
54.020279 82.153046 0
52.041309 85.752777 0.69326586
61.268322 68.954712 -0.93278378
60.831261 69.747459 -0.90536886
60.287586 70.733566 -0.85168737
58.84066 73.358002 -0.89075571
57.963039 74.949829 -0.69684124
58.028992 74.8302 -0.34539068
53.98328 82.168312 0
51.982418 85.79747 0.69515258
61.238422 68.994659 -0.94093192
60.826744 69.739235 -0.90467739
60.28191 70.724632 -0.85112506
58.829357 73.351761 -0.89075571
57.969837 74.906311 -0.6945349
58.01339 74.827545 -0.34553623
53.991547 82.101547 0
51.930946 85.828407 0.69660366
61.246769 68.965385 -0.93604368
60.836845 69.704681 -0.89983159
60.278709 70.711258 -0.85000038
58.815575 73.349991 -0.89118326
57.954155 74.903542 -0.69482291
58.02047 74.783943 -0.34437513
57.132153 76.386002 0
51.912144 85.800171 0.69616812
61.238373 68.966377 -0.93685782
60.805565 69.744713 -0.90675455
60.273083 70.702301 -0.84943587
58.809277 73.33474 -0.8903265
57.951042 74.878143 -0.6936698
58.025127 74.744911 -0.34335899
57.117191 76.377693 0
51.86055 85.830971 0.6976198
61.201077 69.019157 -0.94745159
60.813293 69.714546 -0.90260023
60.260033 70.70668 -0.85056269
58.787998 73.34639 -0.8920384
57.935387 74.875336 -0.69395781
57.984303 74.787613 -0.34495568
57.196033 76.201172 0
55.620502 79.026489 0.48050228
61.2505 68.91655 -0.92870975
60.821079 69.684425 -0.89844859
60.25441 70.697723 -0.85000038
58.769188 73.353539 -0.89332271
57.929825 74.854454 -0.69309264
57.976353 74.771255 -0.34466511
57.193996 76.170235 0
55.615032 78.993683 0.47977674
61.176868 69.033928 -0.95152563
60.789673 69.724335 -0.90536886
60.24881 70.688751 -0.84943587
58.755383 73.351685 -0.89375025
57.911648 74.85614 -0.6936698
57.978588 74.736786 -0.34379455
57.227665 76.07576 0
55.591843 78.992592 0.48006672
61.214401 68.952965 -0.93685782
60.797512 69.694221 -0.90121722
60.238232 70.688652 -0.85000038
58.746601 73.340866 -0.89332271
57.90107 74.844276 -0.69338173
57.957973 74.743095 -0.34423012
57.207981 76.07663 0
55.555897 79.014137 0.48108286
61.20113 68.962517 -0.93930352
60.800495 69.672867 -0.89844859
60.237644 70.670822 -0.84831119
58.735317 73.334511 -0.89332271
57.87019 74.868423 -0.69539899
57.939896 74.744827 -0.34452012
57.188274 76.077492 0
55.62711 78.845505 0.47600338
61.181122 68.990944 -0.94500595
60.80201 69.662186 -0.89706296
60.226116 70.681824 -0.85000038
58.737255 73.317917 -0.8920384
57.833096 74.91877 -0.6988585
57.941078 74.727585 -0.34408456
57.18866 76.059769 0
55.55426 78.953545 0.47963116
61.20676 68.931625 -0.93441218
60.782799 69.680161 -0.90052575
60.218044 70.677261 -0.85000038
58.726002 73.311554 -0.8920384
57.825001 74.902313 -0.69828242
57.943481 74.69313 -0.34321401
57.204876 75.997185 0
51.512756 86.046951 0.70763373
61.171509 68.97982 -0.94419175
60.775936 69.676262 -0.90052575
60.212498 70.668251 -0.84943587
58.724895 73.287315 -0.8903265
57.791393 74.930832 -0.70058876
57.928001 74.690323 -0.34335899
57.195518 75.979919 0
51.450195 86.0951 0.70966536
61.192398 68.929169 -0.93522948
60.779015 69.654922 -0.89775711
60.199409 70.672508 -0.85056269
58.708591 73.289864 -0.89118326
57.785873 74.909836 -0.69972366
57.930515 74.655891 -0.34248844
57.853386 74.791306 0
51.418358 86.088959 0.70995593
61.176636 68.94294 -0.93848932
60.759743 69.672813 -0.90121722
60.188831 70.672325 -0.85112506
58.699913 73.279007 -0.89075571
57.782959 74.884346 -0.69857049
57.88414 74.707214 -0.34437513
57.801628 74.851669 0
51.368484 86.114349 0.71126205
61.15102 68.973824 -0.94500595
60.772842 69.634064 -0.89567995
60.183292 70.663307 -0.85056269
58.691265 73.268127 -0.8903265
57.800667 74.82296 -0.69511098
57.88929 74.668243 -0.34335899
57.796284 74.830612 0
51.328857 86.121613 0.71198761
61.204094 68.867523 -0.92544991
60.746044 69.664963 -0.90121722
60.182842 70.64547 -0.8488735
58.669842 73.279518 -0.8920384
56.638504 76.815964 -0.82368326
57.868637 74.674377 -0.34379455
57.796162 74.800552 0
51.281429 86.142342 0.71314871
61.183418 68.889832 -0.93033814
60.749218 69.643639 -0.89844859
60.174812 70.640846 -0.8488735
58.656075 73.277512 -0.89246595
56.628193 76.798088 -0.82310611
57.855743 74.666962 -0.34379455
57.809097 74.747932 0
51.239128 86.153969 0.7140193
61.16515 68.907822 -0.93441218
60.742401 69.639702 -0.89844859
60.164253 70.640617 -0.84943587
58.652565 73.257729 -0.89118326
56.5998 76.811562 -0.82454735
57.853256 74.641525 -0.34321401
57.876816 74.600739 0
51.196766 86.165543 0.71489042
61.12949 68.955719 -0.94419175
60.728043 69.648796 -0.90052575
60.153679 70.640388 -0.85000038
58.64138 73.251259 -0.89118326
56.584328 76.802612 -0.82454735
57.816959 74.674561 -0.34452012
57.850967 74.615845 0
51.138733 86.204018 0.71663207
61.15826 68.892418 -0.93278378
60.733826 69.623131 -0.89706296
60.160976 70.60936 -0.84662199
58.617317 73.266968 -0.89332271
56.574051 76.784706 -0.82397127
57.777969 74.712013 -0.34597123
64 64 0
51.091034 86.224411 0.71779317
61.182205 68.837723 -0.92300421
60.734604 69.606186 -0.89498842
60.142761 70.622284 -0.8488735
59.479492 71.761017 -0.74867713
56.545593 76.798065 -0.82541245
57.728405 74.767365 -0.34800348
57.838428 74.578468 0
51.040649 86.249207 0.71909928
61.148933 68.881271 -0.93196964
60.684814 69.675888 -0.90675455
60.134762 70.617622 -0.8488735
59.488243 71.724518 -0.74568099
56.564053 76.730988 -0.82166493
57.702297 74.782211 -0.34872901
64 64 0
50.987572 86.278404 0.72055042
61.138046 68.886345 -0.93359798
60.700779 69.632912 -0.90052575
60.129337 70.608566 -0.84831119
59.50745 71.670334 -0.74097455
56.551285 76.717529 -0.82137692
57.702404 74.752174 -0.34800348
59.375378 71.895828 0
50.950157 86.280602 0.72113097
61.172199 68.814682 -0.92055851
60.701599 69.615936 -0.89844859
60.121353 70.603882 -0.84831119
59.48259 71.69146 -0.74354154
59.49876 71.663925 -0.49533457
59.434288 71.773697 -0.25178087
59.466003 71.719696 0
50.896927 86.309616 0.7225821
61.113708 68.900703 -0.93767202
60.676991 69.64222 -0.90329438
60.115952 70.594818 -0.84774882
64 64 -0
59.458 71.711967 -0.49879408
59.422264 71.772652 -0.25192589
59.403851 71.803909 0
50.851517 86.325119 0.72359824
61.111946 68.876701 -0.93441218
60.688938 69.590988 -0.89637142
60.105213 70.576653 -0.84662199
59.433807 71.710373 -0.74696529
64 64 -0
59.384953 71.79287 -0.252942
64 64 0
50.749943 86.373764 0.72621047
61.090908 68.89872 -0.93930352
60.674496 69.59993 -0.89844859
60.092072 70.580688 -0.84774882
59.427116 71.700439 -0.74653774
64 64 -0
59.380852 71.778343 -0.25265142
64 64 0
50.717606 86.366684 0.72650099
61.125458 68.827248 -0.92626411
60.688271 69.561417 -0.89291131
60.081528 70.58033 -0.84831119
59.412563 71.70372 -0.74739283
64 64 -0
64 64 -0
64 64 0
50.706551 86.323814 0.72562987
61.081612 68.887436 -0.93848932
60.655834 69.600487 -0.89983159
60.081398 70.562492 -0.84662199
59.371674 71.751068 -0.75252843
64 64 -0
64 64 -0
64 64 0
50.719543 86.240814 0.72345322
61.060474 68.909348 -0.94337755
60.659378 69.579224 -0.89706296
60.073471 70.557755 -0.84662199
59.322746 71.811554 -0.75894839
59.412842 71.661087 -0.49764091
64 64 -0
64 64 0
50.655308 86.28717 0.72548491
61.060051 68.903336 -0.94256335
60.67664 69.542793 -0.89152831
60.064278 70.56411 -0.84774882
59.310116 71.821922 -0.76023102
59.40023 71.671623 -0.49850604
64 64 -0
64 64 0
50.727352 86.13649 0.72084099
61.110157 68.80658 -0.92463571
60.644096 69.581764 -0.89844859
60.0485 70.572403 -0.84943587
59.28479 71.842659 -0.76279968
59.404289 71.643898 -0.49706486
59.373436 71.695213 -0.25076476
59.397686 71.654877 0
50.727398 86.07589 0.71938932
61.104351 68.803085 -0.92463571
60.647717 69.560516 -0.89567995
60.043182 70.563271 -0.8488735
59.277966 71.832558 -0.76237214
56.387871 76.626434 -0.82166493
59.380234 71.662926 -0.2498942
59.396496 71.635956 0
50.671215 86.108795 0.72098601
61.052525 68.875725 -0.93930352
60.646194 69.547867 -0.89429426
60.029995 70.567192 -0.85000038
59.263199 71.835632 -0.76322722
56.351212 76.652641 -0.82397127
57.446079 74.841507 -0.35380849
53.568558 81.255714 0
50.666019 86.057098 0.71982485
61.085072 68.808746 -0.92707825
60.626484 69.565277 -0.89775711
60.058945 70.501541 -0.84211892
59.253735 71.829903 -0.76322722
56.319843 76.669922 -0.82570052
57.435677 74.829147 -0.3536635
53.561203 81.220848 0
50.563946 86.165405 0.72388875
61.081829 68.800995 -0.92626411
60.606731 69.582634 -0.90121722
60.061653 70.479408 -0.83986735
59.244274 71.824158 -0.76322722
56.315289 76.642952 -0.82454735
57.411797 74.838966 -0.35424405
53.535 81.21711 0
50.637047 85.984848 0.71851873
61.045158 68.848122 -0.93604368
60.613045 69.557114 -0.89775711
60.056465 70.470306 -0.83930498
59.226807 71.831566 -0.76451153
56.278481 76.668999 -0.82685369
57.398705 74.831001 -0.35424405
53.538582 81.164459 0
50.626724 85.942047 0.71764761
61.041878 68.840332 -0.93522948
60.614185 69.540161 -0.89567995
60.030098 70.495895 -0.84324574
59.233418 71.7995 -0.76194292
57.220753 75.092789 -0.72451514
57.380207 74.831879 -0.35453406
53.542274 81.111832 0
50.621902 85.890396 0.71648651
61.030872 68.845177 -0.93685782
60.586517 69.570297 -0.90121722
60.03022 70.478088 -0.84155655
59.218624 71.802498 -0.76279968
57.16951 75.146347 -0.72855175
57.364403 74.828308 -0.35467961
53.513443 81.112503 0
50.641621 85.798897 0.7140193
61.045723 68.807892 -0.93033814
60.571907 69.578995 -0.90329438
60.025055 70.468964 -0.84099418
59.209202 71.796715 -0.76279968
57.15876 75.133667 -0.72826266
57.337723 74.842422 -0.35540515
53.514572 81.064346 0
50.598961 85.809311 0.71489042
61.05547 68.779076 -0.92544991
60.56781 69.570564 -0.90260023
60.011913 70.472801 -0.84211892
59.205173 71.782166 -0.76194292
57.13446 75.143005 -0.72941583
57.330082 74.825508 -0.35511461
53.485779 81.064941 0
50.580799 85.779831 0.71445483
61.00034 68.855408 -0.94093192
60.574265 69.545074 -0.89914006
60.017448 70.446365 -0.83930498
59.201168 71.767639 -0.76108778
57.115559 75.143517 -0.72999293
57.300613 74.843971 -0.35598573
53.48431 81.02124 0
50.573616 85.732651 0.71343875
61.041328 68.776146 -0.92626411
60.578136 69.523872 -0.89637142
60.009663 70.441544 -0.83930498
59.194485 71.757477 -0.76066023
64 64 -0
57.287514 74.835869 -0.35598573
53.474716 80.990829 0
64 64 0
61.043385 68.759964 -0.92381841
60.571465 69.51973 -0.89637142
59.991158 70.453987 -0.84155655
59.179703 71.760376 -0.76151538
57.12413 75.069725 -0.7262454
57.266209 74.840981 -0.35642073
53.465179 80.960411 0
64 64 0
61.001045 68.81514 -0.93522948
60.570095 69.507072 -0.89498842
59.988728 70.440521 -0.84043187
59.151329 71.785057 -0.76451153
57.108025 75.065796 -0.72653341
57.242126 74.850487 -0.35700127
53.461208 80.92115 0
50.632278 85.463295 0.7061826
61.008327 68.790535 -0.93115228
60.558132 69.511429 -0.89637142
59.991718 70.418427 -0.8381803
59.171841 71.731285 -0.75980347
57.086437 75.070625 -0.72739857
57.223511 74.851135 -0.35729185
53.440769 80.908401 0
64 64 0
60.981556 68.820435 -0.93767202
60.548817 69.511513 -0.89706296
59.967789 70.439415 -0.84155655
59.14888 71.7472 -0.76194292
57.075821 75.057869 -0.72710949
57.22419 74.820923 -0.35656628
53.445206 80.855934 0
53.707954 80.436325 0.54160249
61.012527 68.758186 -0.92626411
60.560829 69.477608 -0.89221978
59.965408 70.425934 -0.84043187
59.144981 71.732643 -0.76108778
57.059704 75.053886 -0.72739857
57.24152 74.764305 -0.35496962
53.435917 80.825531 0
53.646648 80.489899 0.54377973
61.014683 68.74202 -0.92381841
60.543518 69.490433 -0.89498842
59.95224 70.429649 -0.84155655
59.130173 71.735458 -0.76194292
57.049118 75.0411 -0.72710949
57.270042 74.690178 -0.35279292
53.437767 80.777534 0
53.659958 80.424599 0.54203808
61.00631 68.742599 -0.92463571
60.536888 69.486252 -0.89498842
59.94989 70.416168 -0.84043187
59.123569 71.725227 -0.76151538
57.008163 75.076447 -0.72999293
64 64 -0
53.414726 80.769157 0
53.648445 80.398903 0.54160249
60.960934 68.80162 -0.93685782
60.540993 69.465103 -0.89221978
59.94487 70.406967 -0.83986735
59.122478 71.706314 -0.76023102
56.994785 75.067993 -0.72999293
57.255344 74.656319 -0.35221237
53.402824 80.743156 0
53.509121 80.575211 0.54784364
61.00037 68.732979 -0.92381841
60.537693 69.463013 -0.89221978
59.954597 70.383057 -0.83705348
59.109573 71.716377 -0.76151538
56.979801 75.076851 -0.73085701
57.257256 74.639069 -0.35177681
53.423363 80.688385 0
53.446259 80.65226 0.55060089
60.986698 68.741867 -0.92626411
60.520332 69.475769 -0.89498842
59.935986 70.395317 -0.83930498
59.105759 71.701805 -0.76066023
56.999702 75.015984 -0.72739857
57.227688 74.657219 -0.35264736
53.425529 80.640472 0
53.314655 80.814941 0.55640644
60.994251 68.717384 -0.92219001
60.524502 69.454628 -0.89221978
59.933716 70.381844 -0.8381803
59.093697 71.700211 -0.76108778
57.028095 74.942078 -0.72307396
57.164543 74.727928 -0.35526016
64 64 0
64 64 0
60.964603 68.751236 -0.92952394
60.493603 69.48848 -0.89844859
59.931484 70.368347 -0.83705348
59.095455 71.676971 -0.75937593
57.045517 74.885689 -0.71990246
57.126408 74.759071 -0.35656628
64 64 0
64 64 0
60.937534 68.780861 -0.93604368
60.51133 69.446213 -0.89221978
59.921055 70.367706 -0.83761579
59.083416 71.675354 -0.75980347
57.085377 74.794525 -0.71442574
57.121826 74.737625 -0.35613072
64 64 0
64 64 0
60.947792 68.752197 -0.93115228
60.51289 69.429329 -0.89014262
59.91061 70.367058 -0.8381803
59.065819 71.682373 -0.76108778
55.987732 76.474869 -0.82627761
57.134129 74.689957 -0.3548246
64 64 0
64 64 0
60.963455 68.715271 -0.92463571
60.490036 69.450417 -0.89429426
59.897423 70.370651 -0.83930498
59.056538 71.676407 -0.76108778
55.995068 76.430382 -0.82397127
57.12685 74.672905 -0.35453406
64 64 0
64 64 0
60.992622 68.6576 -0.91403884
60.467117 69.471466 -0.89844859
59.897999 70.352875 -0.83761579
59.055626 71.657486 -0.75980347
55.988476 76.407661 -0.82310611
57.119591 74.655869 -0.35424405
64 64 0
48.973186 87.272423 0.77366894
60.949383 68.712067 -0.92544991
60.482323 69.433502 -0.89291131
59.87928 70.364975 -0.83986735
59.051952 71.642891 -0.75894839
55.956615 76.424034 -0.82483643
57.109543 74.643188 -0.35409904
64 64 0
48.959206 87.232422 0.77294284
60.924858 68.737389 -0.93115228
60.462105 69.450287 -0.89637142
59.879883 70.347221 -0.8381803
59.028744 71.65844 -0.76108778
55.950062 76.401283 -0.82397127
57.091034 74.64357 -0.35438904
64 64 0
48.959435 87.170654 0.77149171
60.905647 68.754395 -0.93522948
60.450043 69.454422 -0.89775711
59.86113 70.359276 -0.84043187
59.019493 71.652428 -0.76108778
55.91534 76.421883 -0.82598853
57.007309 74.744095 -0.35801739
64 64 0
48.880428 87.23085 0.77410394
60.943127 68.684418 -0.92219001
60.457172 69.429108 -0.89429426
59.856236 70.349998 -0.83986735
59.024277 71.624908 -0.75894839
55.920116 76.38179 -0.82397127
56.804054 75.027229 -0.36774132
64 64 0
64 64 0
60.883343 68.763451 -0.93848932
60.442371 69.437424 -0.89637142
59.854126 70.336494 -0.83874267
59.001015 71.640366 -0.76108778
55.89666 76.38501 -0.82483643
56.742367 75.092453 -0.37020856
64 64 0
50.520069 84.602516 0.68760532
60.915554 68.701813 -0.92707825
60.427544 69.445709 -0.89844859
59.852051 70.322968 -0.83761579
58.994602 71.630035 -0.76066023
55.895897 76.353577 -0.82339418
56.706165 75.118431 -0.37136966
64 64 0
58.761471 71.985405 0.26672259
60.945187 68.644394 -0.91648448
60.437515 69.416229 -0.89429426
59.847202 70.313713 -0.83705348
58.988216 71.619675 -0.76023102
55.861076 76.374031 -0.82541245
56.71273 75.079216 -0.37035355
64 64 0
52.734879 81.126953 0.57251596
60.901482 68.698463 -0.92789245
60.430973 69.411919 -0.89429426
59.845169 70.300217 -0.8359288
58.984661 71.605049 -0.75937593
55.860367 76.342598 -0.82397127
56.719368 75.040047 -0.36933801
64 64 0
52.656967 81.200096 0.57541877
60.901253 68.686478 -0.92626411
60.438271 69.386681 -0.89083415
59.834759 70.299423 -0.83649111
58.969818 71.607544 -0.76023102
55.845459 76.332756 -0.82397127
56.708908 75.026894 -0.36919245
64 64 0
58.655167 72.083412 0.27064148
60.860088 68.73629 -0.93685782
60.417908 69.403282 -0.89429426
59.815918 70.311325 -0.83874267
58.963463 71.597183 -0.75980347
55.827709 76.327202 -0.82425928
56.747272 74.940117 -0.36658022
64 64 0
58.628181 72.102928 0.27151203
60.865314 68.716019 -0.93359798
60.391933 69.428207 -0.89914006
59.822357 70.28511 -0.8359288
58.959965 71.58255 -0.75894839
55.801365 76.334549 -0.82541245
56.759949 74.892395 -0.3652741
55.630005 76.592346 0
58.572365 72.16568 0.27383426
60.906216 68.642303 -0.91974437
60.407639 69.390434 -0.89360279
59.809135 70.288506 -0.83705348
58.950806 71.576454 -0.75894839
55.795074 76.311714 -0.82454735
56.807312 74.792831 -0.36222631
64 64 0
58.643196 72.038025 0.26977035
60.897919 68.648666 -0.92137587
60.409946 69.379929 -0.89221978
59.810974 70.277527 -0.8359288
58.946228 71.573402 -0.75894839
55.781891 76.315369 -0.82512444
64 64 -0
64 64 0
58.632568 72.043442 0.27006093
60.834583 68.731194 -0.93848932
60.395088 69.388084 -0.89429426
59.803391 70.272461 -0.8359288
58.931377 71.575813 -0.75980347
55.767017 76.305428 -0.82512444
64 64 -0
64 64 0
58.553497 72.140617 0.27354428
60.905975 68.612419 -0.91567034
60.402554 69.362892 -0.89083415
59.801483 70.258942 -0.83480191
58.92223 71.569687 -0.75980347
55.752151 76.295471 -0.82512444
56.818169 74.706314 -0.36004907
55.53624 76.617348 0
58.595779 72.056335 0.27093148
60.861786 68.666092 -0.92707825
60.407276 69.341888 -0.88806552
59.788246 70.262306 -0.8359288
58.921684 71.550758 -0.75851917
55.740189 76.281212 -0.82483643
56.831337 74.658821 -0.35874295
64 64 0
58.519341 72.148987 0.27426982
60.850616 68.670502 -0.92870975
60.403625 69.333389 -0.88737398
59.772167 70.269836 -0.83761579
58.906818 71.553139 -0.75937593
55.719574 76.279793 -0.82541245
56.792316 74.688927 -0.36004907
64 64 0
58.512402 72.138054 0.27412483
60.861595 68.642113 -0.92381841
60.366268 69.374763 -0.89498842
59.773125 70.252106 -0.8359288
58.90345 71.538467 -0.75851917
55.701851 76.274055 -0.82570052
56.761936 74.706047 -0.36092019
55.612991 76.405487 0
58.552063 72.05822 0.27165705
60.8643 68.626053 -0.92137587
60.373852 69.349609 -0.89152831
59.771278 70.238571 -0.83480191
58.891457 71.536568 -0.75894839
55.695724 76.25119 -0.82483643
64 64 -0
55.609692 76.378113 0
58.495674 72.120453 0.27397928
60.830933 68.663139 -0.92952394
60.387135 69.31617 -0.88668251
59.760891 70.237656 -0.83536428
58.882355 71.530388 -0.75894839
55.680927 76.241142 -0.82483643
56.724403 74.705719 -0.36150074
55.638618 76.303406 0
58.4771 72.126701 0.27441484
60.839214 68.638885 -0.92544991
60.363766 69.33667 -0.89083415
59.753357 70.232529 -0.83536428
58.881935 71.511467 -0.75766408
55.669064 76.226799 -0.82454735
56.585651 74.881577 -0.36774132
55.620827 76.297585 0
58.4468 72.150085 0.27543095
60.839195 68.626892 -0.92381841
60.329014 69.373711 -0.89775711
59.745831 70.227394 -0.83536428
58.878651 71.496803 -0.75680894
55.651367 76.221008 -0.82483643
56.713207 74.666649 -0.36077517
55.58543 76.317528 0
58.454552 72.117615 0.27455983
60.836395 68.618996 -0.92300421
60.362221 69.31131 -0.88806552
59.738308 70.222252 -0.83536428
58.860901 71.503304 -0.75809163
55.616154 76.240768 -0.82685369
56.638657 74.747879 -0.36382297
55.494076 76.419014 0
58.394825 72.183792 0.27702707
60.814034 68.63961 -0.92789245
60.352959 69.311058 -0.88875967
59.730793 70.217094 -0.83536428
58.85474 71.492859 -0.75766408
55.610157 76.217834 -0.82598853
56.599201 74.777527 -0.36512908
55.384804 76.546013 0
58.414352 72.134186 0.27557594
60.850468 68.574699 -0.91567034
60.315254 69.352097 -0.89637142
59.711758 70.228676 -0.83761579
58.836952 71.499329 -0.75894839
55.589527 76.216217 -0.82656562
56.621548 74.717209 -0.36338741
55.289955 76.651352 0
58.37801 72.165947 0.27688205
60.766319 68.684799 -0.93848932
60.328735 69.318748 -0.89152831
59.72155 70.198402 -0.8342396
58.836647 71.480408 -0.75766408
55.577709 76.201797 -0.82627761
56.576138 74.755318 -0.36498353
55.197803 76.752182 0
58.347477 72.189095 0.27789816
60.81411 68.603653 -0.92300421
60.310898 69.330795 -0.89429426
59.702496 70.209946 -0.83649111
58.824696 71.478378 -0.75809163
55.565926 76.18734 -0.82598853
56.530613 74.79335 -0.36658022
55.146858 76.7929 0
58.346462 72.169434 0.27746263
60.783192 68.636345 -0.93033814
60.30732 69.322212 -0.89360279
59.694996 70.20475 -0.83649111
58.818584 71.467911 -0.75766408
55.551205 76.177139 -0.82598853
56.523499 74.775787 -0.36629021
55.089874 76.842056 0
58.271423 72.256523 0.28065541
60.808632 68.58783 -0.92137587
60.338135 69.264206 -0.88460535
59.690399 70.195374 -0.8359288
58.809566 71.461639 -0.75766408
55.527634 76.179672 -0.82685369
56.501587 74.779533 -0.36672521
56.402908 74.921394 0
58.291122 72.20694 0.27920428
60.774906 68.612503 -0.92789245
60.305294 69.284134 -0.88945115
59.675442 70.184944 -0.8359288
58.797428 71.440666 -0.75680894
55.527859 76.116776 -0.82397127
56.472584 74.76564 -0.36687019
56.367584 74.915802 0
58.217709 72.269775 0.28181651
60.800537 68.564087 -0.91893017
60.287392 69.296097 -0.89221978
59.682564 70.158897 -0.83311272
58.773708 71.455391 -0.75894839
55.525101 76.089584 -0.8228181
56.480453 74.726761 -0.36585465
56.345436 74.919365 0
58.222633 72.241508 0.28109097
60.755238 68.616829 -0.93033814
60.304077 69.258766 -0.88668251
59.669277 70.161995 -0.8342396
58.779461 71.428078 -0.75680894
55.543224 76.032776 -0.81964666
56.449577 74.743164 -0.36672521
56.374153 74.850479 0
58.206711 72.243019 0.28138095
60.77813 68.572502 -0.92219001
60.303513 69.246086 -0.88529682
59.650124 70.173378 -0.83649111
58.770489 71.421761 -0.75680894
56.351013 74.855499 -0.74008238
56.385715 74.806252 -0.36919245
56.340061 74.871048 0
58.169815 72.274246 0.28268707
60.761124 68.590752 -0.92626411
60.294552 69.25206 -0.88668251
59.663979 70.145828 -0.83311272
58.768974 71.414391 -0.75637972
56.31464 74.893143 -0.74296474
56.349224 74.844124 -0.37064412
56.342499 74.853653 0
58.137848 72.308945 0.28399375
60.741306 68.60701 -0.93033814
60.262135 69.284439 -0.89291131
59.644817 70.157173 -0.83536428
58.757046 71.41227 -0.75680894
56.340313 74.828949 -0.73921722
56.201092 75.025772 -0.37717471
56.35944 74.80191 0
58.136818 72.289124 0.28355819
60.741455 68.595009 -0.92870975
60.296379 69.222626 -0.88322234
59.643257 70.143623 -0.8342396
58.748096 71.40593 -0.75680894
55.48642 76.005356 -0.82022375
56.235874 74.948517 -0.37485245
56.331345 74.813889 0
58.111778 72.30323 0.28428376
60.738777 68.587029 -0.92789245
60.287167 69.222237 -0.88391387
59.624058 70.154922 -0.83649111
58.751049 71.382843 -0.75509709
55.453941 76.02034 -0.82195294
56.126289 75.074661 -0.37949693
56.291142 74.842796 0
58.107765 72.287643 0.28399375
60.741837 68.571022 -0.92544991
60.27795 69.221825 -0.88460535
59.631371 70.128944 -0.83367723
58.7332 71.389023 -0.75637972
55.409393 76.052139 -0.82483643
56.058624 75.141312 -0.38210917
56.290131 74.816513 0
58.076649 72.310127 0.28500932
60.750687 68.546974 -0.92137587
60.239552 69.262238 -0.89221978
59.621014 70.127792 -0.8342396
58.733223 71.370132 -0.75509709
55.403862 76.029121 -0.82397127
55.981716 75.22049 -0.38515693
56.334557 74.726746 0
58.033371 72.34948 0.28660598
60.736565 68.555084 -0.92381841
60.277031 69.196503 -0.88183671
59.613613 70.122498 -0.8342396
58.715363 71.376274 -0.75637972
55.368256 76.048149 -0.82598853
55.950001 75.236153 -0.38602805
56.330696 74.704773 0
58.035397 72.325363 0.28602543
60.736824 68.543121 -0.92219001
60.253185 69.216461 -0.88599098
59.618076 70.100685 -0.83198804
58.706451 71.369881 -0.75637972
55.356716 76.033516 -0.82570052
55.915215 75.255951 -0.38704363
56.305622 74.71241 0
58.010185 72.339256 0.28675097
60.75156 68.511093 -0.91648448
60.252754 69.203773 -0.88460535
59.607742 70.099503 -0.83255041
58.697552 71.36348 -0.75637972
55.339165 76.027252 -0.82598853
55.910721 75.233536 -0.38660863
56.244019 74.770691 0
57.969749 72.374176 0.28820211
60.746113 68.507164 -0.91648448
60.214161 69.243996 -0.89221978
59.59145 70.10656 -0.8342396
58.691658 71.352913 -0.75595218
55.333714 76.004211 -0.82512444
55.903244 75.215317 -0.38631806
56.261482 74.719101 0
57.953545 72.37532 0.28849265
60.697193 68.563293 -0.92870975
60.219597 69.22316 -0.88945115
59.590038 70.092987 -0.83311272
58.685787 71.342339 -0.75552464
55.334373 75.972778 -0.82368326
64 64 -0
56.282097 74.663376 0
57.93734 72.376419 0.28878266
60.694592 68.55529 -0.92789245
60.233917 69.190155 -0.88460535
59.58268 70.087654 -0.83311272
58.676918 71.335907 -0.75552464
55.31081 75.974854 -0.82454735
64 64 -0
56.186691 74.767769 0
57.918064 72.381706 0.28921822
60.709438 68.523323 -0.92219001
60.224701 69.189659 -0.88529682
59.566357 70.094643 -0.83480191
58.662022 71.337769 -0.75637972
55.317642 75.935074 -0.82253009
64 64 -0
56.188992 74.737282 0
57.880432 72.41217 0.29052433
60.715626 68.503365 -0.91893017
60.221386 69.181046 -0.88460535
59.573963 70.068756 -0.83198804
58.659206 71.323029 -0.75552464
55.388573 75.807549 -0.81445789
64 64 -0
56.191357 74.70681 0
57.86414 72.413177 0.29081488
60.707272 68.50338 -0.91974437
60.185509 69.216988 -0.89152831
59.566635 70.0634 -0.83198804
58.644306 71.324844 -0.75637972
55.475067 75.659332 -0.80494457
55.841763 75.157814 -0.38602805
56.156929 74.726768 0
57.841709 72.422539 0.29139546
60.713524 68.483452 -0.91648448
60.202938 69.18 -0.88599098
59.556309 70.062134 -0.83255041
58.647602 71.301804 -0.75466788
55.568016 75.503014 -0.79485512
55.815998 75.164711 -0.38660863
64 64 0
57.800819 72.457001 0.29284656
60.681767 68.51532 -0.92381841
60.193714 69.179443 -0.88668251
59.558006 70.044487 -0.83086336
58.635735 71.299484 -0.75509709
55.557182 75.488655 -0.79456711
55.799438 75.158997 -0.38675362
64 64 0
57.781368 72.462067 0.29328212
60.693897 68.487442 -0.91893017
60.208294 69.146561 -0.88183671
59.541672 70.051376 -0.83255041
58.633015 71.284721 -0.75424033
55.435925 75.624199 -0.80465651
55.782883 75.153259 -0.38689861
64 64 0
57.774239 72.450348 0.29313657
60.667915 68.511276 -0.92463571
60.166306 69.190407 -0.89014262
59.540398 70.037819 -0.83142573
58.615063 71.290627 -0.75552464
55.289738 75.792755 -0.81705225
55.732361 75.193489 -0.38864028
56.114445 74.676186 0
57.757854 72.451187 0.29342711
60.671078 68.501312 -0.92300421
60.216866 69.115486 -0.87768507
59.515606 70.063713 -0.83536428
58.616768 71.279106 -0.75466788
55.205723 75.891464 -0.82425928
55.592735 75.368149 -0.39488086
56.123466 74.650497 0
57.718754 72.493385 0.2950238
60.668583 68.493317 -0.92219001
60.186783 69.14315 -0.88322234
59.538544 70.017479 -0.82973653
58.607979 71.272598 -0.75466788
55.188282 75.884979 -0.82454735
55.52639 75.428947 -0.39734811
56.073418 74.691132 0
57.72398 72.464905 0.2942977
60.639565 68.521027 -0.92870975
60.159626 69.166718 -0.88806552
59.513092 70.036545 -0.83311272
58.602253 71.261963 -0.75424033
55.155407 75.899239 -0.82627761
55.512585 75.418701 -0.39734811
56.057392 74.685738 0
57.688957 72.490685 0.29545879
60.654781 68.489212 -0.92300421
60.153385 69.162071 -0.88806552
59.520981 70.01075 -0.83029884
58.593483 71.255432 -0.75424033
55.153397 75.871956 -0.82512444
55.489475 75.420944 -0.39778367
56.066257 74.646912 0
57.663177 72.503883 0.29618436
60.681904 68.441605 -0.91403884
60.162163 69.137329 -0.88460535
59.51067 70.009415 -0.83086336
58.584721 71.248894 -0.75424033
55.139061 75.861252 -0.82512444
55.513004 75.360695 -0.39604199
56.087669 74.591446 0
57.649788 72.500397 0.29632992
60.643944 68.481117 -0.92300421
60.161968 69.124664 -0.88322234
59.50647 69.999908 -0.83029884
58.569805 71.250572 -0.75509709
55.121635 75.854675 -0.82541245
55.521095 75.321304 -0.39502588
56.124786 74.515236 0
57.611488 72.530151 0.29763603
60.656334 68.453346 -0.91811597
60.176872 69.091934 -0.87837654
