# .PCD v0.7 - Point Cloud Data file format
VERSION 0.7
FIELDS x y z
SIZE 4 4 4
TYPE F F F
COUNT 1 1 1
WIDTH 1594
HEIGHT 1
VIEWPOINT 0 0 0 1 0 0 0
POINTS 1594
DATA ascii
61.809326 96.915344 0
62.587933 85.216614 0.59385049
63.410706 72.695679 -0.96538472
63.247978 75.096939 -0.92713088
62.904163 80.170303 -0.90324754
62.252731 89.782883 -0.72171825
61.769558 96.912674 0
62.561596 85.225258 0.59414047
63.399853 72.70002 -0.96594703
63.235275 75.08577 -0.92627412
62.884624 80.168968 -0.90324754
62.223724 89.749634 -0.72084713
61.730148 96.904739 0
62.534878 85.239059 0.59457606
63.389694 72.694229 -0.96538472
63.221882 75.084839 -0.92627412
62.867985 80.126328 -0.90094119
62.195526 89.705994 -0.71968603
61.688206 96.933136 0
62.505577 85.289108 0.5960272
63.37883 72.698547 -0.96594703
63.209949 75.063408 -0.92456228
62.849606 80.109467 -0.90007603
62.167427 89.662346 -0.71852547
61.643963 96.992622 0
62.478374 85.308022 0.59660774
63.366844 72.718063 -0.9681986
63.195095 75.082924 -0.92627412
62.832764 80.07196 -0.89805883
62.139431 89.618652 -0.71736431
61.604855 96.979355 0
62.449993 85.342453 0.59762383
63.358555 72.68689 -0.96482235
63.18095 75.092194 -0.92713088
62.817917 80.008629 -0.89459932
62.112305 89.564545 -0.71591264
61.565006 96.97644 0
62.421528 85.376831 0.59863943
63.350723 72.650635 -0.96088165
63.169853 75.060471 -0.92456228
62.799736 79.991714 -0.89373416
62.083363 89.536339 -0.71518707
61.526722 96.952713 0
62.392197 85.421562 0.59994608
63.341045 72.639717 -0.95975697
63.154537 75.085052 -0.92670166
62.783169 79.95414 -0.89171588
62.055668 89.492546 -0.71402597
61.491261 96.892624 0
60.679985 107.5294 1.219224
63.329033 72.65918 -0.96200848
63.141541 75.078903 -0.92627412
62.763893 79.952652 -0.89171588
62.02607 89.474655 -0.71359098
61.454735 96.848053 0
60.62619 107.54089 1.219659
63.317375 72.673553 -0.96369553
63.128155 75.077858 -0.92627412
62.747864 79.909912 -0.88941061
61.999371 89.420425 -0.71213931
61.419945 96.782684 0
60.574802 107.52126 1.219224
63.308922 72.647392 -0.96088165
63.115997 75.06144 -0.92498982
62.729053 79.903221 -0.88912147
61.97031 89.39727 -0.71155876
61.381168 96.769165 0
60.519321 107.55333 1.2202395
63.300526 72.621231 -0.95806777
63.101387 75.075722 -0.92627412
62.710255 79.896523 -0.88883346
61.944244 89.337837 -0.70996261
61.341995 96.760788 0
60.462914 107.59573 1.2215463
63.28886 72.635582 -0.95975697
63.088001 75.074631 -0.92627412
62.693596 79.864029 -0.88710427
61.917469 89.288727 -0.70865649
61.301983 96.762741 0
60.408535 107.61214 1.2221268
63.278423 72.634712 -0.95975697
63.077187 75.042831 -0.92370713
62.675289 79.852119 -0.88652712
61.887783 89.275818 -0.70836598
61.263699 96.743912 0
60.354111 107.62846 1.2227068
63.269279 72.618637 -0.95806777
63.062546 75.057037 -0.92498982
62.658756 79.819588 -0.88479793
61.861633 89.221481 -0.70691484
61.222378 96.761322 0
60.297005 107.67582 1.2241585
63.257126 72.638 -0.96031928
63.050941 75.035454 -0.92327958
62.640533 79.80764 -0.88422078
62.429604 82.260284 -0.51185745
61.182793 96.757942 0
60.242455 107.69202 1.2247391
63.251102 72.586487 -0.95469153
63.038055 75.029175 -0.92285037
62.62188 79.800835 -0.88393277
62.412056 82.206596 -0.51040578
61.143665 96.749313 0
60.187405 107.71333 1.2254646
63.241177 72.580498 -0.95412701
63.024277 75.033127 -0.92327958
62.604156 79.783691 -0.88306761
62.390972 82.194321 -0.51011574
61.101345 96.776962 0
60.13459 107.70869 1.2254646
63.2299 72.589706 -0.95525384
63.010029 75.04216 -0.92413467
62.585087 79.781998 -0.88306761
62.3727 82.150955 -0.50895464
61.063137 96.757874 0
60.07946 107.72987 1.2261901
63.220905 72.573578 -0.95356464
62.995762 75.05117 -0.92498982
62.566017 79.780273 -0.88306761
62.355003 82.102402 -0.50764853
61.023087 96.759476 0
60.023331 107.76134 1.2272062
63.210079 72.57769 -0.95412701
62.984291 75.029518 -0.92327958
62.550747 79.73732 -0.88076133
62.335514 82.074524 -0.50692296
62.318474 82.259575 0
59.967121 107.79271 1.2282218
63.203018 72.541321 -0.95018846
62.970963 75.02829 -0.92327958
62.533173 79.720123 -0.87989724
62.315605 82.051804 -0.50634241
62.302212 82.195343 0
59.911793 107.81369 1.2289479
63.186577 72.549973 -0.95131314
62.952435 75.011063 -0.92199528
62.510075 79.660789 -0.87672573
62.286827 82.007332 -0.50518131
62.274166 82.140427 0
59.827469 107.85793 1.230399
63.176247 72.548981 -0.95131314
62.941593 74.984245 -0.91985583
62.495617 79.61264 -0.87413138
62.269058 81.963867 -0.50402015
62.254246 82.117607 0
59.771988 107.87872 1.2311246
63.163944 72.568214 -0.95356464
62.923336 75.034042 -0.92413467
62.47826 79.59536 -0.87326622
62.246346 81.972099 -0.50431019
62.234882 82.089584 0
59.715942 107.90462 1.2319957
63.15609 72.541916 -0.95075077
62.911015 75.02253 -0.92327958
62.462467 79.56263 -0.87153703
62.227184 81.944115 -0.50358462
62.214561 82.071899 0
59.659832 107.93044 1.2328663
63.144756 72.550995 -0.95187551
62.897697 75.021202 -0.92327958
62.44521 79.545319 -0.87067187
62.207054 81.92646 -0.50314963
62.192726 82.069725 0
59.605721 107.93549 1.2331563
63.1334 72.560074 -0.95300233
62.885933 75.004532 -0.92199528
62.42799 79.527977 -0.86980677
64 64 -0
62.175087 82.0261 0
59.549492 107.96118 1.2340274
63.12513 72.538803 -0.95075077
62.872112 75.008286 -0.92242283
62.409756 79.520927 -0.8695187
62.167446 81.88588 -0.50213349
62.1549 82.008347 0
59.493729 107.98161 1.234753
63.117958 72.507416 -0.94737458
62.860931 74.986488 -0.92071098
62.392605 79.503555 -0.8686536
62.146912 81.873306 -0.50184298
62.133141 82.006104 0
59.436302 108.01749 1.2359141
63.107147 72.511398 -0.94793689
62.848724 74.974899 -0.91985583
62.374413 79.49646 -0.86836553
62.122604 81.896912 -0.50256908
62.11356 81.983124 0
59.379322 108.04813 1.2369301
63.095257 72.525459 -0.94962394
62.834385 74.983704 -0.92071098
62.356232 79.489349 -0.86807752
62.103722 81.868774 -0.50184298
62.094578 81.954956 0
59.32336 108.06835 1.2376558
63.091465 72.463745 -0.94287151
62.824398 74.951668 -0.91814399
62.336414 79.497627 -0.8686536
62.082687 81.861305 -0.50169796
62.073437 81.947472 0
59.267899 108.08334 1.2382363
63.082336 72.45253 -0.94174463
62.812275 74.940018 -0.91728723
62.319366 79.480194 -0.86778951
62.066154 81.812485 -0.50039184
62.054001 81.924438 0
59.211273 108.10857 1.2391069
63.067688 72.491821 -0.9462477
62.800179 74.928375 -0.91643208
62.302357 79.462715 -0.86692435
62.0452 81.804977 -0.50024682
62.032913 81.916901 0
59.154575 108.13376 1.239978
63.06023 72.465439 -0.94343382
62.785278 74.942215 -0.91771477
62.286526 79.434952 -0.86548316
62.023113 81.807755 -0.50039184
62.008392 81.940369 0
59.096092 108.17435 1.2412841
63.049435 72.469345 -0.94399619
62.772629 74.935638 -0.91728723
62.266724 79.443146 -0.86605924
62.001598 81.805359 -0.50039184
61.9902 81.906906 0
59.038662 108.20454 1.2422997
63.04092 72.453033 -0.942307
62.76115 74.918861 -0.91600454
62.251564 79.41021 -0.86432999
61.980671 81.797768 -0.50024682
61.970325 81.888962 0
58.982323 108.22434 1.2430258
63.175621 71.188293 -0.99811459
63.031864 72.441788 -0.94118232
62.74445 74.947952 -0.91857153
62.231766 79.41835 -0.86490607
61.959167 81.795319 -0.50024682
61.949303 81.881332 0
58.927116 108.23372 1.2434608
63.023422 72.425461 -0.93949312
62.73595 74.905624 -0.91514778
62.214924 79.400803 -0.86404198
61.941257 81.761856 -0.4993757
61.926502 81.889175 0
58.871277 108.24821 1.2440413
63.016197 72.39904 -0.93667918
62.722775 74.904091 -0.91514778
62.194511 79.414032 -0.86490607
61.919193 81.764526 -0.49952129
61.904888 81.886658 0
58.814793 108.26778 1.2447668
62.999477 72.453362 -0.94287151
62.710804 74.892349 -0.91429269
62.177711 79.396446 -0.86404198
61.897728 81.762001 -0.49952129
61.881439 81.89962 0
58.762527 108.25117 1.2444769
62.998318 72.376457 -0.93442768
62.699474 74.875488 -0.91300839
62.158493 79.399361 -0.86432999
61.875034 81.76976 -0.49981126
61.862286 81.876373 0
59.000305 105.80934 1.1759744
62.976006 72.476143 -0.94568539
62.688183 74.858612 -0.91172403
62.146091 79.345779 -0.86144763
61.854187 81.762024 -0.49966627
61.843807 81.847946 0
58.947918 105.81876 1.17641
63.122921 71.187103 -0.99880606
62.972538 72.419403 -0.93949312
62.676304 74.846832 -0.91086894
62.130688 79.317841 -0.86000538
61.833988 81.749092 -0.4993757
61.817204 81.886642 0
58.901169 105.78168 1.1755394
62.959255 72.443375 -0.942307
62.661316 74.860504 -0.91215163
62.114075 79.300179 -0.85914129
61.811272 81.75679 -0.49966627
61.78986 81.930496 0
58.856411 105.72905 1.1742327
62.952194 72.416901 -0.93949312
62.646294 74.874161 -0.91343594
62.094952 79.303024 -0.8594293
61.789818 81.754128 -0.49966627
61.766266 81.943298 0
58.819473 105.61452 1.1711849
63.099377 71.163963 -0.99603742
62.935684 72.466057 -0.94512302
62.635715 74.852142 -0.91172403
62.076462 79.300705 -0.8594293
61.767071 81.761749 -0.49995628
61.74913 81.904449 0
58.77438 105.56699 1.1700244
62.931858 72.414337 -0.93949312
62.620018 74.870865 -0.91343594
62.058628 79.293243 -0.85914129
61.747574 81.743584 -0.49952129
61.72422 81.927528 0
58.739212 105.44206 1.1666861
62.929344 72.393532 -0.93724155
62.616699 74.844566 -0.91129649
62.05397 79.256142 -0.85712296
61.736855 81.742218 -0.49952129
61.709442 81.957123 0
58.719437 105.39764 1.165525
62.908169 72.477905 -0.94681007
62.599663 74.873428 -0.91386348
62.032894 79.274307 -0.85827613
61.714752 81.744629 -0.49966627
61.68708 81.959496 0
58.676716 105.33455 1.1639287
63.066502 71.179993 -0.99880606
62.899891 72.461479 -0.94512302
62.591156 74.836105 -0.91086894
62.015774 79.26165 -0.85769904
61.691975 81.752151 -0.49995628
61.665382 81.956688 0
58.636829 105.25078 1.1617515
63.059784 71.163933 -0.9967289
62.892311 72.439987 -0.94287151
62.580738 74.814034 -0.9091571
61.995987 79.269508 -0.85827613
61.669174 81.759659 -0.50024682
61.643005 81.95903 0
58.603893 105.11546 1.1581233
63.051788 71.157822 -0.99603742
62.885452 72.413445 -0.94005543
62.566322 74.822479 -0.91001219
61.982975 79.226051 -0.85596979
61.647034 81.761978 -0.50039184
61.622677 81.945839 0
58.586292 104.86678 1.1513021
63.042477 71.161644 -0.9967289
62.871918 72.437286 -0.94287151
62.557327 74.790215 -0.90744519
61.964577 79.223602 -0.85596979
61.624195 81.769432 -0.50068241
61.602371 81.932648 0
58.577549 104.5563 1.1427393
63.031811 71.1754 -0.99880606
62.854931 72.486267 -0.94849926
62.547039 74.768112 -0.90573335
61.947567 79.210884 -0.85539377
61.604118 81.756241 -0.50039184
61.577923 81.950371 0
58.543835 104.43643 1.1395465
63.025173 71.159302 -0.9967289
62.851532 72.43454 -0.94287151
62.534027 74.76635 -0.90573335
61.929188 79.208397 -0.85539377
61.577755 81.789383 -0.50140792
61.558342 81.931953 0
58.506199 104.34742 1.1372242
63.019936 71.13327 -0.99326879
62.839962 72.443207 -0.94399619
62.525913 74.728958 -0.90273714
61.915039 79.175125 -0.85366344
61.556263 81.786446 -0.50140792
61.535263 81.939293 0
58.463818 104.29442 1.1359181
63.00856 71.151962 -0.99603742
62.824177 72.482063 -0.94849926
62.515064 74.711914 -0.90145284
61.894573 79.187973 -0.85452861
61.532635 81.798904 -0.50184298
61.515728 81.920853 0
58.419411 104.25683 1.1350476
62.996445 71.175598 -0.99949753
62.81604 72.46553 -0.94681007
62.503544 74.699951 -0.90059775
61.879089 79.164925 -0.85337543
61.511848 81.790771 -0.50169796
61.489754 81.948753 0
58.384453 104.15226 1.1322898
62.995487 71.119743 -0.99188578
62.812202 72.418816 -0.94174463
62.489899 74.703209 -0.9010253
61.860767 79.162346 -0.85337543
61.488174 81.803192 -0.50213349
61.465157 81.966324 0
58.343197 104.09399 1.1308386
62.979816 71.16819 -0.99880606
62.802029 72.417374 -0.94174463
62.477692 74.696304 -0.90059775
61.843906 79.149498 -0.85279834
61.465931 81.805283 -0.50227851
61.44125 81.978714 0
58.304276 104.02025 1.128952
62.971153 71.166954 -0.99880606
62.791138 72.420944 -0.942307
62.468414 74.669052 -0.8984583
61.82119 79.177612 -0.85452861
61.439987 81.833084 -0.50314963
61.418789 81.980751 0
58.264046 103.95675 1.1273553
62.973999 71.086258 -0.98773146
62.772953 72.474808 -0.94849926
62.456261 74.662117 -0.89803076
61.805077 79.159607 -0.85366344
61.414719 81.85569 -0.5038752
61.391846 82.013687 0
58.22694 103.87263 1.1251781
62.958912 71.129707 -0.99396294
62.76712 72.443153 -0.94512302
62.441895 74.670395 -0.89888585
61.78751 79.151833 -0.85337543
61.391647 81.862823 -0.50416517
61.363312 82.05687 0
58.189278 103.79365 1.1231464
62.95322 71.108589 -0.99119425
62.75618 72.446686 -0.94568539
62.434238 74.632942 -0.8958897
61.769203 79.149147 -0.85337543
61.36779 81.875092 -0.50460076
61.336948 82.084557 0
58.148014 103.74033 1.1218404
62.943897 71.112274 -0.99188578
62.749706 72.420044 -0.94287151
62.419884 74.641205 -0.89674646
61.753181 79.131088 -0.85251027
61.340088 81.913025 -0.50576186
61.303631 82.158562 0
58.11145 103.65611 1.1196631
62.940502 71.076256 -0.98703998
62.737278 72.433594 -0.9445585
62.407028 74.63929 -0.89674646
61.738728 79.102783 -0.85106909
61.31691 81.920067 -0.50605184
61.206161 82.659729 0
58.075077 103.57189 1.1174864
62.929707 71.089859 -0.98911715
62.72102 72.47226 -0.94906157
62.394173 74.63736 -0.89674646
61.715851 79.130722 -0.85279834
61.290604 81.947655 -0.50692296
61.156425 82.836456 0
58.036575 103.50304 1.1157447
63.089939 69.979485 -0.99716371
62.916611 71.118317 -0.99326879
62.713074 72.45565 -0.94737458
62.379776 74.645554 -0.89760154
61.705349 79.07682 -0.84991592
61.260319 82.00087 -0.50851911
61.125053 82.88961 0
57.997452 103.43929 1.114148
62.916382 71.062462 -0.98565698
62.702087 72.459106 -0.94793689
62.370808 74.618217 -0.8954621
61.682426 79.104721 -0.85164624
61.219654 82.120827 -0.51200241
61.106178 82.860405 0
57.963985 103.33955 1.1115358
62.912453 71.031387 -0.98150265
62.697304 72.422371 -0.94399619
62.355625 74.63147 -0.89674646
61.668133 79.07634 -0.85020399
61.162811 82.343407 -0.51838803
61.08419 82.851738 0
57.926781 103.26547 1.1096492
62.898544 71.064774 -0.98634845
62.678516 72.476028 -0.95018846
62.341198 74.63961 -0.89760154
61.651508 79.063293 -0.84962791
61.094219 82.637779 -0.52680582
61.061413 82.848198 0
57.889748 103.19135 1.1077625
62.892345 71.048561 -0.98427135
62.667488 72.479439 -0.95075077
62.330734 74.622398 -0.89631885
61.63652 79.040009 -0.84847474
61.053951 82.747192 -0.5299986
61.039448 82.8395 0
57.858532 103.08127 1.1048597
62.885742 71.062767 -0.98634845
62.664742 72.46357 -0.94906157
62.313114 74.692375 -0.9023096
61.625015 79.053909 -0.8493399
61.038574 82.771088 -0.5307247
61.028877 82.832573 0
57.84869 102.99028 1.1023924
62.877209 71.061417 -0.98634845
62.645737 72.517166 -0.95525384
62.309067 74.634552 -0.89760154
61.606018 79.056137 -0.84962791
61.019161 82.746964 -0.53014416
61.008575 82.813538 0
60.499386 86.0159 0.62258619
62.864708 71.084816 -0.98980862
62.638664 72.495453 -0.95300233
62.29459 74.642647 -0.8984583
61.590282 79.037903 -0.84876275
61.001446 82.712555 -0.52927303
60.987492 82.799644 0
60.476078 85.991135 0.62200558
62.856949 71.078491 -0.98911715
62.63488 72.453667 -0.94849926
62.280914 74.645645 -0.89888585
61.573761 79.024773 -0.84818673
60.980492 82.698669 -0.52898306
60.963947 82.801125 0
60.446194 86.007378 0.62258619
62.845978 71.091965 -0.99119425
62.617325 72.497147 -0.95356464
62.264755 74.663826 -0.90059775
61.562256 78.980988 -0.84588039
60.957901 82.695007 -0.52898306
60.94207 82.792313 0
60.419605 86.003067 0.62258619
62.830101 71.135124 -0.99742305
62.614456 72.45034 -0.94849926
62.251041 74.666786 -0.9010253
61.53997 79.003548 -0.84732157
60.939522 82.665657 -0.52825695
60.917679 82.798859 0
60.393021 85.998726 0.62258619
62.838657 71.029755 -0.98288834
62.601761 72.463707 -0.95018846
62.234806 74.684921 -0.90273714
61.53112 78.94442 -0.84415013
60.920357 82.641457 -0.52767694
60.896664 82.784866 0
60.36898 85.978989 0.62215114
62.834282 71.003601 -0.97942817
62.591534 72.462013 -0.95018846
62.224426 74.667587 -0.90145284
61.511364 78.951637 -0.84472722
60.900394 82.622337 -0.52724135
60.877388 82.760559 0
60.33987 85.989944 0.62258619
62.811714 71.086304 -0.99119425
62.582993 72.450272 -0.94906157
62.207291 74.690765 -0.9035939
61.492447 78.95372 -0.84501523
60.881332 82.598076 -0.5266608
60.849556 82.787567 0
60.310722 86.000885 0.62302172
62.803154 71.084869 -0.99119425
62.573631 72.443542 -0.94849926
62.19352 74.693649 -0.90402144
61.476963 78.935371 -0.84415013
60.857998 82.599411 -0.52680582
60.827724 82.778618 0
60.260769 86.134773 0.62694061
62.799644 71.053726 -0.98703998
62.562576 72.446823 -0.94906157
62.180599 74.69146 -0.90402144
61.454578 78.957825 -0.84559238
60.838142 82.580231 -0.52637029
60.807655 82.759369 0
60.234024 86.130241 0.62694061
62.799675 70.95192 -0.97319674
62.544762 72.428314 -0.94737458
62.151276 74.707268 -0.90573335
61.424599 78.915939 -0.84357405
60.791481 82.582787 -0.5266608
60.758789 82.772118 0
57.459961 101.87794 1.0735112
62.782677 70.999908 -0.98011971
62.53632 72.416527 -0.9462477
62.136581 74.715134 -0.90658844
61.408356 78.902618 -0.84299695
60.772591 82.558418 -0.52608025
60.729866 82.804092 0
57.431114 101.77275 1.0707541
62.953957 69.972244 -0.99960625
62.771622 71.01326 -0.98219681
62.526154 72.414749 -0.9462477
62.123634 74.712875 -0.90658844
61.39035 78.899475 -0.84299695
60.750168 82.554504 -0.52608025
60.706249 82.805252 0
57.397133 101.69824 1.0688673
62.950176 69.951508 -0.99634641
62.76228 71.016708 -0.98288834
62.510689 72.442978 -0.94962394
62.109798 74.715668 -0.90701765
61.372349 78.896309 -0.84299695
60.72414 82.57103 -0.5266608
60.679008 82.826881 0
57.361519 101.63394 1.0672706
62.762581 70.965797 -0.97596538
62.505821 72.411163 -0.9462477
62.096851 74.713379 -0.90701765
61.355255 78.888039 -0.84270889
60.697159 82.592644 -0.52738637
60.656265 82.822853 0
57.327866 101.55937 1.065384
62.743561 71.023567 -0.98427135
62.499237 72.389343 -0.94399619
62.080296 74.731262 -0.90872788
61.34182 78.859375 -0.8412677
60.672863 82.598877 -0.52767694
60.630772 82.834175 0
57.291634 101.50014 1.0639329
62.738632 71.002289 -0.98150265
62.480995 72.432533 -0.94906157
62.063686 74.749146 -0.91043973
61.322037 78.866325 -0.84184378
60.647633 82.610176 -0.52811193
60.600636 82.871071 0
57.2537 101.45109 1.0627718
62.731068 70.995827 -0.98081118
62.474434 72.41069 -0.94681007
62.057114 74.711456 -0.90744519
61.308689 78.837631 -0.8404026
60.622364 82.621452 -0.52854747
60.579697 82.856697 0
57.22422 101.35599 1.0603045
62.717209 71.023895 -0.98496282
62.46701 72.39386 -0.94512302
62.03495 74.759598 -0.91172403
61.288902 78.844559 -0.8409797
60.59333 82.653152 -0.52956361
60.550365 82.888397 0
57.186554 101.30687 1.0591434
62.706001 71.037148 -0.98703998
62.456867 72.391998 -0.94512302
62.026592 74.731972 -0.90958464
61.272842 78.831085 -0.8404026
60.565155 82.67968 -0.53043419
60.524719 82.899574 0
57.155582 101.22194 1.0569662
62.715767 70.936905 -0.97319674
62.441181 72.420097 -0.94849926
62.013626 74.729576 -0.90958464
61.257744 78.812531 -0.83953851
60.537857 82.701057 -0.5311597
60.493362 82.941422 0
57.12291 101.14722 1.0550795
62.702785 70.96003 -0.97665954
62.428215 72.433197 -0.95018846
62.001602 74.72213 -0.9091571
61.237007 78.824448 -0.8404026
60.512405 82.712196 -0.53159529
60.459984 82.993462 0
57.102783 101.00606 1.0513061
62.6842 71.012688 -0.98427135
62.418964 72.426285 -0.94962394
61.987701 74.724747 -0.90958464
61.223866 78.795685 -0.83896136
60.482132 82.748825 -0.53275639
57.085342 100.85237 0
57.080112 100.88023 1.0479684
62.688316 70.967514 -0.97804254
62.411053 72.440315 -0.95131314
61.977425 74.743713 -0.91129649
61.213013 78.804184 -0.83953851
60.464077 82.78244 -0.53377193
57.035156 100.9965 0
57.073219 100.79433 1.0456461
62.682701 70.951134 -0.97596538
62.408424 72.398445 -0.94681007
61.962532 74.751335 -0.91215163
61.194164 78.805878 -0.83982652
60.431709 82.829224 -0.5352236
56.967201 101.11079 0
57.040375 100.72466 1.0439044
62.874062 69.902367 -0.99064398
62.66114 71.018547 -0.98565698
62.387802 72.451431 -0.95300233
61.947617 74.758965 -0.91300839
61.179184 78.787231 -0.83896136
60.403118 82.855515 -0.53609419
56.917488 101.12782 0
56.998928 100.7009 1.0434688
62.664013 70.957794 -0.97735101
62.382381 72.42453 -0.95018846
61.933651 74.761513 -0.91343594
61.160343 78.788887 -0.83924943
60.363678 82.937912 -0.5385614
56.907963 100.93524 0
56.964386 100.64139 1.0420178
62.663227 70.916763 -0.97181374
62.375099 72.407593 -0.94849926
61.922596 74.74894 -0.91258079
61.142479 78.785446 -0.83924943
60.34573 82.907997 -0.53783584
58.956108 90.098206 0
56.927021 100.59714 1.0410017
62.649124 70.944687 -0.97596538
62.35524 72.455498 -0.95412701
61.905689 74.766579 -0.91429269
61.126587 78.771835 -0.83867335
59.684868 86.183517 -0.63115567
58.933525 90.046089 0
58.929813 90.065163 0.74159437
62.638802 70.952904 -0.97735101
62.35088 72.423592 -0.95075077
61.895641 74.748917 -0.91300839
61.108742 78.768356 -0.83867335
59.671047 86.112 -0.629269
58.908054 90.009308 0
58.902317 90.03862 0.74101382
62.63525 70.926643 -0.9738909
62.345615 72.396667 -0.94793689
61.886623 74.726219 -0.91129649
61.089901 78.76992 -0.83896136
59.649353 86.081261 -0.62854344
58.883675 89.967384 0
58.873871 90.017159 0.74057883
62.622978 70.944679 -0.97665954
62.340408 72.369743 -0.94512302
61.87167 74.733719 -0.91215163
61.072056 78.766396 -0.83896136
58.873726 89.853149 -0.73608607
58.861412 89.915237 0
58.851532 89.965073 0.73927271
62.622444 70.903648 -0.97112226
62.326321 72.387665 -0.94737458
61.86272 74.710999 -0.91043973
61.056236 78.752708 -0.83838534
58.843506 89.841843 -0.73594105
58.839268 89.863083 0
58.831348 89.902763 0.73767602
62.809277 69.929977 -0.99716371
62.616081 70.892128 -0.96973658
62.32019 72.365707 -0.94512302
61.848766 74.713455 -0.91086894
61.04351 78.72377 -0.83694309
58.815353 89.820297 -0.73550552
58.82032 89.795586 0
58.80619 89.865936 0.7368055
62.606762 70.895363 -0.97042811
62.306057 72.383598 -0.94737458
61.83786 74.700775 -0.91001219
61.027767 78.710052 -0.83636701
58.788277 89.79364 -0.73492497
58.793278 89.768906 0
58.782146 89.823982 0.73578936
62.801846 69.893173 -0.99145818
62.594429 70.913345 -0.97319674
62.295925 72.381546 -0.94737458
61.832088 74.662956 -0.90701765
61.007935 78.716583 -0.83694309
58.754005 89.802612 -0.7353605
58.761105 89.767708 0
58.761299 89.766739 0.73433828
62.591106 70.88707 -0.96973658
62.290897 72.354576 -0.9445585
61.81612 74.6754 -0.90830034
60.990154 78.712952 -0.83694309
58.715542 89.831894 -0.73637664
58.733101 89.746056 0
58.728088 89.770569 0.73462826
62.777641 69.938667 -0.99960625
62.583794 70.880447 -0.9690451
62.284901 72.332596 -0.942307
61.806328 74.657684 -0.90701765
60.974464 78.699181 -0.83636701
58.68224 89.835663 -0.73666662
58.696751 89.76516 0
58.69381 89.779449 0.73506379
62.777481 69.90332 -0.99390388
62.564289 70.932785 -0.97665954
62.26762 72.365349 -0.9462477
61.79137 74.66507 -0.90787274
60.954609 78.705635 -0.83694309
58.644699 89.859764 -0.73753774
58.652958 89.819893 0
58.659504 89.788269 0.73549885
62.780434 69.853432 -0.98575264
62.56308 70.896652 -0.97181374
62.252331 72.388123 -0.94906157
61.788956 74.612144 -0.9035939
60.93895 78.691826 -0.83636701
58.60392 89.899055 -0.73884386
58.62389 89.803207 0
58.623047 89.807251 0.73622495
62.539307 70.968582 -0.98219681
62.249493 72.351204 -0.94512302
61.769817 74.639603 -0.90616089
60.914837 78.718483 -0.83809626
58.581158 89.85183 -0.73768276
58.585239 89.832359 0
58.586536 89.826164 0.73695052
62.756092 69.898849 -0.99390388
62.55159 70.868622 -0.96835363
62.241501 72.339127 -0.94399619
61.751667 74.66201 -0.90830034
60.900253 78.699577 -0.83723217
58.537056 89.906281 -0.73942441
58.55188 89.835999 0
58.549976 89.845024 0.73767602
62.745892 69.911835 -0.99634641
62.542252 70.871765 -0.9690451
62.230373 72.341965 -0.9445585
61.741978 74.644234 -0.90701765
60.886787 78.675583 -0.836079
58.498215 89.935234 -0.74043995
58.517429 89.84465 0
58.516594 89.848579 0.73796606
62.540234 70.840569 -0.96489346
62.225597 72.314972 -0.94174463
61.730194 74.636467 -0.90658844
60.863659 78.697098 -0.83752018
58.467964 89.923492 -0.74029499
58.481857 89.858376 0
58.479942 89.867363 0.73869216
62.734718 69.894295 -0.99390388
62.533024 70.833878 -0.9641993
62.207016 72.35257 -0.9462477
61.719498 74.623688 -0.90573335
60.850246 78.673065 -0.83636701
58.424644 89.972687 -0.74189162
58.445156 89.877129 0
58.441055 89.896225 0.73970771
62.724468 69.907249 -0.99634641
62.515236 70.876236 -0.97042811
62.20229 72.325569 -0.94343382
61.709911 74.605858 -0.90444905
60.829243 78.684425 -0.83723217
58.388878 89.986244 -0.74247223
58.405106 89.911102 0
58.405384 89.909813 0.74028826
62.494152 70.933281 -0.97873402
62.18037 72.378006 -0.94962394
61.69165 74.628166 -0.90658844
60.809307 78.690681 -0.83780819
58.350868 90.009911 -0.74334276
58.368279 89.929749 0
58.37077 89.918274 0.74072385
62.707031 69.91864 -0.99879205
62.502903 70.853043 -0.9676621
62.178921 72.336098 -0.94512302
61.682095 74.610336 -0.9053058
60.79818 78.656502 -0.836079
58.324989 89.977684 -0.74261719
58.334728 89.933105 0
58.333912 89.936829 0.74144942
62.709801 69.888893 -0.99390388
62.510578 70.798218 -0.96004766
62.156487 72.414406 -0.95412701
61.672394 74.623962 -0.90658844
60.783794 78.679825 -0.83752018
58.298176 90.025009 -0.74406832
58.31126 89.965271 0
58.307121 89.984161 0.74290049
62.466732 70.958107 -0.98288834
62.149597 72.397293 -0.95243996
61.66729 74.58606 -0.9035939
60.771622 78.650673 -0.836079
58.256668 90.063766 -0.74537444
58.278774 89.963455 0
58.273491 89.987427 0.74319106
62.495235 70.789703 -0.95935619
62.147152 72.360321 -0.94849926
61.651169 74.598259 -0.90487659
60.750568 78.661903 -0.83694309
58.227425 90.046669 -0.74508446
58.23727 90.002258 0
58.23872 89.995712 0.74362665
62.688461 69.884178 -0.99390388
62.468479 70.871132 -0.97112226
62.135944 72.363029 -0.94906157
61.635014 74.610451 -0.90616089
60.728352 78.678162 -0.83809626
58.186913 90.080261 -0.74624556
58.209255 89.980026 0
58.205055 89.998863 0.74391663
62.479935 70.781136 -0.95866203
62.129173 72.345909 -0.94737458
61.63567 74.54747 -0.9010253
60.708355 78.684303 -0.83867335
58.144039 90.123917 -0.74769664
58.171032 90.003494 0
58.162277 90.042564 0.7453683
62.666641 69.914734 -0.99960625
62.472843 70.774406 -0.9579705
62.116859 72.353546 -0.94849926
61.611633 74.594696 -0.9053058
60.690613 78.680313 -0.83867335
58.113621 90.111755 -0.74755168
58.128174 90.047195 0
58.125099 90.060837 0.74609387
62.662769 69.898666 -0.99716371
62.445801 70.855736 -0.96973658
62.102272 72.371094 -0.95075077
61.597702 74.596809 -0.90573335
60.664871 78.711624 -0.84069169
58.072884 90.145172 -0.74871278
58.09325 90.055313 0
58.087872 90.079056 0.74681944
62.438633 70.848969 -0.9690451
62.104584 72.314285 -0.9445585
61.5849 74.593895 -0.90573335
60.64135 78.732796 -0.84213287
58.041294 90.137993 -0.74871278
58.055988 90.073532 0
58.047123 90.112427 0.74798054
62.670609 69.799057 -0.98086441
62.448296 70.768822 -0.9579705
62.083183 72.361534 -0.95018846
61.581276 74.550934 -0.9023096
60.62355 78.728729 -0.84213287
58.593784 87.582954 -0.67571139
58.023327 90.071396 0
58.015575 90.105209 0.74798054
62.651394 69.850418 -0.98982668
62.434486 70.791389 -0.96143067
62.073078 72.359207 -0.95018846
61.567379 74.553001 -0.90273714
60.611565 78.69944 -0.84069169
58.553619 87.627037 -0.67716253
57.994164 90.054024 0
57.988705 90.077705 0.74739999
62.437607 70.740623 -0.95451039
62.074459 72.307358 -0.9445585
61.552307 74.560066 -0.9035939
60.590305 78.710434 -0.84155577
58.533287 87.585014 -0.67614692
57.962688 90.046745 0
57.96072 90.055229 0.7469644
62.632771 69.866402 -0.99308652
62.400993 70.860886 -0.97181374
62.074802 72.26049 -0.93949312
61.548874 74.517105 -0.90017015
60.573704 78.701271 -0.8412677
57.931549 90.038017 -0.74668056
57.944218 89.983665 0
57.943398 89.987183 0.74522275
62.636959 69.81662 -0.98493844
62.412167 70.775909 -0.96004766
62.065979 72.253212 -0.93893075
61.536167 74.51413 -0.90017015
60.555943 78.697121 -0.8412677
57.91906 89.949722 -0.7443589
57.914013 89.971268 0
57.922672 89.934311 0.74391663
62.623131 69.843834 -0.98982668
62.414333 70.730034 -0.95381886
62.036198 72.334953 -0.94849926
61.521111 74.521133 -0.9010253
60.532257 78.718117 -0.84270889
57.897243 89.901894 -0.74319774
57.900543 89.887894 0
57.897297 89.901657 0.74319106
62.605812 69.885468 -0.99716371
62.39695 70.767174 -0.95935619
62.043701 72.258392 -0.94005543
61.5084 74.518127 -0.9010253
60.515667 78.708893 -0.84242088
57.867146 89.88945 -0.74305278
57.876461 89.850128 0
57.877983 89.843704 0.74173993
62.609013 69.840485 -0.98982668
62.387615 70.770103 -0.96004766
62.025478 72.290634 -0.94399619
61.505207 74.475159 -0.89760154
60.497898 78.704666 -0.84242088
58.407757 87.480766 -0.6741147
57.853676 89.807266 0
57.852783 89.810997 0.74101382
62.608864 69.809967 -0.98493844
62.382942 70.75351 -0.9579705
62.010731 72.308014 -0.9462477
61.48299 74.512077 -0.9010253
60.481335 78.695404 -0.84213287
58.375759 87.489159 -0.67455029
57.828552 89.774513 0
57.836117 89.74292 0.73927271
62.600689 69.81308 -0.98575264
62.374783 70.751549 -0.9579705
62.001881 72.300667 -0.94568539
61.481102 74.464111 -0.897174
60.467213 78.676048 -0.8412677
58.344952 87.492447 -0.67484027
57.809593 89.716438 0
57.812317 89.705132 0.73840159
62.593666 69.811386 -0.98575264
62.356003 70.793465 -0.9641993
61.997829 72.273552 -0.94287151
61.462425 74.486008 -0.89931339
60.444618 78.691879 -0.84242088
58.320232 87.470459 -0.67440528
57.780975 89.698814 0
57.784931 89.68248 0.73796606
62.57613 69.852905 -0.99308652
62.357285 70.752472 -0.95866203
61.989037 72.266174 -0.942307
61.449757 74.482933 -0.89931339
60.426868 78.687569 -0.84242088
58.290649 87.46862 -0.67455029
57.763458 89.635666 0
57.763725 89.634567 0.7368055
62.576099 69.82238 -0.98819834
62.34436 70.769981 -0.96143067
61.9706 72.298302 -0.9462477
61.438309 74.474861 -0.89888585
60.405434 78.698318 -0.84328604
58.267235 87.441513 -0.67396975
57.743622 89.582588 0
57.745102 89.576523 0.73535383
62.576145 69.791862 -0.9833101
62.332584 70.782593 -0.96350783
61.965427 72.2761 -0.94399619
61.428104 74.461792 -0.89803076
60.391384 78.678894 -0.84242088
58.238914 87.43457 -0.67396975
57.725136 89.524475 0
57.721645 89.538681 0.73448324
62.562035 69.818924 -0.98819834
62.342445 70.707527 -0.95312738
61.955429 72.273636 -0.94399619
61.410538 74.478615 -0.8997426
60.37241 78.679543 -0.84270889
58.208111 87.437668 -0.67425972
57.704288 89.476456 0
57.703262 89.480614 0.73303157
62.544281 69.860352 -0.99553221
62.313778 70.788292 -0.96489346
61.94788 72.261307 -0.94287151
61.400356 74.465508 -0.89888585
60.355919 78.670128 -0.84242088
58.179794 87.430656 -0.67425972
57.678528 89.448624 0
57.679993 89.442734 0.73216105
62.551571 69.801041 -0.98575264
62.31044 70.766785 -0.96212482
61.941593 72.244026 -0.94118232
61.388954 74.457382 -0.8984583
60.343208 78.645638 -0.8412677
58.166592 87.363121 -0.67251861
57.654087 89.415718 0
57.661842 89.384666 0.73070991
62.545883 69.779228 -0.98249274
62.314095 70.700455 -0.95312738
61.925415 72.245209 -0.94174463
61.368752 74.457603 -0.89888585
60.32172 78.618919 -0.84011453
59.691517 81.123604 -0.49313512
57.628353 89.32341 0
57.629791 89.317696 0.72911322
62.51466 69.873314 -0.99879205
62.30846 70.688675 -0.9517417
61.914211 72.247612 -0.942307
61.356117 74.454414 -0.89888585
60.307865 78.599419 -0.83924943
59.661907 81.153656 -0.49415126
57.604141 89.290466 0
57.609398 89.269676 0.72795212
62.511219 69.85714 -0.99634641
62.309032 70.65258 -0.9468959
61.913006 72.210625 -0.93836838
61.348549 74.431313 -0.897174
60.287678 78.60498 -0.83982652
59.652706 81.103073 -0.49284515
57.577435 89.267586 0
57.586548 89.23172 0.72708154
62.506588 69.845764 -0.99471802
62.296028 70.669983 -0.94966459
61.900574 72.217934 -0.93949312
61.333401 74.438057 -0.89803076
60.26619 78.615524 -0.84069169
59.634617 81.08773 -0.49255458
57.571381 89.164001 0
57.568932 89.173599 0.72562987
62.516735 69.776939 -0.9833101
62.280479 70.697083 -0.95381886
61.886852 72.230164 -0.94118232
61.315685 74.45472 -0.8997426
60.252392 78.59597 -0.83982652
59.610096 81.097549 -0.49299014
57.538395 89.16629 0
57.552731 89.110451 0.72403377
62.529518 69.698555 -0.97027063
62.283672 70.651283 -0.94759005
61.880722 72.212837 -0.93949312
61.305622 74.441513 -0.89888585
60.23605 78.586426 -0.83953851
59.590736 81.087204 -0.49284515
59.640736 80.89344 0
57.528885 89.077484 0.72330821
62.500298 69.782898 -0.98493844
62.269341 70.673485 -0.95105022
61.865696 72.22995 -0.94174463
61.303318 74.398499 -0.8954621
60.217133 78.586868 -0.83982652
59.56879 81.086891 -0.49299014
59.607258 80.938553 0
57.503807 89.04953 0.72272766
62.474613 69.852837 -0.99716371
62.257481 70.685959 -0.95312738
61.846779 72.261795 -0.94568539
61.286869 74.410141 -0.89674646
60.198204 78.587288 -0.84011453
59.549458 81.0765 -0.49284515
59.592045 80.913086 0
57.484032 89.001427 0.72156656
62.485077 69.784035 -0.98575264
62.257034 70.654716 -0.94897306
61.848385 72.214943 -0.94061995
61.265186 74.441628 -0.8997426
60.179272 78.587685 -0.8404026
59.520927 81.101265 -0.4937157
59.576889 80.887604 0
57.464359 88.953316 0.7204054
62.490669 69.734406 -0.97760457
62.261761 70.604088 -0.94205278
61.850101 72.168114 -0.9355545
61.256493 74.423416 -0.8984583
60.166916 78.563049 -0.83924943
59.500267 81.09584 -0.4937157
59.547211 80.917496 0
57.439507 88.925301 0.71982485
62.482479 69.73735 -0.97841871
62.248653 70.621384 -0.94482142
61.835041 72.185143 -0.93780392
61.241276 74.430008 -0.89931339
60.151966 78.548409 -0.83867335
57.83588 87.304924 -0.67324418
59.529438 80.902023 0
57.416035 88.892242 0.71909928
62.475548 69.735512 -0.97841871
62.249676 70.58532 -0.93997562
61.817318 72.211998 -0.94118232
61.232628 74.411797 -0.89803076
60.130402 78.558754 -0.83953851
57.835754 87.191986 -0.67019635
59.515701 80.87146 0
57.396645 88.844086 0.71793818
62.452038 69.795746 -0.98901248
62.240425 70.588043 -0.94066715
61.816578 72.17498 -0.93724155
61.220051 74.408447 -0.89803076
60.111477 78.559059 -0.83982652
57.833218 87.089127 -0.66743857
59.50338 80.835854 0
57.38406 88.770821 0.71605152
62.478348 69.669746 -0.96782494
62.224663 70.614998 -0.94482142
61.806702 72.17234 -0.93724155
61.198166 74.439774 -0.9010253
60.093891 78.554352 -0.83982652
57.825527 87.006378 -0.66526192
59.478992 80.84549 0
57.35548 88.757797 0.7159065
62.472782 69.663139 -0.9670108
62.227119 70.574089 -0.93928415
61.78492 72.213837 -0.942307
61.196247 74.396721 -0.89760154
60.069572 78.574585 -0.8412677
57.800442 86.988861 -0.66497135
59.488453 80.729462 0
57.335045 88.714615 0.71489042
62.441383 69.75193 -0.98249274
62.207371 70.615524 -0.94551295
61.78297 72.181732 -0.93893075
61.179657 74.408203 -0.89888585
60.056026 78.554848 -0.8404026
57.768589 86.996399 -0.66540688
59.481853 80.673775 0
57.314701 88.671432 0.71387428
62.453907 69.678513 -0.97027063
62.205967 70.589149 -0.94205278
61.770416 72.188843 -0.94005543
61.175171 74.375069 -0.89631885
60.043877 78.530106 -0.83924943
57.731247 87.023964 -0.66642302
59.457611 80.683357 0
57.293083 88.633255 0.71300375
62.426178 69.752922 -0.9833101
62.205952 70.55793 -0.93789846
61.77393 72.137138 -0.93442768
61.159931 74.381546 -0.897174
60.022228 78.540283 -0.84011453
59.284489 81.237015 -0.49908572
59.449814 80.632675 0
57.26881 88.605087 0.71242315
62.411369 69.77961 -0.98819834
62.19936 70.550926 -0.93720698
61.754673 72.168747 -0.93836838
61.15419 74.353355 -0.89503455
60.012886 78.505554 -0.83838534
59.289833 81.136086 -0.49632794
59.399376 80.737572 0
57.248726 88.561852 0.71140707
62.453075 69.601387 -0.95804536
62.182095 70.582603 -0.94205278
61.754272 72.131737 -0.93442768
61.13485 74.374649 -0.897174
59.995361 78.500725 -0.83838534
59.277431 81.100334 -0.49545738
59.368069 80.772133 0
57.219055 88.55368 0.71140707
62.404015 69.751938 -0.98412424
62.178165 70.565895 -0.93997562
61.74173 72.138817 -0.9355545
61.127808 74.351395 -0.8954621
59.983376 78.475937 -0.83723217
59.269276 81.049553 -0.49415126
59.339455 80.796631 0
57.203285 88.495399 0.70995593
62.393085 69.764282 -0.98656684
62.179668 70.529854 -0.93512982
61.714157 72.199715 -0.94287151
61.120819 74.328133 -0.89375025
59.965885 78.471069 -0.83723217
59.2724 80.958725 -0.49168402
59.320564 80.785957 0
57.169502 88.50219 0.71039152
62.398914 69.729996 -0.98086441
62.168968 70.552925 -0.93859261
61.728352 72.129807 -0.93498999
61.104904 74.361008 -0.89674646
59.962711 78.4487 -0.836079
59.269146 80.930847 -0.49095845
59.311821 80.778122 0
57.150509 88.513062 0.71082652
62.370613 69.804207 -0.99390388
62.163765 70.541039 -0.93720698
61.715782 72.136848 -0.93611687
61.088223 74.372337 -0.89803076
59.941067 78.45874 -0.83694309
59.258526 80.890091 -0.48994234
59.283112 80.802521 0
57.113873 88.529778 0.71155208
62.405197 69.654739 -0.96863914
62.162674 70.514671 -0.93374681
61.701817 72.148743 -0.93780392
61.082664 74.344086 -0.8958897
59.926407 78.443878 -0.83636701
59.245174 80.859344 -0.48921677
59.244446 80.861923 0
57.081413 88.531456 0.7118426
62.409145 69.614761 -0.9621194
62.146599 70.541405 -0.93789846
61.696125 72.131302 -0.93611687
61.061768 74.370209 -0.8984583
59.917412 78.409096 -0.83463782
59.20356 80.928574 -0.49139348
59.238266 80.806076 0
57.047527 88.538086 0.71227819
62.387478 69.665138 -0.97108483
62.141441 70.529518 -0.93651551
61.697433 72.089409 -0.9316138
61.056267 74.341965 -0.89631885
59.892925 78.429024 -0.836079
59.1703 80.967766 -0.49270013
59.19944 80.865387 0
57.003658 88.579636 0.71372926
62.377918 69.672684 -0.97271317
62.122517 70.565857 -0.94205278
61.679279 72.115929 -0.93498999
61.042362 74.34333 -0.89674646
59.874073 78.429016 -0.83636701
59.149799 80.961914 -0.49270013
59.169044 80.894615 0
56.968246 88.591156 0.71430987
62.371063 69.670715 -0.97271317
62.11874 70.549118 -0.93997562
61.673679 72.09848 -0.933303
61.025612 74.354553 -0.89803076
59.862354 78.404137 -0.83521384
59.123573 80.976006 -0.49328014
59.163002 80.838745 0
56.935673 88.592621 0.71459985
62.366951 69.659256 -0.97108483
62.105263 70.566116 -0.94274426
61.669533 72.076134 -0.93105143
61.017376 74.336151 -0.89674646
59.850689 78.379242 -0.83406067
59.097305 80.990074 -0.49386069
59.139778 80.84288 0
56.897316 88.614029 0.71547097
62.329842 69.761719 -0.98901248
62.112698 70.510811 -0.93512982
61.65836 72.078186 -0.9316138
61.006317 74.327614 -0.89631885
59.827557 78.394089 -0.83521384
59.070992 81.004105 -0.49444124
59.081757 80.966965 0
56.860344 88.630386 0.71619654
62.34499 69.683762 -0.97597307
62.116051 70.470001 -0.92959517
61.651447 72.065582 -0.93048692
60.996712 74.314117 -0.8954621
59.811615 78.384079 -0.83492583
59.056259 80.978172 -0.49386069
59.088902 80.866074 0
56.827686 88.631706 0.71648651
62.351997 69.634323 -0.96782494
62.094151 70.515869 -0.93651551
61.638847 72.07251 -0.9316138
60.979927 74.325272 -0.89674646
59.797142 78.369064 -0.83434874
59.024078 81.012093 -0.49502182
59.048073 80.930054 0
56.787716 88.657944 0.71750265
62.354946 69.599121 -0.9621194
62.09618 70.479858 -0.93166971
61.627663 72.074516 -0.93217611
60.971798 74.306831 -0.8954621
59.776863 78.373917 -0.83492583
59.003525 81.006065 -0.49502182
59.040821 80.87912 0
56.754993 88.659195 0.71779317
62.322994 69.68248 -0.97679037
62.094032 70.458305 -0.92890102
61.623661 72.052147 -0.92992461
60.965157 74.28347 -0.89375025
59.763893 78.353912 -0.83406067
58.982979 81.000015 -0.49502182
58.999809 80.942993 0
56.711967 88.695274 0.71909928
62.074825 70.494484 -0.93443835
61.608154 72.068764 -0.93217611
60.946899 74.299484 -0.8954621
59.74361 78.358711 -0.83463782
58.96096 80.99894 -0.49516737
58.994129 80.887047 0
56.677704 88.701385 0.71953434
62.331837 69.602608 -0.9637509
62.069839 70.482544 -0.93305534
61.60421 72.046387 -0.92992461
60.937382 74.285957 -0.89460701
59.727745 78.348587 -0.83434874
58.949326 80.962944 -0.49429625
58.954422 80.945831 0
56.638962 88.722412 0.7204054
62.325069 69.600586 -0.9637509
62.076385 70.432129 -0.92613238
61.595943 72.03862 -0.92936224
60.932316 74.257637 -0.89246595
59.713371 78.333511 -0.83377266
58.943722 80.907051 -0.49284515
58.939915 80.919777 0
56.606121 88.72345 0.72069544
62.309772 69.626953 -0.96863914
62.087379 70.367332 -0.91713494
61.586231 72.035706 -0.92936224
60.919922 74.253922 -0.89246595
59.699036 78.318405 -0.83319557
58.933762 80.866081 -0.49182901
58.883537 81.033295 0
56.565784 88.749344 0.72171152
62.280132 69.70063 -0.98167861
62.052151 70.456291 -0.93028671
61.585327 72.003601 -0.92598605
60.904568 74.260033 -0.89332271
59.677254 78.328056 -0.83406067
58.913387 80.859947 -0.49182901
58.84943 81.071938 0
56.529881 88.760246 0.72229213
62.281841 69.670174 -0.97679037
62.054535 70.420311 -0.92544091
61.562397 72.044449 -0.93105143
60.890686 74.2612 -0.89375025
59.662941 78.312935 -0.83348465
58.86137 80.958229 -0.4948768
56.483273 88.806297 0
56.492435 88.776062 0.72301763
62.273556 69.672813 -0.97760457
62.020489 70.504349 -0.93789846
61.563038 72.007462 -0.92711073
60.870815 74.281982 -0.8958897
59.64716 78.302719 -0.83319557
58.822727 81.011673 -0.49661848
56.44725 88.817093 0
56.456451 88.786865 0.72359824
62.265259 69.675446 -0.97841871
62.030224 70.444397 -0.92959517
61.560791 71.980217 -0.92429686
60.867397 74.248749 -0.89332271
59.632904 78.287567 -0.83261949
58.782429 81.070007 -0.49850515
56.415741 88.812943 0
56.417397 88.807541 0.72446877
62.303368 69.526871 -0.95315713
62.026859 70.427612 -0.92751807
61.539219 72.016129 -0.92879993
60.853508 74.249863 -0.89375025
59.60957 78.302055 -0.83377266
58.741982 81.128265 -0.50039184
56.382713 88.813705 0
56.381325 88.81823 0.72504932
62.241352 69.704308 -0.98412424
62.008751 70.458778 -0.93236119
61.526543 72.02285 -0.92992461
60.841125 74.246048 -0.89375025
59.583149 78.326393 -0.83550191
58.72282 81.116943 -0.50024682
56.342003 88.83931 0
56.339096 88.84874 0.72621047
62.237389 69.692726 -0.98249274
62.033592 70.350929 -0.91713494
61.522861 72.000435 -0.92767304
60.833305 74.227509 -0.89246595
59.570427 78.306236 -0.83463782
58.717514 81.060898 -0.49879515
56.299679 88.869812 0
56.304462 88.854355 0.72664601
62.280819 69.540604 -0.95641702
62.022324 70.373695 -0.92059511
61.531582 71.955261 -0.92260766
60.8256 74.230507 -0.89289516
59.566387 78.288727 -0.83377266
58.687183 81.122246 -0.50068241
56.276943 88.890007 0
56.277126 88.889412 0.7278071
62.25354 69.604584 -0.96782494
62.011635 70.38089 -0.92198074
61.520462 71.957123 -0.92316997
60.810188 74.236458 -0.89375025
59.552204 78.273476 -0.83319557
58.596931 81.339058 -0.507213
56.246872 88.880653 0
56.23933 88.904869 0.72853267
62.245296 69.607185 -0.96863914
62.026405 70.306648 -0.91159767
61.500221 71.988075 -0.92711073
60.790157 74.257095 -0.8958897
59.533413 78.273041 -0.83348465
58.589951 81.287888 -0.50590688
56.212151 88.886177 0
56.201485 88.920265 0.72925824
62.24445 69.586197 -0.9653793
61.988701 70.399994 -0.92544091
61.496666 71.965652 -0.92485917
60.796234 74.19445 -0.89075571
59.522373 78.247894 -0.83233148
58.555046 81.325951 -0.507213
56.17897 88.886673 0
56.169823 88.915779 0.72940326
62.227287 69.617073 -0.97108483
61.952274 70.48848 -0.93859261
61.487045 71.962624 -0.92485917
60.768467 74.239525 -0.89503455
59.506721 78.237526 -0.8320424
58.551315 81.264862 -0.50561684
56.136372 88.916908 0
56.128773 88.940994 0.73041934
62.220501 69.614929 -0.97108483
61.985367 70.35685 -0.91990358
61.480492 71.949905 -0.92373449
60.766956 74.201347 -0.8920384
59.483269 78.251816 -0.83319557
58.532032 81.253296 -0.50547129
56.09684 88.937149 0
56.093929 88.946335 0.73085493
62.22271 69.584518 -0.9661966
61.970081 70.378311 -0.92336375
61.487843 71.893578 -0.91754222
60.7593 74.18277 -0.89075571
59.477032 78.211853 -0.83117831
58.537979 81.162491 -0.50300407
56.063553 88.937515 0
56.059063 88.951622 0.73129046
62.259598 69.445824 -0.94256335
61.99139 70.285065 -0.91021466
61.455101 71.96315 -0.92598605
60.743874 74.188614 -0.8916108
59.459862 78.206375 -0.83117831
58.547298 81.061844 -0.50024682
56.028671 88.942787 0
56.014683 88.986557 0.73259658
62.192608 69.631966 -0.97515887
61.953136 70.378181 -0.9240579
61.436165 71.989098 -0.92936224
60.734703 74.174911 -0.89075571
59.447441 78.186096 -0.83031315
58.545746 80.995857 -0.49850515
55.993771 88.94799 0
55.98291 88.981834 0.73274159
62.176704 69.65802 -0.98005021
61.97929 70.27063 -0.90882903
61.43119 71.971474 -0.92767304
60.712963 74.200264 -0.89332271
59.435066 78.16581 -0.82944804
58.537964 80.949684 -0.49734405
55.94128 89.00766 0
56.531319 87.176666 0.6800586
62.179001 69.627586 -0.97515887
61.950085 70.335022 -0.91852063
61.438766 71.915192 -0.92148292
60.705383 74.181625 -0.8920384
59.403622 78.204575 -0.8320424
58.520683 80.933197 -0.49705404
56.505547 87.160736 0
56.468121 87.276398 0.68325138
62.163036 69.653595 -0.98005021
61.939335 70.342079 -0.91990358
61.4245 71.926582 -0.92316997
60.701015 74.153229 -0.88989896
59.404041 78.144913 -0.82887197
58.448845 81.084702 -0.50169796
64 64 0
56.431976 87.291992 0.68397695
62.191471 69.543282 -0.96130526
61.939453 70.315735 -0.91644347
61.416496 71.918633 -0.92260766
60.68716 74.154114 -0.8903265
59.386951 78.139343 -0.82887197
58.386299 81.206429 -0.50547129
64 64 0
56.402218 87.287781 0.6841225
62.180157 69.555191 -0.9637509
61.920887 70.346626 -0.92128927
61.394276 71.95414 -0.92711073
60.663704 74.184258 -0.89332271
59.355377 78.178001 -0.83146632
58.325066 81.32309 -0.50909966
64 64 0
56.377327 87.2687 0.68383193
62.15028 69.623405 -0.97597307
61.928902 70.296432 -0.9143663
61.406891 71.883415 -0.91923141
60.664234 74.141205 -0.88989896
59.343102 78.157631 -0.83060122
58.273285 81.410027 -0.51185745
64 64 0
56.352459 87.249603 0.68354195
62.177589 69.517914 -0.95804536
61.913422 70.317764 -0.9178291
61.383026 71.923698 -0.92429686
60.653591 74.132294 -0.88947141
59.324379 78.156898 -0.83088923
58.242477 81.432693 -0.51272798
64 64 0
56.345558 87.176201 0.68165529
62.155361 69.562637 -0.9661966
61.901054 70.329514 -0.91990358
61.379852 71.901237 -0.92204529
60.64135 74.128242 -0.88947141
59.323555 78.10215 -0.8280068
58.216507 81.440529 -0.51316357
64 64 0
55.646935 89.189262 0.74115938
62.129391 69.59565 -0.97271317
61.873039 70.362488 -0.92544091
61.357548 71.90451 -0.92316997
60.620144 74.110352 -0.88861465
59.278008 78.125153 -0.83002514
58.187561 81.38707 -0.51200241
58.722607 79.786552 0
55.600914 89.124649 0.73985326
62.14465 69.527786 -0.96130526
61.874931 70.331383 -0.92128927
61.343143 71.915771 -0.92485917
60.609562 74.101395 -0.88818711
59.259296 78.124336 -0.83031315
58.169857 81.370186 -0.51171243
58.667103 79.88871 0
55.557335 89.15387 0.74101382
62.117451 69.586433 -0.97189903
61.851261 70.37635 -0.92820954
61.338451 71.898102 -0.92316997
60.589161 74.121613 -0.8903265
59.247192 78.103889 -0.82944804
58.177086 81.279419 -0.50924522
58.699432 79.729362 0
55.520309 89.163353 0.74159437
62.137634 69.504555 -0.95804536
61.854816 70.340477 -0.92336375
61.33868 71.866013 -0.91979373
60.576935 74.117485 -0.8903265
59.240097 78.068741 -0.82771879
58.259472 80.967163 -0.50024682
58.685436 79.708153 0
55.478252 89.187553 0.74261051
62.158012 69.422737 -0.94419175
61.797127 70.485161 -0.94482142
61.330811 71.857979 -0.91923141
60.56636 74.10849 -0.88989896
59.213123 78.092361 -0.82944804
58.519768 80.13356 -0.4758645
58.679852 79.662292 0
55.432781 89.221519 0.74391663
62.133907 69.471977 -0.95315713
61.836258 70.34478 -0.92474937
61.309841 71.888405 -0.92316997
60.555805 74.099472 -0.88947141
59.196098 78.086571 -0.82944804
58.513699 80.087578 -0.4747034
58.660931 79.655853 0
55.405666 89.201324 0.74362665
62.140106 69.432304 -0.94663745
61.861099 70.247223 -0.9109062
61.295372 71.899574 -0.92485917
60.550255 74.075874 -0.88775951
59.175728 78.090553 -0.83002514
58.511093 80.031784 -0.4732523
58.642017 79.649384 0
55.35334 89.254829 0.74551332
62.119083 69.472122 -0.95397133
61.850285 70.254135 -0.91229182
61.295734 71.867477 -0.92148292
60.529739 74.095978 -0.88989896
59.160385 78.079826 -0.82973713
58.501865 79.995644 -0.47238117
58.599422 79.711823 0
55.311008 89.278755 0.74652886
62.048176 69.667274 -0.98819834
61.795864 70.399887 -0.93374681
61.281059 71.894661 -0.92485917
