# .PCD v0.7 - Point Cloud Data file format
VERSION 0.7
FIELDS x y z
SIZE 4 4 4
TYPE F F F
COUNT 1 1 1
WIDTH 1924
HEIGHT 1
VIEWPOINT 0 0 0 1 0 0 0
POINTS 1924
DATA ascii
75.694923 52.403576 0
75.144196 52.949669 0.43830448
64 64 -0
64 64 -0
64 64 -0
64 64 -0
74.824669 53.292412 -0.84854454
76.624413 51.512138 -0.49592805
75.712624 52.414059 0
75.16861 52.95219 0.43873948
64 64 -0
64 64 -0
64 64 -0
64 64 -0
74.841293 53.301853 -0.84883368
76.643196 51.523739 -0.4960736
75.734024 52.420914 0
75.207848 52.94014 0.43975559
64 64 -0
64 64 -0
64 64 -0
64 64 -0
74.857895 53.311337 -0.84912169
76.632339 51.564548 -0.49505749
75.748001 52.435101 0
75.369331 52.807873 0.4455606
64 64 -0
64 64 -0
64 64 -0
64 64 -0
74.870804 53.324463 -0.84912169
76.647354 51.579823 -0.49505749
75.784256 52.427414 0
75.95755 52.25724 0.46805626
64 64 -0
64 64 -0
64 64 -0
64 64 -0
74.872604 53.348469 -0.84825653
76.643791 51.613293 -0.49433196
75.74617 52.492664 0
75.960587 52.282608 0.4676207
64 64 -0
64 64 -0
64 64 -0
64 64 -0
74.878075 53.368839 -0.84768051
76.636444 51.650383 -0.49346083
78.767685 49.567513 0
76.123405 52.151775 0.47342628
64 64 -0
64 64 -0
64 64 -0
64 64 -0
74.876099 53.396435 -0.84652734
76.66996 51.647522 -0.49418637
75.490715 52.797215 0
76.212135 52.093876 0.47632906
64 64 -0
64 64 -0
64 64 -0
64 64 -0
74.892609 53.405983 -0.84681535
76.673706 51.673698 -0.49375138
75.515442 52.800217 0
76.241409 52.094147 0.47690964
64 64 -0
64 64 -0
64 64 -0
64 64 -0
74.890549 53.433559 -0.84566218
76.655029 51.721588 -0.49244526
75.525238 52.81776 0
76.244598 52.119808 0.47647408
64 64 -0
64 64 -0
64 64 -0
64 64 -0
74.903305 53.446724 -0.84566218
76.684792 51.722431 -0.49302584
75.523773 52.846176 0
76.247734 52.145458 0.47603852
64 64 -0
64 64 -0
64 64 -0
64 64 -0
74.904884 53.470692 -0.84479702
76.692131 51.744995 -0.49273527
78.787216 49.722069 0
76.280739 52.14222 0.47676408
64 64 -0
64 64 -0
64 64 -0
71.585587 56.684521 -0.87844867
74.907524 53.480869 -0.84450901
76.699539 51.752666 -0.49273527
78.773369 49.752678 0
76.291656 52.146027 0.47690964
64 64 -0
64 64 -0
64 64 -0
64 64 -0
74.92395 53.490475 -0.84479702
76.714325 51.768021 -0.49273527
78.790573 49.770538 0
76.335915 52.132072 0.4780702
64 64 -0
64 64 -0
64 64 -0
71.699539 56.610451 -0.889575
74.921707 53.518009 -0.84364384
76.699097 51.81218 -0.49157417
78.77771 49.817253 0
76.372749 52.125389 0.47894129
64 64 -0
64 64 -0
64 64 -0
71.671387 56.655258 -0.88529617
74.923172 53.541935 -0.84277982
76.706314 51.834713 -0.49128416
78.791084 49.838715 0
76.394592 52.133167 0.4792313
64 64 -0
64 64 -0
64 64 -0
71.639412 56.703541 -0.88058811
74.947006 53.544434 -0.84364384
76.728516 51.842903 -0.49157417
78.793129 49.870979 0
76.416443 52.140968 0.47952187
64 64 -0
64 64 -0
64 64 -0
71.663094 56.698612 -0.88229996
74.94841 53.568363 -0.84277982
76.720627 51.879795 -0.49070358
78.791351 49.906811 0
78.932678 49.772152 0.57603443
64 64 -0
64 64 -0
64 64 -0
71.657021 56.722023 -0.88058811
74.961006 53.5816 -0.84277982
76.754097 51.877274 -0.49142915
78.804588 49.928291 0
78.927269 49.81168 0.5751639
64 64 -0
64 64 -0
64 64 -0
71.695618 56.703022 -0.88401186
74.966072 53.601974 -0.84220266
76.738564 51.921303 -0.49026805
78.791359 49.974838 0
78.887833 49.883369 0.57298666
64 64 -0
64 64 -0
64 64 -0
71.74173 56.677036 -0.88829231
74.97863 53.615234 -0.84220266
76.764481 51.925987 -0.49070358
78.793175 50.00703 0
78.912437 49.894218 0.57327724
64 64 -0
64 64 -0
64 64 -0
71.724434 56.711067 -0.88529617
74.987411 53.632053 -0.84191465
76.771492 51.948559 -0.49041304
78.798721 50.035622 0
78.918121 49.922951 0.57284164
64 64 -0
64 64 -0
64 64 -0
71.718285 56.734482 -0.88358426
74.992401 53.65242 -0.84133863
76.767128 51.981804 -0.48968747
78.792839 50.074924 0
78.927551 49.94812 0.57255113
64 64 -0
64 64 -0
64 64 -0
71.689636 56.77895 -0.87930542
75.012436 53.658638 -0.84191465
76.777855 52.000793 -0.48954248
78.805862 50.096367 0
78.948318 49.962597 0.57269669
64 64 -0
64 64 -0
64 64 -0
71.758308 56.732086 -0.88615292
75.01738 53.679016 -0.84133863
76.773384 52.034004 -0.48881692
78.796059 50.139183 0
78.934921 50.009094 0.57153553
64 64 -0
64 64 -0
64 64 -0
71.755829 56.751987 -0.88486862
75.029839 53.692337 -0.84133863
76.791626 52.045902 -0.48896194
78.801399 50.167721 0
80.945114 48.16436 0.64772975
64 64 -0
64 64 -0
64 64 -0
71.749557 56.775368 -0.88315672
75.023361 53.72332 -0.83989632
76.77565 52.089718 -0.48780081
78.799072 50.203362 0
80.949036 48.19902 0.64714915
64 64 -0
64 64 -0
64 64 -0
71.720688 56.819695 -0.87887788
75.04335 53.729591 -0.84047347
76.80526 52.091007 -0.48838136
78.796661 50.238983 0
80.987137 48.20182 0.64787471
64 64 -0
64 64 -0
64 64 -0
71.732544 56.817379 -0.87973297
75.041962 53.743317 -0.83989632
76.80484 52.105812 -0.48809138
78.793541 50.258545 0
80.996681 48.212086 0.64787471
64 64 -0
64 64 -0
64 64 -0
71.79393 56.777878 -0.88572371
75.061951 53.749626 -0.84047347
76.796326 52.142494 -0.48722026
78.810135 50.276428 0
81.046242 48.204376 0.64903587
64 64 -0
64 64 -0
64 64 -0
71.757416 56.829121 -0.88058811
75.051529 53.784073 -0.83874315
76.818283 52.150902 -0.4875108
78.78466 50.333202 0
81.061501 48.228508 0.64889085
64 64 -0
64 64 -0
64 64 -0
71.822693 56.786289 -0.88700801
75.075272 53.786911 -0.83960831
76.840225 52.159359 -0.48780081
75.43409 53.456024 0
81.04998 48.277321 0.64772975
64 64 -0
64 64 -0
64 64 -0
71.816284 56.80965 -0.88529617
75.087608 53.800301 -0.83960831
76.835403 52.192471 -0.48707524
75.446823 53.469849 0
81.06131 48.304977 0.64743918
64 64 -0
64 64 -0
64 64 -0
71.768242 56.871162 -0.87887788
75.099922 53.813705 -0.83960831
76.849663 52.207989 -0.48707524
75.467201 53.476658 0
90.770874 39.432625 1.0147684
64 64 -0
64 64 -0
64 64 -0
71.841217 56.821621 -0.88615292
75.100769 53.837608 -0.83874315
76.856224 52.230549 -0.4867847
75.479912 53.49052 0
78.89138 50.367432 0.56384331
64 64 -0
64 64 -0
64 64 -0
71.834724 56.844948 -0.88444102
75.105408 53.857998 -0.83816713
76.835907 52.27763 -0.48547858
75.50029 53.497372 0
78.900177 50.392437 0.56355327
64 64 -0
64 64 -0
64 64 -0
71.859581 56.857002 -0.88529617
75.114578 53.898781 -0.83701396
76.86805 52.305176 -0.48562413
78.795731 50.553249 0
78.909935 50.449463 0.56268215
64 64 -0
64 64 -0
64 64 -0
71.841583 56.890648 -0.88229996
75.12677 53.91222 -0.83701396
76.874466 52.327721 -0.48533356
78.788826 50.592121 0
78.910896 50.481449 0.5621016
64 64 -0
64 64 -0
64 64 -0
71.850166 56.900127 -0.88229996
75.127441 53.936085 -0.8361488
76.915543 52.318882 -0.4863497
78.793449 50.620464 0
78.92337 50.50296 0.56195664
64 64 -0
64 64 -0
64 64 -0
71.858734 56.909618 -0.88229996
75.143448 53.94606 -0.83643794
76.914215 52.348423 -0.48576912
78.774811 50.669739 0
78.916519 50.541882 0.56108606
64 64 -0
64 64 -0
64 64 -0
71.874939 56.912243 -0.88315672
75.140205 53.973377 -0.83528477
76.966904 52.329277 -0.48722026
78.779312 50.698036 0
78.886421 50.601635 0.55934441
64 64 -0
64 64 -0
64 64 -0
71.875847 56.928631 -0.88229996
75.148453 53.990311 -0.83499563
76.96553 52.358841 -0.48663968
78.79924 50.712429 0
78.887131 50.633522 0.55876386
64 64 -0
64 64 -0
64 64 -0
71.892044 56.931297 -0.88315672
75.15284 54.010685 -0.83441961
76.983452 52.371048 -0.4867847
78.795906 50.747681 0
78.883919 50.668854 0.55803829
64 64 -0
64 64 -0
64 64 -0
71.927383 56.916889 -0.88615292
75.164902 54.02417 -0.83441961
76.989754 52.393665 -0.48649469
78.784737 50.789848 0
78.907761 50.679928 0.55832827
64 64 -0
64 64 -0
64 64 -0
71.893349 56.955872 -0.88187242
75.1632 54.037811 -0.83384246
77.000633 52.398056 -0.48663968
78.796593 50.795322 0
78.884781 50.716618 0.55716717
64 64 -0
64 64 -0
64 64 -0
71.909531 56.95858 -0.88272917
75.155914 54.068501 -0.83240128
77.002991 52.424145 -0.48620415
78.812538 50.81321 0
78.792152 50.831356 0.5531038
64 64 -0
64 64 -0
64 64 -0
71.91803 56.96814 -0.88272917
75.171768 54.078556 -0.83268929
76.989784 52.464012 -0.48518857
78.797325 50.858768 0
78.590454 51.042488 0.544976
64 64 -0
64 64 -0
64 64 -0
71.914993 56.98793 -0.88144487
75.172142 54.102345 -0.83182526
77.003716 52.479713 -0.48518857
78.805405 50.883553 0
78.462189 51.187618 0.53960651
64 64 -0
64 64 -0
64 64 -0
71.950394 56.973698 -0.88444102
75.176338 54.122707 -0.8312481
77.002045 52.509201 -0.48460802
78.813454 50.90834 0
78.446503 51.232635 0.53844541
64 64 -0
64 64 -0
64 64 -0
71.928062 57.010471 -0.88101733
75.188263 54.136219 -0.8312481
77.019814 52.521488 -0.48475301
78.790207 50.960678 0
78.442436 51.267281 0.53771985
64 64 -0
64 64 -0
64 64 -0
71.963478 56.99633 -0.88401186
75.204071 54.14632 -0.83153725
77.018066 52.550957 -0.48417246
78.786415 50.995739 0
78.449997 51.291611 0.53742933
64 64 -0
64 64 -0
64 64 -0
71.97966 56.99918 -0.88486862
75.2043 54.170105 -0.83067209
77.039711 52.559834 -0.48446301
78.79821 51.017044 0
78.449715 51.322792 0.53684872
64 64 -0
64 64 -0
64 64 -0
71.976524 57.018974 -0.88358426
75.208374 54.190468 -0.83009493
77.03788 52.589287 -0.48388246
78.802132 51.045223 0
78.465027 51.34026 0.53684872
64 64 -0
64 64 -0
64 64 -0
72.00042 57.01511 -0.88529617
75.216324 54.207417 -0.82980692
77.079056 52.581135 -0.48489803
78.802094 51.076813 0
78.452919 51.38166 0.53583318
64 64 -0
64 64 -0
64 64 -0
71.977882 57.051758 -0.88187242
75.200836 54.244762 -0.82778859
77.092842 52.596947 -0.48489803
78.805916 51.104965 0
78.464226 51.402557 0.53568763
64 64 -0
64 64 -0
64 64 -0
71.970772 57.074871 -0.88016057
75.212616 54.258305 -0.82778859
77.094849 52.62299 -0.48446301
78.821487 51.122864 0
78.471596 51.426853 0.53539765
64 64 -0
64 64 -0
64 64 -0
71.998528 57.067699 -0.88229996
75.22438 54.271858 -0.82778859
77.124298 52.625206 -0.48504359
78.829178 51.147594 0
78.471069 51.457966 0.5348171
64 64 -0
64 64 -0
64 64 -0
72.003021 57.080723 -0.88187242
75.232216 54.288811 -0.82750058
77.14196 52.637676 -0.48518857
78.817131 51.189354 0
78.474411 51.485661 0.53438151
64 64 -0
64 64 -0
64 64 -0
72.015259 57.087048 -0.88229996
75.240028 54.305763 -0.82721257
77.167488 52.643379 -0.48562413
78.812897 51.224262 0
78.454109 51.533703 0.53307539
64 64 -0
64 64 -0
64 64 -0
72.019714 57.100082 -0.88187242
75.232132 54.33622 -0.82577139
77.185135 52.65591 -0.48576912
78.804657 51.262531 0
78.461288 51.557949 0.53278542
64 64 -0
64 64 -0
64 64 -0
72.027771 57.101585 -0.88229996
75.234047 54.346375 -0.82548338
77.191986 52.663879 -0.48576912
78.808388 51.274879 0
78.460915 51.573467 0.53249484
64 64 -0
64 64 -0
64 64 -0
72.043907 57.104603 -0.88315672
75.245705 54.359955 -0.82548338
77.205673 52.679829 -0.48576912
78.815857 51.299549 0
78.468033 51.59771 0.53220487
64 64 -0
64 64 -0
64 64 -0
72.060028 57.107658 -0.88401186
75.261276 54.370193 -0.82577139
77.23909 52.678909 -0.48649469
78.823273 51.324234 0
78.447449 51.645607 0.53089815
64 64 -0
64 64 -0
64 64 -0
72.072266 57.114063 -0.88444102
75.245346 54.40731 -0.82375306
77.217178 52.725266 -0.48518857
78.818779 51.359039 0
78.462372 51.663071 0.53089815
64 64 -0
64 64 -0
64 64 -0
72.06102 57.140465 -0.88229996
75.260864 54.417557 -0.82404107
77.226837 52.744606 -0.48504359
78.834045 51.376953 0
78.46936 51.687286 0.53060818
64 64 -0
64 64 -0
64 64 -0
72.061485 57.156853 -0.88144487
75.264557 54.437859 -0.82346505
77.256279 52.747147 -0.48562413
78.821518 51.418457 0
78.464417 51.721592 0.52988261
64 64 -0
64 64 -0
64 64 -0
72.057983 57.176552 -0.88016057
75.264252 54.461506 -0.82259989
77.250023 52.779972 -0.48489803
78.836716 51.436375 0
78.467346 51.749157 0.52944708
64 64 -0
64 64 -0
64 64 -0
72.077995 57.176353 -0.88144487
75.275772 54.475124 -0.82259989
77.287399 52.775864 -0.48576912
78.828018 51.474472 0
78.454338 51.790123 0.52843094
64 64 -0
64 64 -0
64 64 -0
72.082314 57.189423 -0.88101733
75.283325 54.492088 -0.82231188
77.285057 52.805321 -0.48518857
78.803345 51.525932 0
78.457169 51.817635 0.52799594
64 64 -0
64 64 -0
64 64 -0
72.09446 57.195892 -0.88144487
75.2948 54.505726 -0.82231188
77.278687 52.8381 -0.48446301
78.80645 51.553879 0
78.459946 51.845146 0.52756035
64 64 -0
64 64 -0
64 64 -0
72.106606 57.202385 -0.88187242
75.298347 54.526024 -0.82173586
77.3041 52.844143 -0.48489803
78.817497 51.575119 0
78.458694 51.875984 0.5269798
64 64 -0
64 64 -0
70.440598 58.612621 -0.93006301
72.122696 57.205589 -0.88272917
75.305801 54.543011 -0.82144672
77.30162 52.873566 -0.48431745
78.824501 51.599716 0
78.461365 51.903473 0.52654427
64 64 -0
64 64 -0
70.427597 58.636684 -0.92724913
72.123009 57.221992 -0.88187242
75.309288 54.563301 -0.8208707
77.331017 52.876328 -0.48489803
78.819496 51.634308 0
78.475975 51.920952 0.52654427
64 64 -0
64 64 -0
64 64 -0
72.135139 57.228531 -0.88229996
75.288879 54.603447 -0.81856436
77.340454 52.895767 -0.48475301
78.826431 51.658878 0
78.482574 51.945095 0.52625424
64 64 -0
64 64 -0
70.389717 58.694431 -0.91993219
72.147278 57.235077 -0.88272917
75.292252 54.623711 -0.8179872
77.365868 52.901932 -0.48518857
78.817299 51.696758 0
78.489128 51.96925 0.52596372
64 64 -0
64 64 -0
70.431335 58.672985 -0.92499757
72.151482 57.248211 -0.88229996
75.303574 54.63736 -0.8179872
77.359253 52.934662 -0.48446301
78.82415 51.721306 0
78.479645 52.006653 0.52509314
64 64 -0
64 64 -0
70.500435 58.628983 -0.93400156
72.143799 57.271149 -0.88058811
75.306915 54.657608 -0.81741118
77.37262 52.950809 -0.48446301
78.814888 51.759125 0
78.474106 52.040703 0.52436757
64 64 -0
64 64 -0
70.50692 58.636841 -0.93400156
72.16777 57.267929 -0.88229996
75.302223 54.684441 -0.81625801
77.385956 52.966976 -0.48446301
78.825661 51.780342 0
78.488541 52.058201 0.52436757
64 64 -0
64 64 -0
70.518013 58.634308 -0.93512845
72.183731 57.263073 -0.88358426
75.295868 54.701134 -0.81539285
77.408669 52.961853 -0.48504359
78.816963 51.802536 0
78.471672 52.086781 0.52349645
64 64 -0
64 64 -0
70.485229 58.674431 -0.9295007
72.179962 57.282745 -0.88229996
75.303101 54.718071 -0.81510484
77.42601 52.97477 -0.48518857
78.803543 51.843559 0
78.465981 52.120762 0.52277094
64 64 -0
64 64 -0
70.527039 58.653294 -0.93456608
72.196022 57.286121 -0.88315672
75.302299 54.741573 -0.81423968
77.431274 52.997593 -0.48489803
78.810165 51.868057 0
78.47229 52.144829 0.52248091
64 64 -0
64 64 -0
70.517754 58.674046 -0.93231457
72.212067 57.289536 -0.88401186
75.313477 54.755234 -0.81423968
77.448593 53.010532 -0.48504359
78.824814 51.885963 0
78.466484 52.178764 0.52175534
64 64 -0
64 64 -0
70.500542 58.701195 -0.92893618
72.208244 57.309189 -0.88272917
75.312622 54.778709 -0.81337565
77.441711 53.043217 -0.48431745
78.835403 51.907169 0
78.480759 52.196255 0.52175534
64 64 -0
64 64 -0
70.546371 58.676987 -0.93456608
72.208351 57.325596 -0.88187242
75.299667 54.811974 -0.81164533
77.467041 53.049629 -0.48475301
78.841919 51.931679 0
78.47081 52.233437 0.52088422
64 64 -0
64 64 -0
70.548843 58.68811 -0.93400156
72.240341 57.316105 -0.88444102
75.31076 54.82563 -0.81164533
77.460083 53.082275 -0.48402745
78.840324 51.962738 0
78.476952 52.257473 0.52059424
64 64 -0
64 64 -0
70.582916 58.673649 -0.93794233
72.224457 57.345451 -0.88187242
75.297714 54.858822 -0.80991614
77.48539 53.088737 -0.48446301
78.842728 51.99049 0
78.483047 52.281517 0.52030367
64 64 -0
64 64 -0
70.553757 58.710331 -0.93287688
72.232491 57.355392 -0.88187242
75.312775 54.869232 -0.81020415
77.486427 53.114834 -0.48402745
78.836983 52.024773 0
78.481018 52.31208 0.51972312
64 64 -0
64 64 -0
70.579933 58.70232 -0.93569076
72.252518 57.355682 -0.88315672
75.303658 54.899128 -0.80876297
77.49147 53.137661 -0.4837369
78.82711 52.062302 0
78.466805 52.352394 0.51870757
64 64 -0
64 64 -0
70.562561 58.729362 -0.93231457
72.236511 57.384956 -0.88058811
75.298508 54.925751 -0.8076098
77.500534 53.157223 -0.48359191
78.817184 52.099777 0
78.476807 52.373146 0.51856202
64 64 -0
64 64 -0
70.560989 58.743656 -0.93118769
72.256523 57.385277 -0.88187242
75.305435 54.942638 -0.80732179
77.509575 53.176788 -0.4834469
78.831551 52.117687 0
78.470566 52.406891 0.51783645
64 64 -0
64 64 -0
70.567337 58.751587 -0.93118769
72.276543 57.385643 -0.88315672
75.29615 54.972462 -0.80587947
77.526703 53.18988 -0.48359191
78.833694 52.14537 0
78.480507 52.427624 0.51769143
64 64 -0
64 64 -0
70.573669 58.759529 -0.93118769
72.284531 57.395645 -0.88315672
75.303009 54.989342 -0.80559146
77.539749 53.20623 -0.48359191
78.839874 52.169785 0
78.478226 52.458088 0.51711088
64 64 -0
64 64 -0
70.564087 58.780128 -0.92893618
72.280441 57.415253 -0.88187242
75.313889 55.003006 -0.80559146
77.540596 53.232292 -0.48315689
78.83786 52.200684 0
78.496223 52.472359 0.5172559
64 64 -0
64 64 -0
70.562439 58.794373 -0.9278115
72.288399 57.425262 -0.88187242
75.292328 55.0424 -0.80328512
77.557663 53.245438 -0.48330191
78.8358 52.23156 0
78.49794 52.499561 0.51682091
64 64 -0
64 64 -0
70.5616 58.801491 -0.92724913
72.292366 57.430271 -0.88187242
75.285591 55.058853 -0.80242109
77.543793 53.26976 -0.48257634
78.842903 52.240524 0
78.484512 52.524467 0.5160948
64 64 -0
64 64 -0
70.60376 58.781067 -0.93231457
72.260025 57.472122 -0.87759358
75.280151 55.085323 -0.80126792
77.556747 53.286133 -0.48257634
78.840767 52.271378 0
78.490219 52.548416 0.51580477
64 64 -0
64 64 -0
70.566154 58.823662 -0.92612231
72.292091 57.463043 -0.88016057
75.290916 55.098961 -0.80126792
77.557434 53.31218 -0.48214078
78.830399 52.308659 0
78.467316 52.594887 0.51449865
64 64 -0
64 64 -0
70.608353 58.803329 -0.93118769
72.299988 57.473068 -0.88016057
75.297585 55.115818 -0.80097878
77.54174 53.351059 -0.48112467
78.840424 52.3298 0
78.501511 52.596317 0.51522422
64 64 -0
64 64 -0
70.630623 58.798771 -0.93343925
72.307861 57.483101 -0.88016057
75.312393 55.126274 -0.80126792
77.566872 53.357803 -0.48156023
78.838135 52.360592 0
78.490753 52.633087 0.51435363
64 64 -0
64 64 -0
70.63517 58.82106 -0.93231457
72.323586 57.503197 -0.88016057
75.28894 55.188652 -0.79809642
77.584351 53.397022 -0.48126966
78.837494 52.418903 0
78.42395 52.741688 0.5110153
64 64 -0
64 64 -0
70.617355 58.847816 -0.92893618
72.323341 57.519562 -0.87930542
75.299583 55.202297 -0.79809642
77.605354 53.407051 -0.48156023
78.81041 52.468811 0
75.649292 54.930016 0.4123255
64 64 -0
64 64 -0
70.639626 58.843349 -0.93118769
72.339264 57.523331 -0.88016057
75.306122 55.219128 -0.79780841
77.605827 53.433064 -0.48112467
78.783234 52.518635 0
75.66024 54.944099 0.4123255
64 64 -0
64 64 -0
70.677994 58.826477 -0.93569076
72.347084 57.533409 -0.88016057
75.300369 55.245468 -0.79665524
77.548752 53.503616 -0.47865742
78.838234 52.504635 0
75.683502 54.948647 0.41276106
64 64 -0
64 64 -0
70.660118 58.853188 -0.93231457
72.346771 57.549774 -0.87930542
75.290474 55.27494 -0.79521406
77.594322 53.494572 -0.47981855
75.726318 54.938126 0
75.673874 54.978653 0.4120355
64 64 -0
64 64 -0
70.654259 58.870552 -0.93062538
72.354561 57.559864 -0.87930542
75.296913 55.291744 -0.79492605
75.763153 54.932346 -0.41479942
75.716637 54.968201 0
64 64 0
64 64 -0
64 64 -0
70.660446 58.878593 -0.93062538
72.378616 57.557446 -0.88101733
75.278717 55.327477 -0.79290771
75.782349 54.940224 -0.41508996
75.702789 55.001396 0
75.708008 54.997383 0.41247106
64 64 -0
64 64 -0
70.670662 58.883556 -0.93118769
72.370102 57.580074 -0.87930542
75.272774 55.353706 -0.79175454
75.743797 54.992424 -0.41334829
75.730179 55.002872 0
75.657021 55.058983 0.41029382
64 64 -0
64 64 -0
70.652634 58.910141 -0.9278115
72.398239 57.574596 -0.88144487
75.307854 55.348476 -0.79348373
75.779434 54.987679 -0.41421884
75.728638 55.026543 0
75.671936 55.069923 0.41043881
64 64 -0
64 64 -0
70.658775 58.918182 -0.9278115
72.393745 57.594093 -0.88016057
75.314194 55.365284 -0.79319572
75.823364 54.976692 -0.41537997
75.739471 55.040722 0
75.73642 55.043045 0.4123255
64 64 -0
64 64 -0
70.697258 58.901608 -0.93231457
72.40966 57.598015 -0.88101733
75.304039 55.394623 -0.79175454
75.834259 54.990986 -0.41537997
75.510086 55.23777 0
75.80513 55.013157 0.41435772
64 64 -0
64 64 -0
70.692238 58.911812 -0.93118769
72.40126 57.612423 -0.87973297
75.317467 55.395199 -0.79233056
75.827286 55.007576 -0.41494441
75.212929 55.474678 0
75.843643 54.99514 0.41551828
64 64 -0
64 64 -0
70.69838 58.919903 -0.93118769
72.417145 57.616379 -0.88058811
75.344337 55.396378 -0.79348373
75.817444 55.037575 -0.41421884
75.111259 55.573147 0
64 64 0
64 64 -0
64 64 -0
70.70047 58.931061 -0.93062538
72.428955 57.623451 -0.88101733
75.375366 55.394478 -0.79492605
75.836555 55.045582 -0.41450942
75.117287 55.589714 0
64 64 0
64 64 -0
64 64 -0
70.694412 58.948349 -0.92893618
72.436661 57.63364 -0.88101733
75.410522 55.389538 -0.79665524
75.922028 55.003551 -0.41712165
64 64 0
64 64 0
64 64 -0
64 64 -0
70.688347 58.965599 -0.92724913
72.436134 57.650017 -0.88016057
75.425049 55.400223 -0.79694325
75.945351 55.008583 -0.41755721
75.100143 55.644787 0
75.89119 55.049355 0.41566384
64 64 -0
64 64 -0
70.698479 58.970638 -0.9278115
72.46022 57.647888 -0.88187242
75.456108 55.398506 -0.79838443
76.014381 54.979347 -0.41958889
75.076942 55.683197 0
75.885368 55.07621 0.41508329
64 64 -0
64 64 -0
70.712677 58.972649 -0.92893618
72.467888 57.658112 -0.88187242
75.503754 55.384453 -0.80097878
76.041916 54.981407 -0.42016944
75.061981 55.715313 0
75.912781 55.078117 0.41566384
64 64 -0
64 64 -0
70.747253 58.959469 -0.93287688
72.471436 57.671421 -0.88144487
75.526596 55.389069 -0.80184394
76.03199 55.011513 -0.41944388
75.03862 55.753605 0
75.923553 55.092518 0.41566384
64 64 -0
64 64 -0
70.761482 58.961559 -0.93400156
72.495544 57.669388 -0.88315672
75.566032 55.381363 -0.80386227
75.959496 55.088165 -0.4165411
75.031883 55.779388 0
75.9468 55.097626 0.41609883
64 64 -0
64 64 -0
70.730858 58.997013 -0.92893618
72.511421 57.673538 -0.88401186
75.580582 55.392262 -0.80415028
77.834564 53.7169 -0.48141524
75.008392 55.817566 0
75.982582 55.09346 0.41696995
64 64 -0
64 64 -0
70.749153 58.996067 -0.93062538
72.514938 57.686882 -0.88358426
75.599297 55.400093 -0.80472744
77.838623 53.739819 -0.48112467
75.022461 55.827766 0
76.001678 55.101761 0.41725996
64 64 -0
64 64 -0
70.747032 59.010265 -0.9295007
72.53495 57.688015 -0.88486862
75.613831 55.411041 -0.80501544
77.842659 53.762722 -0.48083466
75.049072 55.828709 0
76.029129 55.103909 0.41784051
64 64 -0
64 64 -0
70.744865 59.02446 -0.92837381
72.530174 57.707478 -0.88358426
75.632523 55.418945 -0.80559146
77.8592 53.776375 -0.48097968
75.046364 55.851337 0
76.044052 55.115368 0.4179855
64 64 -0
64 64 -0
70.779526 59.011528 -0.93231457
72.541901 57.714752 -0.88401186
75.638718 55.436069 -0.80530345
77.875725 53.790051 -0.48112467
75.035248 55.880112 0
78.541054 53.300491 0.5041942
64 64 -0
64 64 -0
70.748688 59.046783 -0.92724913
72.557777 57.718994 -0.88486862
75.64489 55.453194 -0.80501544
77.867104 53.822197 -0.4803991
75.036644 55.89962 0
78.545593 53.324215 0.50390416
64 64 -0
64 64 -0
70.750549 59.057949 -0.92668462
72.561218 57.732368 -0.88444102
75.642685 55.476444 -0.80415028
77.887772 53.832825 -0.48068911
75.017044 55.934475 0
78.562675 53.33873 0.50404918
64 64 -0
64 64 -0
70.785248 59.045128 -0.93062538
72.560486 57.748779 -0.88358426
75.65715 55.487469 -0.80443829
77.904251 53.846539 -0.48083466
75.01416 55.957005 0
74.945335 56.007263 0.37850982
64 64 -0
64 64 -0
70.77182 59.061207 -0.92837381
72.576706 57.744873 -0.88486862
75.662292 55.494514 -0.80443829
77.918777 53.848824 -0.48112467
64 64 0
74.962761 56.004688 0.37894535
64 64 -0
64 64 -0
70.773674 59.07238 -0.9278115
72.588409 57.752224 -0.88529617
75.651642 55.523823 -0.80299711
77.93103 53.865646 -0.48112467
75.05397 55.958614 0
74.968216 56.020996 0.37880036
64 64 -0
64 64 -0
70.787842 59.074604 -0.92893618
72.612572 57.750546 -0.88700801
75.607452 55.5774 -0.79924959
77.947472 53.87944 -0.48126966
75.08474 55.956696 0
78.565559 53.430939 0.50259751
64 64 -0
64 64 -0
70.818497 59.064926 -0.93231457
72.632599 57.751923 -0.88829231
75.575729 55.621758 -0.79636723
77.947067 53.905434 -0.48083466
75.090233 55.973145 0
78.595161 53.436359 0.50317806
64 64 -0
64 64 -0
70.803864 59.088039 -0.9295007
72.656792 57.75034 -0.89000422
75.548096 55.662998 -0.79377288
77.967674 53.916214 -0.48112467
75.09993 55.986549 0
78.633202 53.435745 0.50404918
64 64 -0
64 64 -0
70.805656 59.099243 -0.92893618
72.626846 57.7878 -0.88615292
75.545563 55.686028 -0.79290771
77.979851 53.933098 -0.48112467
75.122276 55.990837 0
78.662827 53.441284 0.50462973
64 64 -0
64 64 -0
70.807449 59.110432 -0.92837381
72.630165 57.801235 -0.88572371
75.534599 55.715073 -0.79146653
78.000458 53.943928 -0.48141524
75.131943 56.004284 0
78.70089 53.440826 0.50550032
64 64 -0
64 64 -0
70.796829 59.130501 -0.92612231
72.650169 57.802692 -0.88700801
75.531982 55.738056 -0.79060137
77.991463 53.975994 -0.48068911
75.145828 56.014713 0
78.722099 53.452538 0.50579083
64 64 -0
64 64 -0
70.798576 59.141666 -0.92555994
72.661827 57.810165 -0.88743556
75.53775 55.755001 -0.79031336
78.012024 53.986858 -0.48097968
75.176636 56.013058 0
78.755966 53.455231 0.5065164
64 64 -0
64 64 -0
70.804443 59.149887 -0.92555994
72.715294 57.787857 -0.89214361
75.547707 55.768948 -0.79031336
78.007187 54.015862 -0.4803991
75.262581 55.972183 0
78.777153 53.467041 0.50680643
64 64 -0
64 64 -0
70.835136 59.14045 -0.92893618
72.701874 57.813263 -0.89000422
75.553413 55.785912 -0.79002422
78.01078 54.038811 -0.48010913
75.403763 55.892307 0
78.836464 53.451775 0.50840306
64 64 -0
64 64 -0
70.845161 59.145763 -0.9295007
72.721893 57.81488 -0.89128685
75.554901 55.805859 -0.7894482
78.048233 54.037716 -0.48097968
75.472984 55.863945 0
78.874626 53.451679 0.50927365
64 64 -0
69.654099 60.000664 -0.9553721
70.83857 59.162846 -0.9278115
72.741943 57.816525 -0.89257121
75.564789 55.819824 -0.7894482
78.051765 54.060707 -0.48068911
78.848175 53.497375 0
78.934036 53.436646 0.51087034
64 64 -0
64 64 -0
70.840263 59.174038 -0.92724913
72.741028 57.833008 -0.89171606
75.566223 55.839764 -0.78887218
78.051041 54.08667 -0.48025411
78.835327 53.533333 0
78.946793 53.454697 0.51087034
64 64 -0
69.831978 59.89595 -0.98375005
70.871017 59.164764 -0.93062538
72.756859 57.837669 -0.89257121
75.537987 55.880547 -0.7862767
78.063004 54.103657 -0.48025411
75.153381 56.151199 0
78.997765 53.44585 0.51217645
64 64 -0
69.643906 60.038486 -0.95121777
70.856064 59.187664 -0.9278115
72.73909 57.865948 -0.89000422
75.501228 55.927177 -0.78310633
78.074951 54.120655 -0.48025411
75.154327 56.17067 0
79.040291 53.443077 0.51319253
64 64 -0
69.683289 60.015968 -0.9574492
70.863121 59.188892 -0.92837381
72.742798 57.871227 -0.89000422
75.476448 55.954918 -0.78108799
78.072403 54.135132 -0.47996354
75.159058 56.17741 0
79.072189 53.434273 0.51406312
64 64 -0
69.564728 60.1091 -0.93668306
70.856438 59.205929 -0.92668462
72.771233 57.867088 -0.89214361
75.464966 55.983608 -0.77964681
78.084305 54.152145 -0.47996354
75.228226 56.149136 0
79.106232 53.437607 0.51478869
64 64 -0
69.668198 60.04694 -0.95329493
70.858055 59.217121 -0.92612231
72.778633 57.877693 -0.89214361
75.45343 56.01226 -0.77820563
78.087677 54.17511 -0.47967356
75.259048 56.147827 0
79.140297 53.441006 0.51551419
64 64 -0
69.640022 60.076714 -0.9477576
70.884689 59.210903 -0.92893618
72.786026 57.888306 -0.89214361
75.475807 56.01725 -0.77906966
78.099541 54.192139 -0.47967356
75.268532 56.161434 0
79.174385 53.444458 0.51624036
64 64 -0
69.665367 60.069233 -0.95121777
70.890472 59.219227 -0.92893618
72.793404 57.898926 -0.89214361
75.447197 56.057659 -0.77647531
78.107117 54.212143 -0.47952855
75.243782 56.198795 0
79.182846 53.465775 0.5160948
64 64 -0
69.649483 60.090355 -0.9477576
70.900429 59.224655 -0.9295007
72.817657 57.897869 -0.89385551
75.375977 56.127419 -0.7709986
78.127472 54.223286 -0.47981855
75.176163 56.265694 0
79.15284 53.513695 0.51464367
64 64 -0
69.650078 60.100033 -0.94706613
70.914551 59.22723 -0.93062538
72.820801 57.911442 -0.89342797
75.31736 56.188187 -0.76638591
78.126442 54.249222 -0.47938299
75.15123 56.30286 0
79.041473 53.617622 0.51043475
64 64 -0
69.733315 60.052799 -0.96021789
70.911949 59.241344 -0.9295007
72.823914 57.925022 -0.89299875
75.314011 56.21067 -0.76552075
78.125381 54.275131 -0.478948
75.147659 56.325195 0
78.994087 53.677055 0.50840306
64 64 -0
69.721535 60.071091 -0.9574492
70.913498 59.252586 -0.92893618
72.831245 57.935688 -0.89299875
75.306351 56.236061 -0.76436758
78.132828 54.295158 -0.47880244
78.851089 53.801933 0
79.045105 53.668709 0.50970918
64 64 -0
69.693161 60.100689 -0.95191193
70.915039 59.263813 -0.92837381
72.838562 57.946365 -0.89299875
75.341339 56.232185 -0.7660979
78.144539 54.312241 -0.47880244
78.846222 53.83165 0
79.126175 53.639908 0.51203144
64 64 -0
69.639854 60.147202 -0.94222033
70.912369 59.277897 -0.92724913
72.837402 57.962833 -0.89214361
75.38916 56.219635 -0.76869226
78.151947 54.332268 -0.47865742
78.824112 53.873085 0
79.336067 53.52335 0.51870757
64 64 -0
69.615494 60.173786 -0.93737721
70.913857 59.289124 -0.92668462
72.865906 57.959064 -0.89428306
75.419922 56.218842 -0.77013344
78.150734 54.358154 -0.47822189
78.827728 53.896873 0
79.572029 53.389732 0.52625424
64 64 -0
69.773643 60.076237 -0.96298385
70.932159 59.28891 -0.92837381
72.860451 57.978443 -0.89299875
75.416473 56.241371 -0.76926827
78.158081 54.378181 -0.47807688
75.193825 56.392685 0
79.885689 53.204098 0.53641319
64 64 -0
69.674568 60.153584 -0.94568312
70.933647 59.300137 -0.9278115
72.846474 58.003555 -0.89085931
75.43869 56.24646 -0.77013344
74.52198 56.86784 -0.35500529
78.860725 53.926888 0
75.055176 56.506424 0.37299478
64 64 -0
69.729073 60.126732 -0.95398641
70.930893 59.314217 -0.92668462
72.870728 58.002747 -0.89257121
75.456635 56.25449 -0.77071059
64 64 -0
78.842697 53.965263 0
75.072838 56.513962 0.37328535
64 64 -0
69.754562 60.119625 -0.9574492
70.932335 59.325432 -0.92612231
72.865196 58.022083 -0.89128685
75.538887 56.219173 -0.77561128
64 64 -0
78.824615 54.003563 0
75.090485 56.521542 0.37357533
64 64 -0
69.692627 60.171383 -0.94637465
70.950638 59.325302 -0.9278115
72.88945 58.021339 -0.89299875
75.475319 56.282196 -0.77071059
64 64 -0
75.252052 56.432354 0
75.13401 56.511745 0.37473646
64 64 -0
69.703262 60.169231 -0.9477576
70.974548 59.315338 -0.93062538
72.880287 58.03529 -0.89171606
75.385498 56.352592 -0.76436758
74.543411 56.918201 -0.35471475
75.235023 56.453663 0
75.147156 56.512684 0.37502646
64 64 -0
69.728729 60.162167 -0.95121777
70.963318 59.335083 -0.92837381
72.887489 58.046024 -0.89171606
75.31308 56.421051 -0.75889087
74.577881 56.913586 -0.35558584
75.200897 56.496208 0
75.14325 56.534824 0.37459147
64 64 -0
69.76722 60.15654 -0.95606357
70.970345 59.354736 -0.9278115
72.88903 58.076065 -0.89043176
75.180717 56.548809 -0.74880147
74.659828 56.895947 -0.35776252
75.110718 56.595459 0
75.169899 56.556019 0.37488145
64 64 -0
69.734253 60.188507 -0.94983476
70.971725 59.365974 -0.92724913
72.913284 58.075439 -0.89214361
75.142319 56.593826 -0.74562997
74.651093 56.920341 -0.35718197
75.110985 56.614655 0
75.191872 56.560886 0.37531701
64 64 -0
69.751404 60.187119 -0.95191193
70.977318 59.374401 -0.92724913
72.907593 58.094727 -0.89085931
75.142647 56.613007 -0.74505395
74.650986 56.938953 -0.35689196
75.189308 56.582069 0
75.153206 56.606007 0.37372035
64 64 -0
69.735085 60.207905 -0.94845182
70.987137 59.380035 -0.9278115
72.923294 58.099827 -0.89171606
75.138611 56.635036 -0.74418879
74.642166 56.963291 -0.35631141
75.202599 56.592728 0
75.17514 56.610886 0.37415591
64 64 -0
69.78154 60.187218 -0.9553721
70.992714 59.388481 -0.9278115
72.93042 58.110611 -0.89171606
75.138855 56.654202 -0.74361163
74.620285 56.996185 -0.3552953
75.250664 56.580471 0
75.244789 56.584343 0.37618756
64 64 -0
69.794518 60.188698 -0.95675504
70.994041 59.399723 -0.92724913
72.933228 58.124237 -0.89128685
75.182304 56.644928 -0.74591798
74.559273 57.054718 -0.35297307
75.250916 56.599796 0
75.201653 56.632195 0.37444645
64 64 -0
69.765556 60.21772 -0.95121777
70.995331 59.410973 -0.92668462
72.944626 58.13221 -0.89171606
75.195518 56.655598 -0.74620712
74.528557 57.093136 -0.35166696
75.22068 56.639088 0
75.227913 56.634346 0.37502646
64 64 -0
69.749138 60.238422 -0.9477576
71.00087 59.41943 -0.92668462
72.964584 58.134598 -0.89299875
75.230347 56.652142 -0.74793631
74.532547 57.108704 -0.35152194
75.212143 56.664051 0
75.245514 56.64222 0.37531701
64 64 -0
69.791489 60.220695 -0.95398641
71.036194 59.408451 -0.93062538
72.950172 58.159462 -0.89085931
75.247879 56.660069 -0.74851233
74.545212 57.118599 -0.35166696
75.225357 56.674763 0
75.232635 56.670013 0.37459147
64 64 -0
69.766624 60.246849 -0.94914329
71.01619 59.433582 -0.92724913
72.965836 58.164673 -0.89171606
75.261086 56.670837 -0.74880147
74.557877 57.128513 -0.35181195
75.256012 56.674137 0
64 64 0
64 64 -0
69.77536 60.251091 -0.94983476
71.021706 59.442062 -0.92724913
72.959961 58.183899 -0.89043176
75.278603 56.678818 -0.74937749
74.574898 57.135609 -0.35210252
75.26049 56.690575 0
75.163139 56.753769 0.37168866
64 64 -0
69.813583 60.236256 -0.9553721
71.027206 59.45055 -0.92724913
72.988525 58.180782 -0.89257121
75.296135 56.686825 -0.74995464
74.644249 57.108856 -0.35413417
75.238739 56.72398 0
75.171883 56.767265 0.37168866
64 64 -0
69.792824 60.259621 -0.95121777
71.024155 59.464561 -0.92612231
72.969681 58.208351 -0.89000422
75.335365 56.680847 -0.75197184
74.84903 56.994873 -0.36066532
75.23877 56.743217 0
75.198082 56.769493 0.37226921
64 64 -0
69.79734 60.266621 -0.95121777
71.04245 59.464798 -0.9278115
73.006874 58.199745 -0.89299875
75.365944 56.680546 -0.75341302
75.119621 56.839172 -0.36937314
75.260666 56.748344 0
75.233017 56.766151 0.3731398
64 64 -0
69.806084 60.270908 -0.95191193
71.052193 59.470566 -0.92837381
73.00956 58.213402 -0.89257121
75.409599 56.671921 -0.75571936
75.215721 56.796444 -0.37227592
75.278168 56.756336 0
75.289848 56.748833 0.37473646
64 64 -0
69.770325 60.298798 -0.94568312
71.050659 59.47757 -0.9278115
73.021706 58.213299 -0.89342797
75.38356 56.698357 -0.75370216
75.211319 56.808838 -0.37198538
75.286919 56.760345 0
75.294228 56.755653 0.37473646
64 64 -0
69.779022 60.30307 -0.94637465
71.034714 59.499779 -0.92499757
73.024353 58.226978 -0.89299875
75.348785 56.739998 -0.75081867
75.141205 56.872795 -0.36937314
75.308815 56.765572 0
75.26358 56.79451 0.37343034
64 64 -0
69.8004 60.299259 -0.94914329
71.065842 59.49189 -0.92837381
73.03566 58.235115 -0.89342797
75.353195 56.756496 -0.75053066
75.141052 56.891846 -0.36908314
75.330719 56.77084 0
79.403481 54.172356 0.51028973
64 64 -0
69.8218 60.295498 -0.95191193
71.054138 59.511345 -0.92612231
73.02095 58.259827 -0.89128685
75.357582 56.772995 -0.75024265
75.022491 56.986221 -0.36487421
75.321884 56.795712 0
79.358353 54.227242 0.50840306
64 64 -0
69.84745 60.289093 -0.9553721
71.063843 59.517151 -0.92668462
73.03656 58.265224 -0.89214361
75.431808 56.745155 -0.75456619
74.938812 57.058018 -0.36182645
75.34816 56.798241 0
79.155151 54.382252 0.50129139
64 64 -0
69.80529 60.325684 -0.9477576
71.064964 59.528404 -0.92612231
73.034798 58.281643 -0.89128685
75.5411 56.695339 -0.76119721
74.912064 57.093475 -0.36066532
78.848755 54.601841 0
78.977943 54.520073 0.49505082
64 64 -0
69.77578 60.354126 -0.94222033
71.074654 59.534233 -0.92668462
73.054733 58.28434 -0.89257121
75.619911 56.665112 -0.76580989
74.942368 57.092796 -0.36139089
78.838104 54.633678 0
78.971809 54.549274 0.49447024
64 64 -0
69.839638 60.323677 -0.95191193
71.088654 59.537365 -0.9278115
73.052948 58.300751 -0.89171606
75.703178 56.632309 -0.77071059
74.950706 57.106026 -0.36139089
78.844986 54.654396 0
79.031601 54.536911 0.49606693
64 64 -0
69.831322 60.338745 -0.94983476
71.081123 59.554043 -0.92612231
73.05983 58.311695 -0.89171606
75.764633 56.613457 -0.77416897
74.981033 57.105446 -0.36211643
78.847466 54.677868 0
79.205849 54.45285 0.50143641
64 64 -0
69.818733 60.356445 -0.94706613
71.090797 59.559906 -0.92668462
73.066696 58.322647 -0.89171606
75.782326 56.622181 -0.77474612
75.002571 57.110443 -0.36255199
78.832237 54.712395 0
79.402359 54.355396 0.50753194
64 64 -0
69.823128 60.363476 -0.94706613
71.113396 59.557713 -0.92893618
73.069183 58.336334 -0.89128685
75.778061 56.644646 -0.77388096
75.019699 57.118244 -0.36284199
78.839043 54.733078 0
79.484535 54.329971 0.5098542
64 64 -0
69.819008 60.375816 -0.94568312
71.101501 59.577057 -0.92668462
73.093452 58.336437 -0.89299875
75.764992 56.672554 -0.77243978
75.125061 57.071114 -0.36603534
78.84581 54.753765 0
79.522682 54.332199 0.51072532
64 64 -0
69.823387 60.382851 -0.94568312
71.106842 59.58564 -0.92668462
73.095932 58.350136 -0.89257121
75.769447 56.689503 -0.77215177
75.570442 56.813114 -0.38040316
78.856972 54.771709 0
79.521103 54.359192 0.51028973
64 64 -0
69.85334 60.374039 -0.94983476
71.116508 59.591545 -0.92724913
73.098389 58.363831 -0.89214361
75.77388 56.706451 -0.77186376
75.861847 56.651958 -0.38969153
78.845993 54.803371 0
79.528328 54.380684 0.51014477
64 64 -0
69.819298 60.404846 -0.94360602
71.104538 59.610832 -0.92499757
73.113922 58.369438 -0.89299875
75.751869 56.739716 -0.76984543
75.945869 56.619865 -0.39215878
78.848228 54.82679 0
79.513405 54.415848 0.50927365
64 64 -0
69.827911 60.409252 -0.94429749
71.096848 59.627419 -0.92330837
73.120712 58.380455 -0.89299875
75.76944 56.748501 -0.77042145
75.839752 56.705177 -0.38838542
78.841576 54.855659 0
79.476318 54.464581 0.50767756
64 64 -0
69.842903 60.404884 -0.94637465
71.103813 59.629047 -0.92387074
73.128494 58.383266 -0.89342797
75.778236 56.752892 -0.77071059
75.680389 56.813095 -0.38301539
78.851547 54.861893 0
79.384689 54.533852 0.50448418
64 64 -0
69.825859 60.425064 -0.94291449
71.135086 59.621681 -0.92724913
73.139648 58.391621 -0.89385551
75.795792 56.761723 -0.77128661
75.622643 56.867973 -0.38083872
78.844833 54.890736 0
79.196815 54.674747 0.49795359
64 64 -0
69.85585 60.416397 -0.94706613
71.131691 59.635616 -0.92612231
73.133278 58.410709 -0.89257121
75.778061 56.792179 -0.76955742
75.644531 56.873894 -0.38127372
78.851372 54.911404 0
79.017471 54.809753 0.49171302
64 64 -0
69.830185 60.441776 -0.94222033
71.158646 59.631004 -0.92893618
73.148796 58.416393 -0.89342797
75.769104 56.817192 -0.76840425
75.653137 56.88797 -0.38127372
78.826805 54.95105 0
79.028572 54.827908 0.49171302
64 64 -0
69.843063 60.4436 -0.94360602
71.155243 59.644936 -0.9278115
73.164299 58.422119 -0.89428306
75.773361 56.834106 -0.76811624
75.73275 56.858822 -0.38359597
75.036438 57.282639 0
79.115105 54.80014 0.49418026
64 64 -0
69.881668 60.429832 -0.94914329
71.173538 59.645672 -0.9295007
73.175415 58.430534 -0.8947106
75.777573 56.851028 -0.76782709
75.839096 56.813686 -0.38678876
75.035652 57.301373 0
79.317223 54.702465 0.50042081
64 64 -0
69.864525 60.449932 -0.94568312
71.17009 59.659611 -0.92837381
73.17775 58.444283 -0.89428306
75.777359 56.870617 -0.76725107
75.905579 56.793003 -0.38867599
75.03038 57.3228 0
79.43515 54.656391 0.50390416
64 64 -0
69.881683 60.449249 -0.9477576
71.153587 59.681408 -0.92555994
73.180069 58.458027 -0.89385551
75.79039 56.882183 -0.76753908
75.958763 56.78054 -0.39012709
75.056259 57.325375 0
79.517593 54.632084 0.50622582
64 64 -0
69.873085 60.464115 -0.94568312
71.167496 59.684814 -0.92668462
73.191147 58.466476 -0.89428306
75.710342 56.949799 -0.76177323
76.043159 56.749428 -0.39259434
75.050934 57.346794 0
79.5289 54.650841 0.50622582
64 64 -0
69.864441 60.478966 -0.94360602
71.185776 59.685631 -0.92837381
73.202225 58.474945 -0.8947106
75.563644 57.057144 -0.75168383
76.114281 56.72654 -0.39462599
75.032204 57.376225 0
79.495636 54.696358 0.50477475
64 64 -0
69.88591 60.475742 -0.94637465
71.182274 59.699532 -0.92724913
73.200096 58.491341 -0.89385551
75.341255 57.209297 -0.73669374
76.15873 56.719826 -0.39578712
78.867096 55.09816 0
79.453369 54.747124 0.50303304
64 64 -0
69.903091 60.47514 -0.94845182
71.200546 59.700405 -0.92893618
73.215553 58.4972 -0.8947106
75.18956 57.318478 -0.7263152
76.167519 56.73452 -0.39578712
78.877846 55.116127 0
79.286072 54.872368 0.49722803
64 64 -0
69.88578 60.495117 -0.94498897
71.188271 59.719509 -0.92668462
73.235435 58.500458 -0.8959949
75.019859 57.437862 -0.71478462
76.136108 56.773155 -0.394481
78.843842 55.160748 0
78.654137 55.273712 0.47632906
64 64 -0
69.915909 60.486855 -0.94914329
71.197815 59.725594 -0.92724913
73.233231 58.516869 -0.89513814
74.72979 57.628143 -0.69546986
76.073334 56.830284 -0.39215878
78.841095 55.186653 0
78.570839 55.347145 0.47328129
64 64 -0
69.898567 60.506786 -0.94568312
71.233574 59.716175 -0.93118769
73.239853 58.52803 -0.89513814
74.474884 57.796623 -0.67846143
76.023865 56.879299 -0.39027211
78.914429 55.167465 0
78.532097 55.39389 0.4716846
64 64 -0
69.894135 60.519024 -0.94429749
71.216866 59.737839 -0.92837381
73.25531 58.53397 -0.8959949
74.357658 57.882942 -0.67038924
76.032455 56.893833 -0.39027211
78.86235 55.222546 0
78.551422 55.406174 0.47197461
64 64 -0
69.928604 60.508324 -0.94914329
71.217636 59.749138 -0.9278115
73.248627 58.552979 -0.8947106
74.365036 57.895462 -0.67038924
76.058945 56.897827 -0.39085266
78.881905 55.235233 0
78.5215 55.447495 0.47066849
64 64 -0
69.924156 60.520576 -0.9477576
71.218391 59.760433 -0.92724913
73.250778 58.566753 -0.89428306
74.36795 57.910606 -0.67010123
76.058563 56.917664 -0.39056265
78.901451 55.247955 0
78.536316 55.46241 0.47081405
64 64 -0
69.906708 60.540413 -0.94429749
71.205971 59.77943 -0.92499757
73.261765 58.575344 -0.8947106
74.344055 57.941444 -0.66808289
76.058136 56.937496 -0.39027211
78.894073 55.276478 0
75.501907 57.263283 0.37226921
64 64 -0
69.913124 60.541451 -0.94498897
71.252373 59.758133 -0.93062538
73.278343 58.573162 -0.8959949
74.352188 57.945076 -0.66837204
76.057922 56.947403 -0.39012709
78.876862 55.298626 0
75.497009 57.275475 0.37197924
64 64 -0
69.977989 60.513203 -0.95468056
71.226761 59.784824 -0.92668462
73.271584 58.59214 -0.8947106
74.372894 57.949776 -0.66923606
75.069901 57.543228 -0.35790753
78.873886 55.324467 0
75.49614 57.294613 0.37168866
64 64 -0
69.921471 60.555752 -0.94498897
71.240646 59.788445 -0.9278115
73.291428 58.5956 -0.8959949
74.375725 57.964912 -0.66894805
74.844116 57.692474 -0.35036084
78.866364 55.352913 0
75.504234 57.30851 0.37168866
64 64 -0
69.934311 60.557869 -0.94637465
71.245728 59.797199 -0.9278115
73.302391 58.604256 -0.89642251
74.396439 57.969666 -0.66981322
74.842743 57.710793 -0.35007083
78.885796 55.365665 0
75.471863 57.345879 0.37038255
64 64 -0
69.929771 60.570072 -0.94498897
71.246407 59.808498 -0.92724913
73.295563 58.623215 -0.89513814
74.399246 57.984818 -0.66952521
74.719879 57.799355 -0.34586194
78.869194 55.399288 0
78.597229 55.556602 0.47095904
64 64 -0
69.977386 60.552162 -0.95191193
71.264664 59.809647 -0.92893618
73.302055 58.634453 -0.89513814
74.424431 57.987049 -0.67067838
74.808388 57.765579 -0.34847417
78.884079 55.414665 0
78.611916 55.571651 0.47110406
64 64 -0
69.951096 60.576904 -0.94706613
71.282936 59.810825 -0.93062538
73.304085 58.648251 -0.8947106
74.736588 57.824272 -0.69028115
74.824928 57.773453 -0.34876472
78.880905 55.440445 0
75.333733 57.480789 0.36515754
64 64 -0
69.933472 60.596577 -0.94360602
71.257133 59.83733 -0.92668462
73.319458 58.654385 -0.89556736
75.533737 57.384281 -0.74101728
74.823425 57.791714 -0.34847417
78.877701 55.466194 0
75.32357 57.504833 0.36457697
64 64 -0
69.963707 60.588806 -0.9477576
71.266579 59.843571 -0.92724913
73.294708 58.683495 -0.89257121
75.71685 57.29805 -0.75226098
74.821899 57.809952 -0.34818417
78.87896 55.489349 0
75.308853 57.531418 0.36385143
64 64 -0
69.932953 60.615902 -0.94222033
71.262764 59.857395 -0.92612231
73.323425 58.682014 -0.8947106
75.792328 57.273777 -0.75658453
74.888054 57.789562 -0.35007083
78.893745 55.504757 0
75.316666 57.54509 0.36385143
64 64 -0
69.950127 60.615631 -0.94429749
71.272171 59.863663 -0.92668462
73.329842 58.693283 -0.8947106
75.845398 57.262459 -0.75946689
75.022018 57.730789 -0.35413417
78.863289 55.545918 0
75.306389 57.569046 0.36327085
69.145973 61.081249 -0.97535926
70.02404 60.583214 -0.9553721
71.277168 59.872452 -0.92668462
73.336243 58.704559 -0.8947106
75.876045 57.264008 -0.7609092
75.011505 57.754368 -0.35355362
78.855377 55.574154 0
75.277985 57.603222 0.36210975
64 64 -0
70.01506 60.597908 -0.95329493
71.291008 59.87624 -0.9278115
73.342636 58.715843 -0.8947106
75.897667 57.270733 -0.76177323
74.951202 57.806049 -0.35137695
78.725113 55.671539 0
75.267609 57.62709 0.36152917
64 64 -0
69.970787 60.641972 -0.94498897
71.305374 59.891384 -0.92837381
73.346436 58.743465 -0.89385551
75.927429 57.291893 -0.76263839
74.798546 57.926788 -0.34600693
64 64 0
75.264877 57.664516 0.36094919
64 64 -0
69.99234 60.63937 -0.9477576
71.274872 59.920097 -0.92387074
73.357254 58.752254 -0.89428306
75.944534 57.301254 -0.76321441
74.710693 57.993221 -0.34295914
78.537315 55.847168 0
75.272522 57.678131 0.36094919
64 64 -0
69.952614 60.671097 -0.94083732
71.297539 59.918972 -0.92612231
73.363594 58.763565 -0.89428306
75.966171 57.308113 -0.76407957
74.658981 58.039139 -0.34107247
78.542603 55.86729 0
75.280159 57.691757 0.36094919
69.048721 61.180588 -0.95335442
69.98967 60.655125 -0.94637465
71.308884 59.918419 -0.92724913
73.384682 58.759209 -0.8959949
75.947632 57.327953 -0.76263839
74.508316 58.131725 -0.33613801
78.538429 55.881149 0
75.279419 57.701115 0.36080363
64 64 -0
70.015625 60.650162 -0.94983476
71.340446 59.912426 -0.93062538
73.395493 58.768059 -0.89642251
75.97377 57.332329 -0.76379156
74.397362 58.210159 -0.33236465
78.543686 55.901249 0
75.382362 57.661655 0.36385143
69.193817 61.116005 -0.9794333
70.0065 60.664742 -0.9477576
71.336502 59.926228 -0.9295007
73.397324 58.781906 -0.8959949
75.986336 57.344292 -0.76407957
74.395256 58.227779 -0.33207411
78.548897 55.921364 0
75.517227 57.604774 0.36791533
69.045944 61.206085 -0.95091188
70.001755 60.676857 -0.94637465
71.341415 59.935097 -0.9295007
73.390137 58.800728 -0.8947106
75.99437 57.35878 -0.76407957
74.534065 58.167343 -0.336283
78.595078 55.918777 0
75.61132 57.570873 0.37067255
64 64 -0
70.018951 60.676834 -0.94845182
71.315178 59.961166 -0.92555994
73.396416 58.812077 -0.8947106
76.025024 57.360779 -0.76552075
74.686691 58.099693 -0.34092745
78.650406 55.911255 0
75.587242 57.602482 0.36965701
64 64 -0
70.022957 60.684109 -0.94845182
71.333412 59.96265 -0.92724913
73.407173 58.820961 -0.89513814
76.033035 57.375313 -0.76552075
74.752991 58.080032 -0.34281415
74.967033 57.962193 0
75.453835 57.694187 0.36515754
69.134033 61.18158 -0.96557969
70.000565 60.705883 -0.94429749
71.333817 59.973969 -0.92668462
73.404427 58.837269 -0.89428306
76.05011 57.384872 -0.7660979
74.796577 58.073021 -0.34397525
74.887642 58.023033 0
75.3339 57.778046 0.36109418
69.107079 61.204403 -0.95987415
70.004539 60.713135 -0.94429749
71.338676 59.982834 -0.92668462
73.415161 58.846172 -0.8947106
76.076241 57.389503 -0.76725107
74.808289 58.08358 -0.34412026
74.885712 58.041195 0
75.300392 57.814201 0.35978806
69.114784 61.20821 -0.96068835
70.021721 60.713177 -0.94637465
71.352455 59.986828 -0.9278115
73.421379 58.857552 -0.8947106
76.106918 57.391712 -0.76869226
74.824547 58.091667 -0.34441027
74.906616 58.046871 0
75.285034 57.840317 0.35906196
69.135521 61.204941 -0.96394819
70.003662 60.732449 -0.94291449
71.348366 60.00058 -0.92668462
73.441116 58.861572 -0.8959949
76.123978 57.401405 -0.76926827
74.840813 58.099777 -0.34470081
74.900085 58.06752 0
75.356384 57.819172 0.36109418
69.173653 61.192284 -0.97046793
70.029648 60.727741 -0.94637465
71.38446 59.992493 -0.93062538
73.451828 58.870541 -0.89642251
76.131943 57.416058 -0.76926827
74.8936 58.088097 -0.34615192
74.925537 58.070763 0
75.446053 57.788284 0.36370641
69.172699 61.20089 -0.96965373
70.020355 60.742195 -0.94429749
71.358009 60.018349 -0.92668462
73.439957 58.891739 -0.8947106
76.139885 57.430721 -0.76926827
74.941872 58.079006 -0.34745803
74.937271 58.081493 0
75.330154 57.868893 0.35978806
69.30658 61.136726 -0.99410111
70.046364 60.73756 -0.9477576
71.367294 60.024822 -0.92724913
73.459686 58.895832 -0.8959949
76.166023 57.43557 -0.77042145
64 64 -0
74.916939 58.109539 0
74.962532 58.084942 0.34788692
69.236038 61.182953 -0.9802475
70.050301 60.744869 -0.9477576
