# .PCD v0.7 - Point Cloud Data file format
VERSION 0.7
FIELDS x y z
SIZE 4 4 4
TYPE F F F
COUNT 1 1 1
WIDTH 1647
HEIGHT 1
VIEWPOINT 0 0 0 1 0 0 0
POINTS 1647
DATA ascii
61.541798 69.159073 -0.94217193
61.141251 69.99971 -0.91680253
60.665169 70.998871 -0.85873401
59.41333 73.626129 -0.88883829
57.587986 77.457016 -0.83075076
56.137581 80.501007 -0.5104816
57.633678 77.361115 0
54.894852 83.109146 0.59116799
61.509983 69.209625 -0.95195156
61.153473 69.955513 -0.91057372
60.678623 70.948997 -0.85310626
59.408348 73.606674 -0.88755399
57.576187 77.439934 -0.83017468
56.101967 80.524307 -0.51149714
64 64 0
54.923306 82.990303 0.58783019
61.503693 69.206612 -0.95195156
61.128925 69.988266 -0.91611099
60.65485 70.977058 -0.85704696
59.390083 73.615013 -0.88883829
57.559952 77.432159 -0.83017468
56.11121 80.453835 -0.50961047
57.574406 77.402016 0
54.916096 82.946518 0.58681411
61.525261 69.14566 -0.94135463
61.134735 69.957672 -0.91195935
60.659641 70.945526 -0.85366857
59.376244 73.614059 -0.88926584
57.570629 77.368423 -0.82671517
56.102596 80.420876 -0.50888491
57.560471 77.389557 0
54.884201 82.954254 0.58739465
61.508301 69.164948 -0.94543183
61.131905 69.94516 -0.91057372
60.644623 70.955223 -0.85535777
59.373554 73.589966 -0.88755399
57.520763 77.430542 -0.83103985
57.031101 78.445541 -0.44792971
57.555603 77.35833 0
54.870335 82.924507 0.58681411
61.504219 69.157471 -0.94461447
61.124725 69.941689 -0.91057372
60.636223 70.951164 -0.85535777
59.355259 73.598244 -0.88883829
57.527081 77.376129 -0.82815635
56.997814 78.469841 -0.44894525
57.519062 77.392693 0
54.856529 82.894745 0.58623356
61.491512 69.167793 -0.94706017
61.128498 69.915642 -0.90711355
60.62339 70.956223 -0.85648245
59.343666 73.592621 -0.88883829
57.517693 77.354347 -0.82729232
57.003021 78.414627 -0.44749415
57.502884 77.38485 0
64 64 0
61.50042 69.133644 -0.94135463
61.134529 69.885109 -0.90296191
60.63501 70.911026 -0.85141706
59.32983 73.591599 -0.88926584
57.497036 77.355804 -0.82786834
57.017456 78.340759 -0.44546247
57.463936 77.423782 0
64 64 0
61.479031 69.161713 -0.94706017
61.114212 69.908684 -0.90711355
60.626659 70.906952 -0.85141706
59.311485 73.599792 -0.89055014
57.480904 77.347931 -0.82786834
57.02066 78.290291 -0.44415635
57.445438 77.420547 0
64 64 0
61.464096 69.176422 -0.95032007
61.107075 69.905197 -0.90711355
60.611607 70.916565 -0.85310626
59.302155 73.5895 -0.89012098
57.462505 77.344688 -0.82815635
56.991966 78.305176 -0.44488192
57.442963 77.384583 0
54.664719 83.055679 0.59261966
61.464386 69.160042 -0.94787437
61.08667 69.928703 -0.91126519
60.612217 70.894226 -0.85085469
59.2883 73.58844 -0.89055014
57.45779 77.313568 -0.82671517
56.995312 78.254723 -0.4435758
57.403843 77.423355 0
54.666912 82.99308 0.59102297
61.474361 69.131905 -0.94298613
61.072002 69.949471 -0.91472805
60.605812 70.896729 -0.85141706
59.298378 73.553337 -0.88755399
57.442894 77.323547 -0.82758033
56.959175 78.306427 -0.44531691
57.402622 77.405365 0
54.655441 82.987434 0.59102297
61.472542 69.11998 -0.94135463
61.109238 69.855942 -0.90088481
60.595226 70.897194 -0.85198152
59.280018 73.561462 -0.88883829
57.442829 77.283134 -0.825562
56.884384 78.414406 -0.44894525
57.370308 77.430046 0
54.591103 83.059998 0.5936352
61.459778 69.130211 -0.94380033
61.075447 69.906403 -0.90919071
60.584641 70.897629 -0.85254389
59.270752 73.55114 -0.88840908
57.440552 77.247398 -0.82383281
56.836998 78.466331 -0.45083192
57.330986 77.468681 0
54.574989 83.03466 0.59320021
61.497555 69.038597 -0.92750102
61.048225 69.943306 -0.91541952
60.587608 70.870743 -0.84973001
59.263779 73.536232 -0.88755399
57.410748 77.26725 -0.825562
56.759415 78.57869 -0.45460585
57.312401 77.465271 0
64 64 0
61.471626 69.075401 -0.93483806
61.088028 69.845421 -0.90088481
60.558918 70.907547 -0.85479546
59.249973 73.535095 -0.88798153
57.408558 77.231506 -0.82383281
56.730221 78.593185 -0.45533139
57.296139 77.457176 0
64 64 0
61.48317 69.036964 -0.92831832
61.056305 69.891258 -0.90849656
60.559662 70.885201 -0.85254389
59.245342 73.515564 -0.88669723
57.381016 77.246666 -0.82527399
56.721882 78.565796 -0.45475084
57.251965 77.504944 0
64 64 0
61.430576 69.126724 -0.94543183
61.067165 69.85183 -0.90296191
60.555901 70.871941 -0.85141706
59.24305 73.491455 -0.88498533
57.383556 77.20166 -0.82296765
56.69265 78.580215 -0.4554764
57.240318 77.487457 0
64 64 0
61.419949 69.132439 -0.94706017
61.066856 69.834831 -0.90088481
60.55444 70.854172 -0.84973001
59.217743 73.513229 -0.88755399
57.360638 77.207527 -0.82383281
56.691376 78.538872 -0.45446026
57.226364 77.47464 0
64 64 0
61.409294 69.138153 -0.94869167
61.059811 69.831284 -0.90088481
60.53701 70.868149 -0.85198152
59.201633 73.516602 -0.88840908
57.342358 77.204109 -0.82412082
56.690186 78.497559 -0.45344472
57.203053 77.480392 0
64 64 0
61.416473 69.108543 -0.94380033
61.052765 69.827728 -0.90088481
60.514957 70.891159 -0.85535777
59.197083 73.49707 -0.88712645
57.324074 77.200668 -0.82440883
56.639843 78.553635 -0.4554764
57.158585 77.527908 0
64 64 0
61.452785 69.021667 -0.92831832
61.029846 69.855469 -0.90572792
60.520424 70.859764 -0.85198152
59.185612 73.491257 -0.88712645
57.333866 77.141861 -0.82123846
56.601109 78.586441 -0.45678252
57.123405 77.556763 0
64 64 0
61.440002 69.031792 -0.93076086
61.034145 69.829521 -0.90226775
60.500618 70.878197 -0.85479546
59.18346 73.467133 -0.88541454
57.306263 77.156837 -0.82267964
56.604694 78.535805 -0.4554764
57.102314 77.557716 0
64 64 0
61.418194 69.059525 -0.9364664
61.04306 69.794662 -0.89742464
60.501549 70.855858 -0.85254389
59.169693 73.465874 -0.88584208
57.299778 77.13031 -0.82152647
56.589497 78.522232 -0.45533139
57.078835 77.563286 0
64 64 0
61.387306 69.104805 -0.94543183
61.004063 69.853607 -0.90711355
60.495579 70.847107 -0.85198152
59.151237 73.47374 -0.88712645
57.272133 77.145226 -0.82296765
56.590897 78.476257 -0.45417029
57.048229 77.582703 0
64 64 0
61.387913 69.088448 -0.94298613
60.987827 69.867836 -0.90988225
60.487309 70.842865 -0.85198152
59.139793 73.46788 -0.88712645
57.258614 77.132492 -0.82267964
56.563919 78.485794 -0.45475084
57.034195 77.569664 0
64 64 0
61.354614 69.138031 -0.9527657
60.996819 69.832962 -0.90503645
60.488346 70.820541 -0.84973001
59.137756 73.443741 -0.88541454
57.266426 77.078354 -0.81979728
56.570213 78.43058 -0.45329916
57.003513 77.588997 0
64 64 0
61.366554 69.099693 -0.94624597
60.996674 69.815964 -0.90296191
60.475449 70.825317 -0.85085469
59.114574 73.460663 -0.88755399
57.257751 77.056412 -0.81893212
56.557549 78.412369 -0.45300916
56.972767 77.608292 0
64 64 0
61.364944 69.087715 -0.94461447
60.989647 69.812332 -0.90296191
60.478889 70.798492 -0.84804082
59.096062 73.468437 -0.88883829
57.23484 77.062042 -0.81979728
56.544914 78.394142 -0.45271915
56.944363 77.622894 0
64 64 0
61.377018 69.049454 -0.93809789
61.017323 69.741898 -0.89257884
60.458965 70.81678 -0.85085469
59.079895 73.471603 -0.88969338
57.219063 77.053856 -0.81979728
56.522739 78.394341 -0.45300916
56.920708 77.62822 0
64 64 0
61.370918 69.04628 -0.93809789
61.001114 69.756088 -0.89534748
60.453079 70.807991 -0.85029233
59.082684 73.438339 -0.88712645
57.203297 77.045654 -0.81979728
56.481346 78.431374 -0.45446026
56.906654 77.615028 0
64 64 0
61.335068 69.100052 -0.94869167
60.99416 69.752464 -0.89534748
60.442505 70.808205 -0.85085469
59.090305 73.395988 -0.8837027
57.170776 77.069511 -0.82181448
56.473541 78.403854 -0.45387971
56.878151 77.629524 0
64 64 0
61.335793 69.083687 -0.94624597
60.970905 69.779938 -0.90019327
60.44136 70.79039 -0.8491655
59.055126 73.435516 -0.88798153
57.169392 77.033768 -0.82008529
56.432014 78.440788 -0.45533139
56.868938 77.607079 0
64 64 0
61.327354 69.084839 -0.94706017
60.980267 69.745178 -0.89534748
60.437881 70.7771 -0.84804082
59.060452 73.39772 -0.88498533
57.141617 77.048393 -0.82152647
56.400066 78.459229 -0.45620194
56.88398 77.538559 0
64 64 0
61.346561 69.033516 -0.93809789
60.973328 69.741531 -0.89534748
60.424957 70.781769 -0.8491655
59.065853 73.359962 -0.88199079
57.137913 77.017227 -0.82008529
56.365635 78.482216 -0.45721805
54.161407 82.663589 0
64 64 0
61.354347 69.004074 -0.93320656
60.961708 69.746727 -0.89673048
60.428642 70.75499 -0.84635162
59.032951 73.394844 -0.88584208
57.124603 77.004356 -0.81979728
56.360283 78.45002 -0.45649251
54.187511 82.559669 0
64 64 0
61.327465 69.040176 -0.94054043
60.91481 69.818413 -0.90849656
60.418102 70.755157 -0.84691393
59.024006 73.3843 -0.88541454
57.125862 76.964043 -0.81777894
56.291706 78.537186 -0.45954031
54.191917 82.497215 0
64 64 0
61.363831 68.964348 -0.92668682
60.946587 69.750084 -0.89811611
60.411633 70.757492 -0.84747845
59.008705 73.399429 -0.88712645
57.125313 76.946175 -0.81691378
56.265869 78.564644 -0.46055585
54.180744 82.491287 0
64 64 0
61.362476 68.952438 -0.92505848
60.908981 69.803963 -0.90711355
60.393913 70.771088 -0.84973001
59.01907 73.352615 -0.88327515
57.092651 76.969826 -0.81893212
56.2043 78.637863 -0.46316865
54.168194 82.461029 0
53.629761 83.472046 0.61613089
61.328548 69.001572 -0.93483806
60.925606 69.755974 -0.90019327
60.397713 70.744301 -0.84691393
58.998108 73.364685 -0.88498533
57.096481 76.924965 -0.81662577
57.38139 76.391548 -0.39234394
54.145897 82.449135 0
53.628273 83.418243 0.61482477
61.32951 68.98526 -0.93239236
60.937607 69.716866 -0.894656
60.389568 70.739944 -0.84691393
58.994061 73.34507 -0.8837027
57.07843 76.921173 -0.81691378
57.314892 76.479736 -0.3953917
54.116234 82.450989 0
53.595001 83.424026 0.61540532
61.321152 68.986382 -0.93320656
60.911705 69.748528 -0.90019327
60.383827 70.731102 -0.84635162
58.970627 73.361626 -0.88584208
57.070168 76.899124 -0.81604862
57.32933 76.416718 -0.39365005
54.123505 82.384003 0
53.566624 83.420586 0.6156953
61.282307 69.04406 -0.94461447
60.911903 69.731537 -0.89811611
60.373291 70.731201 -0.84691393
58.971493 73.332947 -0.8837027
57.047222 76.904404 -0.81691378
57.299538 76.436104 -0.39452115
54.096359 82.381233 0
53.508652 83.472023 0.61772752
61.310162 68.9636 -0.93076086
60.900448 69.71965 -0.89742464
60.357033 70.72242 -0.84691393
58.94651 73.325279 -0.88413024
57.030842 76.860283 -0.81518459
58.126183 74.839043 -0.3443054
57.352577 76.266579 0
52.250896 85.680786 0.68869668
61.252232 69.055901 -0.94869167
60.874371 69.751167 -0.90296191
60.353764 70.709091 -0.84578925
58.915634 73.355255 -0.88755399
57.017784 76.847298 -0.81489551
58.07835 74.895851 -0.34633708
57.315395 76.299698 0
52.212303 85.6894 0.68942225
61.260323 69.026527 -0.94380033
60.893841 69.698921 -0.89534748
60.352959 70.691284 -0.84410006
58.919079 73.322044 -0.88498533
57.019588 76.807068 -0.81287825
64 64 -0
57.255707 76.373863 0
52.163712 85.716225 0.69072896
61.277958 68.979851 -0.93565226
60.889362 69.690765 -0.894656
60.339996 70.695801 -0.84522694
58.915199 73.302399 -0.8837027
56.986759 76.830383 -0.81489551
64 64 -0
57.320637 76.219574 0
52.11256 85.747498 0.69218004
61.264809 68.989563 -0.93809789
60.868023 69.713394 -0.89880764
60.336796 70.682457 -0.84410006
58.886696 73.327744 -0.88669723
57.001091 76.767487 -0.81143707
64 64 -0
64 64 0
52.076298 85.751343 0.69276059
61.273075 68.960258 -0.93320656
60.885288 69.665642 -0.89188737
60.321381 70.691391 -0.84578925
58.875427 73.321564 -0.88669723
56.933338 76.85421 -0.81749094
64 64 -0
58.188778 74.570572 0
52.040009 85.755142 0.6933412
61.283794 68.926651 -0.92750102
60.863914 69.688232 -0.89603901
60.318207 70.678024 -0.84466243
58.87656 73.292885 -0.88455778
57.979229 74.920471 -0.69497246
58.050262 74.791626 -0.34416041
58.108166 74.6866 0
51.973587 85.813492 0.69566339
61.263489 68.949326 -0.93239236
60.869179 69.662483 -0.89257884
60.302761 70.68692 -0.84635162
58.875271 73.268715 -0.88284594
57.951012 74.940353 -0.69670278
58.042259 74.775322 -0.34386986
58.077625 74.711365 0
51.942215 85.808029 0.69595343
61.231148 68.993561 -0.94135463
60.850178 69.680634 -0.89603901
60.304543 70.664673 -0.84410006
58.856606 73.275993 -0.88413024
57.942822 74.923981 -0.69612563
58.034279 74.759033 -0.34357986
58.06974 74.695084 0
51.900745 85.820724 0.69682449
61.227516 68.985893 -0.94054043
60.828678 69.70314 -0.90019327
60.294025 70.664642 -0.84466243
58.850388 73.260803 -0.88327515
57.919571 74.934738 -0.6972788
58.036442 74.724564 -0.34270874
58.066929 74.669731 0
51.864296 85.824234 0.6974045
61.279266 68.878944 -0.92098445
60.836456 69.673004 -0.89603901
60.298347 70.63797 -0.84184855
58.829208 73.272491 -0.88498533
57.906361 74.927383 -0.6972788
58.028545 74.708275 -0.34241873
58.059116 74.653458 0
51.835396 85.81411 0.69755006
61.242008 68.931732 -0.93157816
60.844296 69.642914 -0.89188737
60.275444 70.66011 -0.84522694
58.82552 73.252808 -0.8837027
57.888119 74.929031 -0.69785488
58.000397 74.728256 -0.34328929
58.03101 74.673523 0
51.829338 85.763107 0.69638896
61.267483 68.872353 -0.92098445
60.825211 69.660973 -0.89534748
60.26989 70.651161 -0.84466243
58.81937 73.237587 -0.88284594
57.8825 74.908119 -0.69699079
57.974731 74.74366 -0.34401485
58.079212 74.557358 0
55.582893 79.008545 0.48057759
61.259178 68.873352 -0.92179859
60.823296 69.648376 -0.89396185
60.269321 70.633377 -0.84297538
58.81324 73.222382 -0.88199079
57.874401 74.891693 -0.6964137
57.992313 74.682037 -0.34227374
57.99247 74.681763 0
55.664112 78.821724 0.47491756
61.190155 68.981979 -0.94298613
60.816471 69.644531 -0.89396185
60.263805 70.624435 -0.84241307
58.802101 73.216103 -0.88199079
57.851082 74.902306 -0.69756687
57.958996 74.710968 -0.3434343
58.056271 74.53849 0
55.572174 78.942902 0.47912645
61.235241 68.888222 -0.92587262
60.817059 69.627594 -0.89188737
60.253304 70.624336 -0.84297538
58.796028 73.200874 -0.88113403
57.802254 74.957916 -0.70160347
57.94606 74.703659 -0.3434343
57.964111 74.671738 0
55.584827 78.878433 0.47738478
61.188442 68.963966 -0.94054043
60.774094 69.695526 -0.90296191
60.249302 70.62207 -0.84297538
58.775284 73.224541 -0.8837027
57.793087 74.958664 -0.70189148
57.960075 74.663841 -0.34227374
57.903801 74.763191 0
54.172379 81.351227 0.55691677
61.221508 68.891792 -0.92750102
60.80439 69.626175 -0.89257884
60.241302 70.617538 -0.84297538
58.774284 73.200363 -0.88199079
57.77985 74.951157 -0.70189148
57.89587 74.746895 -0.34517598
57.893368 74.751297 0
51.451431 86.092934 0.70959568
61.210701 68.897034 -0.92913252
60.792629 69.63102 -0.89396185
60.24337 70.595329 -0.84072387
58.793663 73.140503 -0.87685519
57.741024 74.988571 -0.70477384
57.911175 74.68985 -0.34357986
57.924171 74.66703 0
51.422165 86.082283 0.70974123
61.207237 68.889374 -0.92831832
60.763424 69.666367 -0.90019327
60.237923 70.586372 -0.8401615
59.490501 71.894905 -0.75788605
57.730316 74.976517 -0.70448583
57.900848 74.677956 -0.3434343
57.21946 75.87088 0
51.364571 86.121201 0.71148235
61.201332 68.885994 -0.92831832
60.784016 69.614555 -0.89257884
60.214817 70.608276 -0.84353775
59.491173 71.871628 -0.75617421
57.693916 75.009323 -0.70708019
57.872444 74.697647 -0.3443054
57.187012 75.894302 0
51.330101 86.119453 0.71191788
61.185581 68.89975 -0.93157816
60.784733 69.597603 -0.89050168
60.216961 70.586067 -0.84128618
59.471436 71.883987 -0.75788605
57.724419 74.925446 -0.70217949
57.856937 74.69474 -0.34445041
57.750744 74.879616 0
51.274906 86.153702 0.71351457
61.145126 68.956306 -0.94298613
60.782974 69.58503 -0.88911867
60.211536 70.577095 -0.84072387
59.469593 71.865173 -0.75660342
56.693981 76.683876 -0.81576061
57.833645 74.705322 -0.34503096
57.776577 74.804398 0
51.240372 86.151802 0.71394956
61.163857 68.910057 -0.93483806
60.763683 69.602859 -0.89257884
60.195965 70.585716 -0.84241307
59.452396 71.873016 -0.75788605
56.730408 76.585449 -0.80999482
57.77393 74.778854 -0.3476432
56.917461 76.261612 0
51.18502 86.185875 0.71554625
61.140591 68.936554 -0.94054043
60.739311 69.629341 -0.89742464
60.193111 70.572311 -0.84128618
59.476337 71.809769 -0.75232291
56.717796 76.572182 -0.80970675
57.753094 74.784821 -0.34807876
56.941776 76.185501 0
51.137383 86.206352 0.71670735
61.171864 68.868996 -0.92831832
60.760235 69.577667 -0.8898102
60.200481 70.541351 -0.83790994
59.492687 71.759911 -0.74804407
56.720791 76.532074 -0.80768955
57.740067 74.777267 -0.34807876
56.927055 76.176964 0
51.092285 86.22226 0.71772349
61.12867 68.929634 -0.94054043
60.740871 69.595421 -0.89327031
60.179794 70.558708 -0.84072387
59.472977 71.772202 -0.74975592
56.729092 76.483032 -0.80509412
57.732277 74.760719 -0.34778875
56.873058 76.235863 0
51.039295 86.251541 0.71917462
61.170078 68.84507 -0.92505848
60.721462 69.613136 -0.89673048
60.177002 70.545303 -0.83959699
59.486893 71.72683 -0.74590462
56.724449 76.456367 -0.80394095
57.727142 74.73967 -0.34735319
56.866158 76.213753 0
50.994064 86.267281 0.7201907
61.144238 68.875771 -0.93157816
60.745102 69.557236 -0.8884272
60.169098 70.54068 -0.83959699
64 64 -0
56.722473 76.425255 -0.80249971
57.701042 74.754501 -0.34807876
56.825096 76.250046 0
50.938286 86.300865 0.72178686
61.153374 68.846733 -0.92668682
60.700283 69.618179 -0.89880764
60.16634 70.52729 -0.83847231
64 64 -0
59.439762 71.764381 -0.50182706
59.475033 71.704323 -0.24953394
59.375008 71.874634 0
50.895554 86.311958 0.72265792
61.155041 68.830528 -0.92424428
60.713867 69.579605 -0.89327031
60.163616 70.513885 -0.83734548
64 64 -0
59.46714 71.696449 -0.49779046
59.428799 71.761551 -0.25156617
59.383987 71.837639 0
50.855419 86.318497 0.72338349
61.126583 68.865387 -0.93157816
60.712227 69.567001 -0.89188737
60.145412 70.526749 -0.83959699
59.444382 71.71376 -0.74675971
64 64 -0
59.406212 71.778389 -0.25229171
59.461864 71.684158 0
50.81789 86.320496 0.72396404
61.130783 68.844902 -0.92831832
60.733627 69.515526 -0.88427287
60.132347 70.530838 -0.84072387
59.453381 71.677322 -0.74376357
64 64 -0
64 64 -0
64 64 0
50.751217 86.371613 0.72614074
61.137547 68.820183 -0.92424428
60.69622 69.563347 -0.89257884
60.132244 70.513046 -0.83903468
59.441479 71.676254 -0.74419278
64 64 -0
64 64 -0
59.517712 71.547874 0
50.73481 86.337715 0.72556019
61.114029 68.846436 -0.92994666
60.681797 69.572289 -0.894656
60.119171 70.517113 -0.8401615
59.429581 71.67514 -0.74462032
64 64 -0
64 64 -0
64 64 0
50.702503 86.330612 0.72585076
61.105644 68.847191 -0.93076086
60.682789 69.555344 -0.89257884
60.126938 70.486229 -0.83678311
59.409782 71.687248 -0.74633217
59.428673 71.655617 -0.4969264
64 64 -0
64 64 0
50.712826 86.252068 0.72381908
61.117558 68.814011 -0.92505848
60.696697 69.516891 -0.88704157
60.113876 70.490273 -0.83790994
59.403133 71.677299 -0.74590462
59.400833 71.681137 -0.4989436
64 64 -0
64 64 0
50.723331 86.173569 0.72178686
61.121922 68.793571 -0.92179859
60.692616 69.508598 -0.88635004
60.111275 70.476852 -0.83678311
59.372726 71.706932 -0.74932671
59.420837 71.626801 -0.49577323
59.368671 71.713692 -0.2512756
64 64 0
64 64 0
61.113583 68.794327 -0.92261279
60.657501 69.551872 -0.89396185
60.106068 70.467796 -0.83622074
59.342232 71.736526 -0.75275046
59.368946 71.692154 -0.50038481
59.348633 71.725899 -0.25185618
59.407772 71.627663 0
64 64 0
61.05925 68.871239 -0.93809789
60.661156 69.530663 -0.89119583
60.090374 70.476143 -0.83790994
59.324928 71.74408 -0.75403476
57.258392 75.167213 -0.72697103
59.376896 71.657997 -0.24982449
59.393173 71.631027 0
64 64 0
61.068729 68.8423 -0.93320656
60.651882 69.530914 -0.89188737
60.082554 70.471413 -0.83790994
59.31823 71.734039 -0.75360721
57.226151 75.190041 -0.7289893
57.255131 75.142166 -0.36375326
53.510914 81.327415 0
64 64 0
61.076054 68.823624 -0.92994666
60.656345 69.516014 -0.8898102
60.081284 70.464691 -0.83734548
59.316216 71.726822 -0.75317967
57.232796 75.163834 -0.72754812
57.291504 75.066986 -0.36143103
53.540913 81.254318 0
64 64 0
61.077934 68.807411 -0.92750102
60.660107 69.49482 -0.88704157
60.06292 70.477318 -0.83959699
59.314884 71.707993 -0.75189537
57.219311 75.155647 -0.72754812
57.310524 75.005577 -0.35968935
53.568741 81.161598 0
64 64 0
61.092697 68.770126 -0.92098445
60.669132 69.46508 -0.88288993
60.065674 70.4552 -0.83734548
59.297558 71.715477 -0.75317967
57.205837 75.147446 -0.72754812
56.318195 76.603836 -0.41222733
53.556129 81.135666 0
64 64 0
61.050854 68.825653 -0.93239236
60.641602 69.4953 -0.8884272
60.060524 70.446106 -0.83678311
59.290924 71.705399 -0.75275046
57.186985 75.148048 -0.7281242
56.286716 76.62114 -0.41309789
53.535431 81.123032 0
64 64 0
61.047604 68.817871 -0.93157816
60.634964 69.491241 -0.8884272
60.060707 70.428345 -0.83509392
59.281616 71.699707 -0.75275046
57.168106 75.148636 -0.72870129
56.276909 76.602943 -0.41280735
53.522911 81.097054 0
64 64 0
61.052135 68.797455 -0.92831832
60.609951 69.517082 -0.89327031
60.055599 70.41925 -0.83453155
59.264248 71.707123 -0.75403476
57.157349 75.135971 -0.72841328
56.264404 76.58918 -0.41266233
53.521339 81.053337 0
64 64 0
61.054123 68.781258 -0.92587262
60.645397 69.444633 -0.88219577
60.05051 70.410156 -0.83396924
59.268402 71.679543 -0.75189537
57.146618 75.123276 -0.7281242
56.200134 76.659454 -0.41527456
53.514389 81.018509 0
64 64 0
61.082123 68.72303 -0.91527885
60.633541 69.449127 -0.8835814
60.026749 70.431313 -0.83734548
59.25103 71.686928 -0.75317967
57.130455 75.1194 -0.72841328
57.345627 74.771111 -0.35359377
53.499298 80.996979 0
64 64 0
61.037376 68.782524 -0.92750102
60.621681 69.453575 -0.88496441
60.024326 70.417877 -0.83622074
59.241745 71.681183 -0.75317967
57.10614 75.128662 -0.72956538
57.27515 74.855835 -0.35664156
53.481518 80.979843 0
64 64 0
61.052456 68.745361 -0.92098445
60.623028 69.436714 -0.88288993
60.032669 70.387161 -0.83284235
59.243301 71.65799 -0.75146776
57.106342 75.098358 -0.7281242
57.240101 74.883018 -0.35780269
53.477482 80.940598 0
64 64 0
61.010143 68.800529 -0.93239236
60.571369 69.505028 -0.894656
60.00346 70.41687 -0.83734548
59.22863 71.660942 -0.75232291
57.084728 75.103203 -0.7289893
57.224209 74.87925 -0.35794768
53.479034 80.892525 0
64 64 0
61.027908 68.759186 -0.92505848
60.591305 69.458313 -0.88773304
60.001087 70.403419 -0.83622074
59.224812 71.646469 -0.75146776
57.076794 75.086067 -0.72841328
64 64 -0
53.469658 80.862144 0
59.085724 71.869186 0.25910616
61.02216 68.755592 -0.92505848
60.590031 69.445694 -0.88635004
60.001446 70.385658 -0.83453155
59.207409 71.653732 -0.75275046
57.057919 75.086456 -0.7289893
64 64 -0
53.43824 80.86705 0
59.1562 71.735512 0.25489727
61.019039 68.74781 -0.92424428
60.604797 69.407578 -0.88081276
59.982925 70.398041 -0.83678311
59.211811 71.626205 -0.75061101
57.00877 75.13501 -0.73273683
64 64 -0
53.456612 80.792572 0
58.978294 71.998131 0.26375064
60.992249 68.777649 -0.93076086
60.598267 69.403473 -0.88081276
59.986027 70.375977 -0.83453155
59.199867 71.624748 -0.75103861
57.009098 75.104668 -0.73129565
64 64 -0
53.414146 80.815063 0
59.059998 71.846924 0.25896117
61.00494 68.744766 -0.92505848
60.594414 69.395119 -0.88012123
59.978325 70.371124 -0.83453155
59.201622 71.601578 -0.74932671
56.9874 75.109344 -0.73216081
64 64 -0
53.438286 80.731834 0
59.064388 71.818985 0.2582356
60.993927 68.749489 -0.92668682
60.550335 69.450348 -0.8898102
59.989647 70.336212 -0.83059299
59.19244 71.595779 -0.74932671
56.957386 75.127075 -0.73389
57.259468 74.649803 -0.35199711
53.468178 80.6399 0
59.054943 71.813011 0.2582356
61.043812 68.658211 -0.90957332
60.57333 69.399567 -0.88219577
59.971111 70.348511 -0.83284235
59.180504 71.594307 -0.74975592
56.414558 75.952744 -0.7889508
57.243809 74.646049 -0.35214266
64 64 0
59.014885 71.855286 0.25983173
60.985107 68.738045 -0.92587262
60.529091 69.454697 -0.89188737
59.971622 70.330788 -0.83115536
59.174095 71.584137 -0.74932671
56.291824 76.113762 -0.80019343
57.242111 74.620346 -0.35156211
64 64 0
58.988651 71.875572 0.26070285
60.987366 68.721893 -0.92342699
60.557583 69.395515 -0.88288993
59.955784 70.338753 -0.83284235
59.167694 71.573975 -0.74889916
56.266064 76.121887 -0.80134654
57.218102 74.629692 -0.35214266
64 64 0
58.965164 71.891418 0.26142839
60.968346 68.739067 -0.92750102
60.540253 69.408257 -0.88565856
59.953598 70.32531 -0.83171767
59.161312 71.563812 -0.74847162
56.237476 76.134331 -0.80278885
57.216465 74.603981 -0.35156211
64 64 0
58.952835 71.889702 0.2615734
60.967953 68.727081 -0.92587262
60.544556 69.387177 -0.88288993
59.956932 70.303307 -0.82946616
59.146637 71.566589 -0.74932671
56.22282 76.124939 -0.80278885
57.161579 74.661377 -0.35373878
64 64 0
58.918056 71.922958 0.26287952
60.994183 68.667557 -0.91527885
60.521217 69.401993 -0.88635004
59.929012 70.321594 -0.83284235
59.127365 71.566422 -0.75018346
56.21487 76.089066 -0.80134654
57.108501 74.701401 -0.35548046
64 64 0
58.906513 71.90937 0.2627345
61.004639 68.639 -0.91038752
60.511974 69.402 -0.88704157
59.926884 70.308144 -0.83171767
59.13493 71.53466 -0.74761647
56.197453 76.084007 -0.80163568
57.078667 74.719254 -0.35635102
64 64 0
58.860317 71.959961 0.2646212
60.956051 68.701767 -0.92342699
60.489082 69.423058 -0.89119583
59.913746 70.311737 -0.83284235
59.114681 71.545998 -0.74932671
56.182858 76.07457 -0.80163568
57.085484 74.680351 -0.35533544
64 64 0
58.845047 71.962479 0.26491174
60.990738 68.635902 -0.91120481
60.518055 69.36409 -0.88219577
59.895058 70.323845 -0.83509392
59.116737 71.522881 -0.74761647
56.173912 76.056435 -0.80105853
56.942429 74.872498 -0.36201158
64 64 0
58.83543 71.956245 0.26491174
60.936607 68.706833 -0.92587262
60.519779 69.347275 -0.88012123
59.892956 70.310371 -0.83396924
59.104851 71.521278 -0.74804407
56.153702 76.055649 -0.80163568
56.753555 75.133987 -0.37100941
64 64 0
58.814484 71.967422 0.26549232
60.941727 68.686569 -0.92261279
60.510582 69.347267 -0.88081276
59.890896 70.296883 -0.83284235
59.098572 71.511063 -0.74761647
56.141975 76.041809 -0.80134654
56.754303 75.10347 -0.37028384
64 64 0
58.787823 71.987259 0.26636288
60.960423 68.645645 -0.91527885
60.46841 69.397621 -0.8898102
59.888847 70.283417 -0.83171767
59.081074 71.518005 -0.74889916
56.121761 76.040977 -0.80192369
56.72097 75.125153 -0.37129995
64 64 0
58.783863 71.97226 0.26607287
60.933121 68.675034 -0.92179859
60.492168 69.347198 -0.88219577
59.872894 70.291199 -0.83340687
59.08326 71.494888 -0.74718732
56.110054 76.02713 -0.80163568
56.727493 75.085922 -0.37028384
64 64 0
58.759983 71.987679 0.26679841
60.957355 68.625893 -0.91283321
60.496731 69.326202 -0.87942976
59.876465 70.269226 -0.83115536
59.077026 71.484657 -0.74675971
56.092686 76.021904 -0.80192369
56.716957 75.072792 -0.37013885
64 64 0
58.76461 71.959633 0.26607287
60.897339 68.704742 -0.92913252
60.454388 69.376419 -0.8884272
59.874493 70.255745 -0.83002847
59.073631 71.470139 -0.74590462
56.083866 76.003693 -0.80134654
56.717884 75.042297 -0.36941329
64 64 0
58.714947 72.01403 0.26810452
60.957092 68.602028 -0.90957332
60.486645 69.313522 -0.8787356
59.864128 70.255005 -0.83059299
59.050453 71.485588 -0.74804407
56.07222 75.989807 -0.80105853
56.71315 75.020477 -0.36897773
64 64 0
58.696667 72.020645 0.26854008
60.929684 68.63131 -0.91609305
60.477448 69.313469 -0.87942976
64 64 -0
59.041412 71.479599 -0.74804407
56.060593 75.975914 -0.80077052
56.705574 75.003014 -0.36868772
64 64 0
58.68124 72.022888 0.26883009
60.91861 68.635841 -0.91772455
60.448818 69.342621 -0.88496441
59.868717 70.215363 -0.82665229
59.043747 71.456505 -0.74633217
56.040405 75.974922 -0.80134654
56.721058 74.950905 -0.36723605
64 64 0
58.668678 72.020782 0.26897511
60.91301 68.632111 -0.91772455
60.459057 69.313286 -0.88081276
59.855579 70.218819 -0.82777697
59.03474 71.450508 -0.74633217
56.037418 75.948074 -0.80019343
56.71936 74.924805 -0.3666555
55.567116 76.653778 0
58.647461 72.031631 0.26955566
60.871716 68.681808 -0.92831832
60.42197 69.354897 -0.8884272
59.865002 70.188461 -0.82440072
59.028591 71.440239 -0.74590462
56.00861 75.959961 -0.80163568
56.749466 74.851189 -0.36447883
55.577854 76.60463 0
58.603115 72.077011 0.27129734
60.893581 68.636948 -0.92016709
60.451805 69.296387 -0.87942976
59.854702 70.187675 -0.82496309
59.031036 71.417168 -0.74419278
56.002804 75.937401 -0.80077052
56.716122 74.872635 -0.36549437
55.539455 76.629036 0
58.604927 72.053215 0.27071676
60.882462 68.641403 -0.92179859
60.453804 69.279594 -0.8773526
59.85006 70.178452 -0.82440072
59.004906 71.436722 -0.74675971
55.98262 75.93631 -0.80134654
56.702988 74.863823 -0.36549437
55.512604 76.63607 0
58.589401 72.055328 0.27100733
60.90723 68.592529 -0.91283321
60.444626 69.279465 -0.87804413
59.848282 70.164993 -0.8232739
59.013126 71.405136 -0.74419278
55.979763 75.909447 -0.80019343
56.701477 74.837753 -0.36491382
55.517685 76.595596 0
58.570972 72.061699 0.27144232
60.926579 68.551918 -0.90549928
60.427021 69.291794 -0.88081276
59.832298 70.172607 -0.82496309
58.99844 71.407608 -0.74504787
55.956692 75.912613 -0.80105853
56.67384 74.850479 -0.36563993
55.499565 76.589653 0
58.546696 72.076668 0.27216789
60.865658 68.630074 -0.92179859
60.4375 69.26255 -0.87666112
59.816296 70.180199 -0.82665229
58.980858 71.414314 -0.74633217
55.936501 75.911469 -0.80163568
56.698605 74.785675 -0.36375326
55.469772 76.600922 0
58.507801 72.113113 0.27361956
60.882275 68.593559 -0.91527885
60.422699 69.270683 -0.8787356
59.820248 70.158318 -0.82440072
58.974781 71.403999 -0.74590462
55.925026 75.897423 -0.80134654
56.638893 74.845627 -0.36607495
55.45747 76.586304 0
58.495087 72.110771 0.27376455
60.862835 68.616203 -0.92016709
60.394135 69.30587 -0.88496441
59.813675 70.159996 -0.82496309
58.984749 71.379723 -0.74376357
55.914925 75.896828 -0.80163568
56.644028 74.82399 -0.36549437
55.446945 76.585434 0
58.478504 72.124634 0.27434513
60.834991 68.645088 -0.92668682
60.407494 69.272491 -0.88012123
59.811951 70.146538 -0.82383841
58.964272 71.390625 -0.74547541
55.897644 75.891327 -0.80192369
56.619247 74.832268 -0.36607495
55.425877 76.583702 0
58.477474 72.105072 0.27390957
60.865627 68.588203 -0.91609305
60.3983 69.272293 -0.88081276
59.798798 70.149857 -0.82496309
58.964024 71.371834 -0.74419278
55.889122 75.872971 -0.80134654
56.573914 74.870552 -0.36767161
55.410679 76.573334 0
58.438362 72.141312 0.27536124
60.860085 68.584412 -0.91609305
60.403275 69.251373 -0.87804413
59.79137 70.144775 -0.82496309
58.963825 71.353027 -0.74290842
55.871849 75.867447 -0.80163568
56.554916 74.87014 -0.36796162
55.289619 76.717529 0
58.422661 72.14315 0.27565125
60.857342 68.576546 -0.91527885
60.391243 69.255302 -0.87942976
59.778191 70.148071 -0.82608992
58.949139 71.355392 -0.74376357
55.872169 75.836281 -0.80019343
56.5359 74.869713 -0.36825216
55.28899 76.685539 0
58.395172 72.162117 0.27652234
60.840603 68.589027 -0.91853875
60.382053 69.255074 -0.88012123
59.782291 70.126228 -0.82383841
58.9519 71.332367 -0.74205166
55.851997 75.834976 -0.80077052
56.543404 74.830719 -0.36723605
64 64 0
58.373535 72.172447 0.27710235
60.868755 68.536392 -0.90875918
60.355762 69.279587 -0.88496441
59.786438 70.104393 -0.82158685
58.934292 71.338943 -0.74333602
55.852394 75.803848 -0.79932934
56.518513 74.838806 -0.3678166
56.373005 75.049614 0
58.345947 72.191315 0.27797347
60.812649 68.605759 -0.92342699
60.355091 69.266937 -0.8835814
59.770401 70.111824 -0.8232739
58.928345 71.328598 -0.74290842
55.832256 75.80249 -0.79990536
56.493591 74.846848 -0.36839718
56.359657 75.04039 0
58.31535 72.214394 0.27898958
60.821175 68.581604 -0.91935295
60.343014 69.270767 -0.88496441
59.757217 70.115067 -0.82440072
58.925354 71.314026 -0.74205166
55.829796 75.775612 -0.79875219
56.453831 74.876198 -0.36970329
56.355228 75.018311 0
58.302467 72.211784 0.27913457
60.798698 68.602112 -0.92424428
60.362434 69.229279 -0.8787356
59.767239 70.084915 -0.82102448
58.910652 71.316322 -0.74290842
55.794891 75.795464 -0.80077052
56.452568 74.850006 -0.36912271
56.356777 74.987709 0
58.292549 72.204895 0.27913457
60.824245 68.553635 -0.91527885
60.350372 69.233116 -0.88012123
59.754082 70.08812 -0.82214922
58.904747 71.305962 -0.74248087
55.780647 75.785538 -0.80077052
56.41568 74.874977 -0.37028384
56.343506 74.97847 0
58.241028 72.25766 0.28116626
60.835747 68.525482 -0.91038752
60.341179 69.232811 -0.88081276
59.74382 70.087151 -0.82271153
58.901814 71.291374 -0.74162412
55.781231 75.754402 -0.79932934
56.38467 74.891373 -0.37115496
56.348137 74.943619 0
58.242966 72.233658 0.28058571
60.79623 68.570229 -0.92016709
60.357899 69.195518 -0.87527543
59.7248 70.098648 -0.82496309
58.890064 71.289413 -0.74205166
55.75219 75.76564 -0.80077052
56.371517 74.882164 -0.37115496
56.355835 74.904526 0
58.230038 72.230949 0.28073069
60.81913 68.525917 -0.91201901
60.357391 69.182907 -0.87389249
59.734959 70.068542 -0.82158685
58.88126 71.283234 -0.74205166
55.755833 75.730263 -0.79904026
56.34642 74.889946 -0.37173551
56.351646 74.882507 0
58.238022 72.198463 0.27986014
60.773808 68.578636 -0.92342699
60.345356 69.186699 -0.87527543
59.727631 70.063377 -0.82158685
58.875416 71.27285 -0.74162412
55.753571 75.7034 -0.79788816
56.261436 74.982628 -0.3752183
56.374481 74.822197 0
58.132332 72.327438 0.28450459
60.802505 68.526283 -0.91364735
60.321716 69.206879 -0.87942976
59.714447 70.066505 -0.82271153
58.872551 71.25827 -0.74076903
55.78421 75.630043 -0.79356349
56.134235 75.13456 -0.38073334
56.337383 74.846985 0
58.158257 72.269409 0.28276291
60.811317 68.502251 -0.90957332
60.329933 69.181946 -0.87596697
59.715923 70.048897 -0.82102448
58.860821 71.256256 -0.74119657
55.952526 75.362617 -0.77597904
56.120789 75.125046 -0.38073334
56.306229 74.863213 0
58.136253 72.279312 0.28334349
60.768681 68.550789 -0.92016709
60.344002 69.14888 -0.87112385
59.70274 70.051994 -0.82214922
58.846119 71.258408 -0.74205166
56.079567 75.154648 -0.76242906
64 64 -0
56.299141 74.845413 0
52.59343 80.064301 0.55024117
60.786118 68.514664 -0.91364735
60.329063 69.156708 -0.87319833
59.710163 70.0261 -0.81933528
58.852234 71.231262 -0.73991227
55.895096 75.385269 -0.7788614
56.093925 75.105972 -0.38073334
56.304146 74.810661 0
52.604172 80.008163 0.5487895
60.792152 68.494682 -0.91038752
60.30534 69.176781 -0.8773526
59.691078 70.03746 -0.82158685
58.846481 71.220863 -0.73948473
55.70105 75.62809 -0.79615784
64 64 -0
56.275974 74.82254 0
52.581825 79.998604 0.54893452
60.778091 68.502869 -0.91283321
60.328289 69.1315 -0.87042964
59.686737 70.028122 -0.82102448
58.831779 71.222992 -0.74034148
55.653893 75.664337 -0.79932934
64 64 -0
56.275017 74.796265 0
52.541328 80.014389 0.5499506
60.764004 68.511024 -0.91527885
60.281139 69.184151 -0.88012123
59.673538 70.031151 -0.82214922
58.826057 71.212555 -0.73991227
55.630768 75.66684 -0.80019343
56.041603 75.094131 -0.38131389
56.255917 74.795372 0
52.500778 80.03009 0.55096674
60.772984 68.487053 -0.91120481
60.269028 69.18779 -0.88150424
59.663292 70.030045 -0.82271153
58.814339 71.21048 -0.74034148
55.619694 75.652527 -0.79990536
56.019096 75.097168 -0.38174945
56.279335 74.735313 0
52.475357 80.024612 0.55125672
60.767387 68.489113 -0.91201901
60.260021 69.193687 -0.88288993
59.674492 70.006805 -0.81989765
58.812992 71.203171 -0.73991227
55.609634 75.651649 -0.80019343
56.012394 75.092346 -0.38174945
56.24548 74.768661 0
52.465675 80.017654 0.55125672
60.767757 68.477173 -0.91038752
60.280182 69.15255 -0.87666112
59.670212 69.997459 -0.81933528
58.789268 71.217705 -0.74205166
55.604637 75.628937 -0.79932934
55.983791 75.103745 -0.38247499
56.186783 74.822571 0
52.464577 79.978424 0.55038619
60.75655 68.481285 -0.91201901
60.273956 69.148056 -0.87666112
59.657013 70.00045 -0.82046002
58.795601 71.190613 -0.73991227
55.581505 75.63134 -0.80019343
55.961235 75.106689 -0.38291055
56.188965 74.792046 0
52.43309 79.981316 0.55096674
60.75985 68.465355 -0.90957332
60.297211 69.102928 -0.86973816
59.649765 69.995193 -0.82046002
58.78088 71.192635 -0.74076903
55.576561 75.608612 -0.79932934
55.929512 75.122192 -0.38378111
56.197334 74.753105 0
52.441254 79.929474 0.54966062
60.731194 68.493416 -0.91609305
60.258579 69.143089 -0.8773526
59.651485 69.977615 -0.81877297
58.763142 71.198769 -0.74205166
55.56559 75.594231 -0.79904026
55.922188 75.104034 -0.38349113
56.175156 74.756302 0
52.403679 79.940704 0.55053115
60.725765 68.489464 -0.91609305
60.27602 69.106133 -0.87181532
59.641273 69.976463 -0.81933528
58.769569 71.1717 -0.73991227
55.539394 75.600746 -0.80019343
55.908779 75.094269 -0.38349113
56.152962 74.75946 0
52.430351 79.863708 0.54835451
60.749516 68.44561 -0.90794498
60.266891 69.105675 -0.8725068
59.622059 69.987602 -0.82158685
58.754841 71.173668 -0.74076903
55.528435 75.586349 -0.79990536
55.886185 75.097061 -0.38392612
56.152256 74.733162 0
46.798248 87.526405 0.81394553
60.714928 68.481537 -0.91609305
60.254787 69.109261 -0.87389249
59.626842 69.965912 -0.81933528
58.755287 71.1549 -0.73948473
55.523621 75.563583 -0.79904026
55.851273 75.116592 -0.38494223
56.136219 74.727867 0
46.76675 87.509804 0.81409109
60.747566 68.425789 -0.90549928
60.260502 69.088562 -0.87112385
59.619637 69.960625 -0.81933528
58.740559 71.156845 -0.74034148
55.50658 75.55751 -0.79932934
55.83477 75.110916 -0.38508722
56.092434 74.760307 0
46.756828 87.463829 0.81321996
60.724632 68.445724 -0.91038752
60.233532 69.112305 -0.87596697
59.606415 69.963501 -0.82046002
58.731915 71.150482 -0.74034148
55.483425 75.559723 -0.80019343
55.805943 75.121964 -0.38581279
56.122665 74.69207 0
46.759308 87.401146 0.81176883
60.698704 68.469597 -0.91609305
60.20649 69.136002 -0.88081276
59.608261 69.945938 -0.81877297
58.729385 71.135841 -0.73948473
55.478676 75.536949 -0.79932934
55.783245 75.124596 -0.38624835
56.137581 74.644867 0
46.715607 87.401199 0.8124944
60.737419 68.406029 -0.90387094
60.260002 69.050766 -0.86696953
59.607136 69.932449 -0.81764609
58.726871 71.121223 -0.73862958
57.45636 72.837021 -0.61281383
55.757439 75.131363 -0.3868289
56.192863 74.543335 0
46.653324 87.426239 0.81409109
60.732098 68.402084 -0.90387094
60.218014 69.094589 -0.87527543
59.593906 69.935303 -0.81877297
58.730511 71.098358 -0.73691773
57.436443 72.841553 -0.61367792
55.756386 75.104706 -0.38624835
56.229767 74.467026 0
46.377228 87.739067 0.82570165
60.706131 68.42588 -0.90957332
60.205864 69.098076 -0.87666112
59.574604 69.946281 -0.82102448
58.715813 71.10022 -0.73777282
57.425766 72.833618 -0.61367792
55.721252 75.123924 -0.38726446
56.229557 74.440933 0
46.36097 87.70108 0.8251211
60.680092 68.449631 -0.91527885
60.211708 69.0774 -0.87389249
59.567421 69.940933 -0.82102448
58.698025 71.106178 -0.73905712
57.418186 72.821526 -0.61338991
55.686069 75.143059 -0.38828003
56.201385 74.452393 0
46.335457 87.675575 0.82497555
60.680645 68.437698 -0.91364735
60.214596 69.06076 -0.87181532
59.572422 69.919296 -0.81877297
58.692513 71.095657 -0.73862958
57.395138 72.830139 -0.61454308
55.638367 75.178787 -0.38987669
56.157581 74.48465 0
46.269508 87.704147 0.82671726
60.684174 68.421829 -0.91120481
60.196442 69.072243 -0.87458396
59.565273 69.91394 -0.81877297
58.696266 71.072807 -0.73691773
57.384476 72.822151 -0.61454308
55.612396 75.185303 -0.39045724
56.101204 74.533455 0
46.23777 87.686859 0.82686222
60.661015 68.441521 -0.91609305
60.187302 69.071648 -0.87527543
59.545914 69.924828 -0.82102448
58.678474 71.07869 -0.73820037
57.380032 72.805885 -0.613967
55.577026 75.204247 -0.39147338
55.997784 74.644554 0
46.215401 87.657082 0.82657224
60.718128 68.354584 -0.89897954
60.172115 69.079063 -0.8773526
59.547935 69.907265 -0.81933528
58.682289 71.055855 -0.73648852
57.372517 72.793739 -0.61367792
55.604153 75.140114 -0.38958669
55.937946 74.697212 0
46.183701 87.639725 0.82671726
60.680756 68.382103 -0.90631348
60.178036 69.045792 -0.87319833
59.536739 69.892441 -0.81877297
58.646645 71.067551 -0.73905712
57.341911 72.79007 -0.61454308
55.589806 75.103218 -0.38900614
55.864975 74.739937 0
55.583679 75.111305 0.38928944
60.669479 68.385971 -0.90794498
60.174973 69.037178 -0.8725068
59.529625 69.887039 -0.81877297
58.656746 71.036537 -0.73648852
57.343811 72.765541 -0.61338991
55.488407 75.208923 -0.39306948
55.858292 74.721817 0
55.589111 75.076302 0.38841888
60.669819 68.38002 -0.90713078
60.168896 69.038857 -0.87319833
59.52607 69.884338 -0.81877297
58.64938 71.037407 -0.73691773
57.332249 72.76976 -0.613967
55.393566 75.319611 -0.39713338
55.848671 74.721039 0
50.009109 82.40152 0.64559263
60.673519 68.364197 -0.90468514
60.174976 69.018265 -0.87042964
59.515884 69.882965 -0.81933528
58.644001 71.02684 -0.73648852
57.327934 72.753464 -0.61338991
55.357841 75.338142 -0.39814952
55.838875 74.707047 0
49.971138 82.405258 0.6463182
60.644238 68.391602 -0.91120481
60.165863 69.017639 -0.87112385
59.518036 69.865425 -0.81764609
58.641743 71.012215 -0.73563343
57.320499 72.741287 -0.61310184
55.312599 75.368973 -0.39960063
55.873348 74.635139 0
49.939438 82.400688 0.64675379
60.638935 68.387543 -0.91120481
60.168957 69.001045 -0.86904669
59.514042 69.85598 -0.81708378
58.620785 71.022034 -0.73734528
57.303658 72.741417 -0.61367792
55.311508 75.341965 -0.39902008
55.851006 74.637711 0
49.923542 82.375427 0.64646322
60.657722 68.352112 -0.90468514
60.181248 68.972542 -0.86489505
59.516258 69.838455 -0.81539458
58.624813 70.999245 -0.73563343
57.299397 72.725121 -0.61310184
53.249947 77.998062 -0.49292043
55.777931 74.706276 0
49.882351 82.383148 0.64733434
60.63739 68.367653 -0.90875918
60.120155 69.039482 -0.8773526
59.506107 69.837059 -0.81595689
58.613228 70.996803 -0.73606098
57.285706 72.721115 -0.61338991
53.226707 77.993294 -0.49321043
55.66975 74.820053 0
49.856979 82.370186 0.6474793
60.66534 68.320534 -0.89979374
60.14473 68.995064 -0.87042964
59.495945 69.835655 -0.81652141
58.604778 70.990295 -0.73606098
57.278328 72.7089 -0.61310184
53.216152 77.972046 -0.49292043
55.621696 74.855309 0
49.841141 82.344864 0.64718932
60.6208 68.367325 -0.91038752
60.135616 68.994385 -0.87112385
59.488899 69.830208 -0.81652141
58.596336 70.983765 -0.73606098
57.267811 72.700775 -0.61310184
53.20882 77.946671 -0.49248487
55.595844 74.861649 0
49.834892 82.307175 0.64646322
60.612488 68.367157 -0.91120481
60.15419 68.957993 -0.86558652
59.484978 69.820732 -0.81595689
58.591045 70.973183 -0.73563343
57.266819 72.680367 -0.61223674
53.207901 77.913094 -0.4917593
55.585915 74.847374 0
49.806408 82.298271 0.64675379
60.625427 68.339638 -0.90631348
60.123558 68.985031 -0.87112385
59.46859 69.827309 -0.81764609
58.59523 70.950432 -0.73392153
57.26268 72.664062 -0.61166066
53.178337 77.916451 -0.49233988
55.579208 74.828972 0
49.803444 82.2565 0.6458832
60.611065 68.347252 -0.90875918
60.120632 68.976372 -0.87042964
59.467793 69.81382 -0.81652141
58.577362 70.956047 -0.73520583
57.239494 72.672241 -0.61281383
55.375641 75.063148 -0.39176336
55.572525 74.810593 0
49.768623 82.255707 0.64646322
60.587559 68.366516 -0.91364735
60.111523 68.975647 -0.87112385
59.467037 69.800323 -0.81539458
58.575291 70.941391 -0.73434907
57.238579 72.651833 -0.61194873
55.263084 75.179649 -0.39626229
55.575504 74.779877 0
49.756168 82.226227 0.64602822
60.585331 68.358505 -0.91283321
60.117893 68.955147 -0.86835515
59.46003 69.794846 -0.81539458
58.56057 70.942917 -0.73520583
57.22813 72.643654 -0.61194873
55.191887 75.242729 -0.39887506
55.552849 74.78199 0
49.750175 82.188553 0.64530265
60.604492 68.323273 -0.90631348
60.111908 68.950447 -0.86835515
59.440475 69.805336 -0.81764609
58.561703 70.924225 -0.73392153
57.22728 72.62326 -0.61108357
55.175102 75.23616 -0.39902008
55.536617 74.775864 0
49.70575 82.199921 0.6463182
60.577862 68.346359 -0.91201901
60.093513 68.961517 -0.87112385
59.45232 69.775879 -0.8142699
58.546993 70.925705 -0.73477668
57.216866 72.615067 -0.61108357
55.16153 75.225487 -0.39902008
55.530037 74.757462 0
49.674122 82.194885 0.64675379
60.594055 68.315056 -0.90631348
60.075085 68.972549 -0.87389249
59.435909 69.782333 -0.81595689
58.538628 70.919113 -0.73477668
57.200043 72.61499 -0.61166066
64 64 -0
55.529945 74.730873 0
49.661812 82.165321 0.6463182
60.576572 68.326447 -0.90957332
60.081535 68.952065 -0.87112385
59.428925 69.77681 -0.81595689
58.530273 70.912514 -0.73477668
57.18964 72.606773 -0.61166066
64 64 -0
55.52021 74.716553 0
50.903915 80.550514 0.58942634
60.602062 68.283585 -0.90142524
60.094269 68.923729 -0.86696953
59.437737 69.751381 -0.81314301
58.528297 70.897858 -0.73392153
57.192104 72.582321 -0.61050749
55.21133 75.079376 -0.39495617
55.552559 74.6492 0
50.79995 80.640549 0.59320021
60.578434 68.302681 -0.90631348
60.088322 68.919006 -0.86696953
59.418137 69.76178 -0.81539458
58.523159 70.88723 -0.73349398
57.17852 72.57814 -0.61079556
55.175304 75.097221 -0.39597228
55.542934 74.634918 0
50.76368 80.64492 0.59392577
60.570148 68.302422 -0.90713078
60.054237 68.949585 -0.87319833
59.404839 69.764191 -0.81652141
58.511646 70.884613 -0.73392153
57.168163 72.569885 -0.61079556
55.145706 75.106865 -0.39669782
55.517113 74.640968 0
50.7533 80.616714 0.59349024
60.543358 68.325294 -0.91283321
60.076447 68.909538 -0.86696953
59.404228 69.750687 -0.81539458
58.50013 70.881989 -0.73434907
57.154587 72.565666 -0.61108357
56.816063 72.989258 -0.32137421
56.839725 72.959648 0
50.778648 80.543869 0.59145856
60.556183 68.303909 -0.90875918
60.060944 68.922836 -0.86973816
59.407097 69.739983 -0.8142699
58.499176 70.874657 -0.73392153
57.1591 72.549423 -0.61021948
56.794388 73.005219 -0.32210031
64 64 0
56.801041 72.996902 0.32180306
60.569538 68.276619 -0.90387094
60.045574 68.929825 -0.87181532
59.390636 69.746307 -0.81595689
58.494083 70.864006 -0.73349398
57.158485 72.529037 -0.60935432
64 64 -0
64 64 0
64 64 0
60.555092 68.284012 -0.90631348
60.045918 68.917213 -0.87042964
59.380501 69.744705 -0.81652141
58.492233 70.849335 -0.73263723
57.141708 72.528824 -0.6099304
64 64 -0
64 64 0
64 64 0
60.565426 68.260612 -0.90223944
60.052574 68.896805 -0.867661
59.392708 69.715378 -0.81314301
58.483963 70.842674 -0.73263723
57.137894 72.512482 -0.60935432
56.797672 72.934525 -0.32050365
64 64 0
64 64 0
60.557175 68.2603 -0.90305364
60.040344 68.899849 -0.86904669
59.382614 69.713753 -0.81370538
58.469238 70.844002 -0.73349398
57.117859 72.516258 -0.61021948
56.783619 72.929855 -0.32064864
64 64 0
64 64 0
60.539585 68.2715 -0.90631348
60.028118 68.902847 -0.87042964
59.372505 69.712128 -0.8142699
58.467442 70.82933 -0.73263723
57.117344 72.495872 -0.60935432
56.772835 72.921127 -0.32064864
56.813099 72.871429 0
56.805695 72.880569 0.31919083
60.525074 68.278831 -0.90875918
60.022198 68.898041 -0.87042964
59.381622 69.686813 -0.81145602
58.46566 70.814674 -0.73178214
57.120129 72.471489 -0.60820115
53.030647 77.507042 -0.48595428
56.831924 72.826363 0
50.698269 80.379005 0.58928132
60.523022 68.270798 -0.90794498
60.035282 68.869896 -0.86627805
59.365135 69.693039 -0.81314301
58.444466 70.823906 -0.73349398
57.100094 72.475204 -0.60906631
53.004501 77.505859 -0.48638928
55.385269 74.581543 0
50.708015 80.326653 0.5879752
60.499119 68.289566 -0.91283321
59.991329 68.911751 -0.87458396
59.358261 69.687439 -0.81314301
58.442722 70.809227 -0.73263723
57.096409 72.458839 -0.60848922
52.978333 77.504646 -0.48682484
55.375774 74.567101 0
50.694862 80.302536 0.58768523
60.537754 68.231773 -0.90142524
60.001282 68.887489 -0.87112385
59.354607 69.677895 -0.8125807
58.42799 70.810463 -0.73349398
57.079636 72.458511 -0.60906631
52.968597 77.483276 -0.48653483
55.432224 74.472076 0
50.658722 80.306557 0.58841079
60.479355 68.292564 -0.91527885
60.020832 68.851616 -0.86558652
59.350971 69.66835 -0.81201833
58.426285 70.795776 -0.73263723
57.075985 72.442131 -0.60848922
52.972092 77.445824 -0.48566374
55.409683 74.473778 0
50.662102 80.262291 0.58739465
60.527538 68.223396 -0.90142524
60.011791 68.850677 -0.86627805
59.344124 69.662727 -0.81201833
58.424591 70.781113 -0.73178214
57.065792 72.433762 -0.60848922
52.949245 77.440529 -0.48595428
55.195393 74.708641 0
50.64576 80.242157 0.58724964
60.522438 68.2192 -0.90142524
59.980404 68.876831 -0.87181532
59.340515 69.653183 -0.81145602
58.413139 70.778328 -0.73220968
57.058891 72.421387 -0.60820115
52.949551 77.407104 -0.48522818
55.165909 74.718071 0
50.636063 80.213974 0.58681411
60.492153 68.245476 -0.90794498
59.996887 68.844887 -0.86696953
59.330452 69.651459 -0.81201833
58.408218 70.767624 -0.73178214
57.048721 72.412994 -0.60820115
52.92012 77.40976 -0.48580873
55.113182 74.755539 0
