# .PCD v0.7 - Point Cloud Data file format
VERSION 0.7
FIELDS x y z
SIZE 4 4 4
TYPE F F F
COUNT 1 1 1
WIDTH 2102
HEIGHT 1
VIEWPOINT 0 0 0 1 0 0 0
POINTS 2102
DATA ascii
64 64 -0
76.567383 116.34693 0
64 64 0
76.490829 116.30638 0
76.485489 116.28404 1.5012507
76.417992 116.28093 0
64 64 0
64 64 -0
76.377548 116.39214 0
64 64 0
64 64 -0
76.039215 115.23663 0
64 64 0
64 64 -0
75.951248 115.13965 0
64 64 0
64 64 -0
75.88237 115.12363 0
64 64 0
75.814728 115.11259 0
81.599724 140.1395 2.1825001
64 64 -0
75.755295 115.13699 0
81.503052 140.14044 2.1819196
64 64 -0
75.710442 115.0832 0
64 64 0
64 64 -0
75.654495 115.12268 0
64 64 0
75.56855 115.03014 0
77.005867 121.37032 1.6428996
64 64 -0
64 64 0
76.927399 121.34543 1.6417385
64 64 -0
64 64 0
76.864914 121.39143 1.6426091
64 64 -0
80.658913 138.73978 0
76.814781 121.49316 1.6450763
64 64 -0
64 64 0
76.756546 121.55934 1.646528
64 64 -0
64 64 0
76.732834 121.78278 1.652478
64 64 -0
64 64 0
76.705269 121.99101 1.6579931
64 64 -0
81.398582 143.87439 0
76.689384 122.25513 1.6651047
64 64 -0
75.865685 118.79192 0
76.734474 122.80371 1.6803437
64 64 -0
81.184692 143.81952 0
64 64 0
64 64 -0
75.731056 118.81023 0
64 64 0
64 64 -0
75.643158 118.72256 0
64 64 0
75.558723 118.65003 0
85.473129 165.52573 2.8981457
75.492676 118.66396 0
85.37825 165.68384 2.9019196
75.417038 118.63194 0
85.224533 165.56207 2.8977106
75.351013 118.64569 0
64 64 0
64 64 -0
75.282875 118.64919 0
64 64 0
64 64 -0
75.21579 118.65768 0
84.854156 165.62814 2.8974199
64 64 -0
75.154938 118.69669 0
64 64 0
64 64 -0
75.087807 118.70503 0
64 64 0
75.046509 118.67091 0
84.497665 165.4462 2.8904538
64 64 -0
74.974289 118.65358 0
64 64 0
64 64 -0
74.901115 118.63109 0
64 64 0
64 64 -0
74.842178 118.67995 0
84.157082 165.65744 2.8943722
64 64 -0
74.782143 118.72366 0
84.055328 165.78879 2.8974199
64 64 -0
74.712006 118.71622 0
83.877411 165.53247 2.8894377
64 64 -0
74.642906 118.71378 0
83.772583 165.64825 2.8920505
64 64 -0
74.573822 118.71127 0
83.670448 165.77919 2.8950977
64 64 -0
74.510651 118.73935 0
83.537659 165.75186 2.8936467
64 64 -0
74.447433 118.76735 0
83.403984 165.71925 2.8920505
64 64 -0
74.368652 118.71346 0
83.274292 165.70688 2.8910344
64 64 -0
74.310234 118.76686 0
64 64 0
64 64 -0
74.232574 118.71788 0
64 64 0
64 64 -0
64 64 -0
74.16835 118.74043 0
82.867523 165.57169 2.8852289
64 64 -0
64 64 -0
74.102196 118.75269 0
82.765518 165.70686 2.8884223
64 64 -0
64 64 -0
74.042603 118.80069 0
82.6576 165.81123 2.890744
64 64 -0
64 64 -0
73.969849 118.77693 0
82.466637 165.46048 2.8801494
64 64 -0
64 64 -0
73.904587 118.79408 0
82.376381 165.6617 2.8852289
64 64 -0
64 64 -0
73.826408 118.7394 0
82.210373 165.44344 2.8784077
64 64 -0
73.697731 118.78348 0
64 64 0
64 64 -0
73.629723 118.78491 0
64 64 0
64 64 -0
73.594826 118.78046 0
64 64 0
64 64 -0
73.536659 118.83818 0
64 64 0
64 64 -0
73.46685 118.82915 0
64 64 0
64 64 -0
73.404984 118.86619 0
64 64 0
64 64 -0
73.337814 118.87239 0
64 64 0
64 64 -0
73.269768 118.87335 0
77.62896 144.67807 2.2851083
64 64 -0
73.196571 118.84344 0
64 64 0
64 64 -0
73.132004 118.8648 0
64 64 0
64 64 -0
73.072495 118.91688 0
64 64 0
64 64 -0
72.99939 118.8867 0
64 64 0
64 64 -0
72.936409 118.91809 0
81.483047 171.44087 3.0400851
64 64 -0
72.871704 118.93912 0
81.326706 171.29774 3.0354404
64 64 -0
72.802017 118.92924 0
81.205269 171.36993 3.0368922
64 64 -0
72.738914 118.9604 0
81.064095 171.31879 3.0348599
64 64 -0
72.670876 118.96065 0
64 64 0
64 64 -0
72.602852 118.96078 0
80.79023 171.26729 3.0322478
64 64 -0
72.538033 118.98144 0
80.616753 171.00507 3.0242655
64 64 -0
72.470009 118.98141 0
80.494568 171.07129 3.0255716
64 64 -0
72.406708 119.01219 0
80.355759 171.0295 3.0238299
64 64 -0
72.342575 119.03775 0
80.24044 171.14168 3.0264428
64 64 -0
72.278389 119.06323 0
80.125648 171.25885 3.0292001
64 64 -0
72.212616 119.07834 0
80.012894 171.39133 3.0323927
64 64 -0
72.162804 119.20149 0
79.923409 171.68307 3.0400851
64 64 -0
64 64 0
64 64 0
64 64 -0
64 64 0
79.687668 171.43408 3.0322478
64 64 -0
64 64 0
64 64 0
64 64 -0
64 64 0
64 64 0
64 64 -0
64 64 0
64 64 0
64 64 -0
64 64 0
64 64 0
64 64 -0
64 64 0
64 64 0
64 64 -0
79.343498 174.68378 0
64 64 0
64 64 -0
79.225327 174.81566 0
64 64 0
64 64 -0
79.087204 174.80304 0
64 64 0
64 64 -0
78.944267 174.75414 0
64 64 0
64 64 -0
78.8125 174.7876 0
64 64 0
64 64 -0
78.664955 174.70221 0
64 64 0
64 64 -0
78.549469 174.85918 0
64 64 0
64 64 -0
78.404099 174.78894 0
64 64 0
64 64 -0
64 64 0
64 64 0
64 64 -0
64 64 -0
64 64 0
64 64 0
64 64 -0
64 64 -0
64 64 0
64 64 0
64 64 -0
64 64 -0
64 64 0
64 64 0
64 64 -0
64 64 -0
64 64 0
64 64 -0
64 64 -0
64 64 0
77.476677 173.88066 3.0917518
64 64 -0
64 64 -0
64 64 0
77.326355 173.75241 3.087688
64 64 -0
64 64 -0
64 64 0
77.250702 173.68307 3.0855112
64 64 -0
64 64 -0
64 64 0
77.108902 173.62158 3.083334
64 64 -0
64 64 -0
64 64 0
76.956894 173.47223 3.0786901
64 64 -0
64 64 0
64 64 0
64 64 -0
64 64 0
64 64 0
64 64 -0
64 64 0
64 64 0
64 64 -0
64 64 0
64 64 0
64 64 -0
64 64 0
76.491188 175.29401 3.1277449
64 64 -0
64 64 0
76.322296 174.99911 3.1190364
64 64 -0
64 64 0
76.19101 175.03976 3.1197627
64 64 -0
64 64 0
76.033829 174.84259 3.113812
64 64 -0
64 64 0
64 64 0
64 64 -0
64 64 0
64 64 0
64 64 -0
64 64 0
64 64 0
64 64 -0
64 64 0
64 64 0
64 64 -0
64 64 0
64 64 0
64 64 -0
64 64 0
64 64 0
64 64 -0
64 64 0
64 64 0
64 64 -0
64 64 0
64 64 0
64 64 -0
64 64 0
64 64 0
64 64 -0
64 64 0
64 64 0
64 64 -0
64 64 0
74.448486 174.53348 3.1007502
64 64 -0
64 64 0
74.290298 174.28214 3.0933485
64 64 -0
64 64 0
74.156082 174.28413 3.0930581
64 64 -0
64 64 0
74.015297 174.21352 3.0907357
64 64 -0
64 64 0
73.856598 173.94086 3.0827534
64 64 -0
64 64 0
73.747093 174.21671 3.0901551
64 64 -0
64 64 0
64 64 0
64 64 -0
64 64 0
64 64 0
64 64 -0
64 64 0
64 64 0
64 64 -0
64 64 0
64 64 -0
64 64 0
64 64 0
64 64 -0
64 64 0
64 64 0
64 64 -0
64 64 0
64 64 0
64 64 -0
64 64 -0
64 64 0
64 64 0
64 64 -0
64 64 -0
64 64 0
64 64 0
64 64 -0
64 64 -0
64 64 0
64 64 0
64 64 -0
64 64 -0
64 64 0
64 64 0
64 64 -0
64 64 -0
64 64 0
64 64 0
64 64 -0
64 64 -0
64 64 0
64 64 0
64 64 -0
64 64 -0
64 64 0
64 64 0
64 64 -0
64 64 -0
64 64 0
64 64 0
64 64 -0
64 64 -0
64 64 0
64 64 0
64 64 -0
64 64 -0
64 64 0
64 64 0
64 64 -0
64 64 -0
64 64 0
64 64 -0
64 64 -0
64 64 0
64 64 -0
64 64 0
64 64 0
64 64 -0
64 64 0
64 64 0
64 64 -0
64 64 0
64 64 0
64 64 -0
64 64 0
64 64 0
64 64 -0
64 64 0
64 64 0
64 64 -0
64 64 0
64 64 0
64 64 -0
64 64 0
64 64 0
64 64 -0
64 64 0
64 64 0
64 64 -0
64 64 0
64 64 0
64 64 0
64 64 0
64 64 0
64 64 0
64 64 -0
67.568031 133.41939 0
64 64 0
64 64 -0
67.481796 133.37686 0
64 64 0
64 64 -0
67.398476 133.39142 0
64 64 0
64 64 -0
67.314629 133.39546 0
64 64 0
64 64 -0
67.229324 133.36823 0
64 64 0
67.144325 133.3461 0
64 64 0
64 64 -0
67.06076 133.35504 0
64 64 0
64 64 -0
67.017044 133.31528 0
64 64 0
66.934174 133.33966 0
64 64 0
64 64 -0
66.851456 133.36916 0
64 64 0
64 64 -0
66.765144 133.31015 0
64 64 0
64 64 -0
66.681396 133.31343 0
64 64 0
64 64 -0
66.597252 133.30623 0
64 64 0
64 64 -0
66.51577 133.37173 0
64 64 0
64 64 -0
66.431396 133.35912 0
64 64 0
64 64 -0
66.346886 133.34119 0
64 64 0
64 64 -0
64 64 0
64 64 0
64 64 -0
66.179634 133.35706 0
64 64 0
66.096298 133.37524 0
64 64 0
66.011871 133.35693 0
64 64 0
65.927773 133.34891 0
64 64 0
64 64 -0
65.844391 133.36679 0
64 64 0
65.677383 133.39706 0
64 64 0
64 64 -0
65.593529 133.39905 0
64 64 0
64 64 -0
65.511253 133.47375 0
64 64 0
64 64 -0
64 64 -0
65.427734 133.49635 0
64 64 0
64 64 -0
64 64 -0
64 64 0
64 64 0
64 64 -0
64 64 0
64 64 0
64 64 -0
64 64 -0
64 64 0
64 64 0
64 64 -0
64 64 -0
64 64 0
64 64 0
64 64 -0
64 64 -0
64 64 0
64 64 0
64 64 -0
64 64 -0
64.853622 125.42735 0
64 64 0
64 64 -0
64 64 -0
64.778603 125.36588 0
64 64 0
64 64 -0
64.704811 125.39799 0
64 64 0
64 64 -0
64 64 0
64 64 0
64 64 -0
64 64 0
64 64 0
64 64 -0
64 64 0
64 64 0
64 64 -0
64 64 0
64 64 0
64 64 -0
64 64 0
64 64 0
64 64 0
64 64 0
64 64 0
64 64 0
64 64 -0
64 64 0
64 64 0
64 64 0
64.072319 183.70456 3.3431206
64 64 -0
64 64 0
64 64 0
64 64 -0
64 64 0
64 64 0
64 64 -0
64 64 0
64 64 0
64 64 -0
64 64 0
64 64 0
64 64 0
64 64 0
64 64 -0
64 64 0
64 64 0
64 64 0
64 64 -0
64 64 0
64 64 -0
64 64 0
64 64 0
64 64 -0
64 64 0
64 64 -0
64 64 0
64 64 0
64 64 -0
64 64 0
64 64 0
64 64 0
64 64 0
64 64 0
64 64 0
64 64 0
64 64 0
64 64 0
64 64 0
64 64 0
64 64 0
64 64 0
64 64 0
64 64 0
64 64 0
64 64 0
64 64 0
64 64 0
64 64 0
64 64 0
64 64 0
64 64 0
64 64 0
64 64 0
64 64 0
64 64 0
60.245865 183.45853 3.3378956
64 64 0
60.110847 183.16824 3.3299134
64 64 0
64 64 0
59.812862 183.44414 3.3378956
64 64 0
59.660629 183.6571 3.3439913
59.590637 183.59213 3.3422494
64 64 0
59.446335 183.58154 3.3421044
60.647781 149.31961 0
59.296749 183.70576 3.3457329
60.550591 149.16989 0
59.157787 183.55978 3.341814
60.449417 149.12405 0
64 64 0
60.3517 149.00009 0
64 64 0
60.251976 148.92804 0
64 64 0
60.155491 148.78827 0
60.069984 150.67409 2.4231288
60.052319 148.79916 0
59.972507 150.51355 2.4187748
59.951099 148.76834 0
59.872437 150.41519 2.4161627
59.851986 148.6958 0
59.766754 150.4361 2.4168882
59.644382 148.74271 0
59.693924 147.77881 2.3428707
59.538982 148.79456 0
59.592697 147.77354 2.3428707
59.43597 148.79948 0
59.497063 147.6644 2.3399684
59.33036 148.85107 0
59.399113 147.60181 2.3383718
59.22258 148.9389 0
59.294598 147.65845 2.3401134
59.116665 148.99023 0
59.187553 147.75647 2.3430161
59.012146 149.01544 0
59.081486 147.83359 2.3453379
58.90818 149.03015 0
58.971806 147.96765 2.3492568
58.862427 148.09119 2.3528852
58.753391 148.20419 2.3562229
58.695015 148.32031 2.3595612
59.469608 134.64627 0
59.416237 135.47853 2.0003593
59.374744 134.78616 0
59.331226 135.45219 1.9997787
55.667656 189.19531 0
59.249035 135.38428 1.9980371
55.518497 189.15399 0
58.263298 148.65143 2.3695753
55.371578 189.08134 0
58.16674 148.56148 2.3672531
55.345455 187.28999 0
57.314224 159.24353 2.6665154
55.198345 187.25348 0
57.201366 159.20428 2.6656446
55.053947 187.18048 0
57.100639 158.99905 2.6601298
54.66787 190.38254 0
56.99313 158.89215 2.657372
54.528412 190.1947 0
56.882362 158.83182 2.6559207
54.379498 190.13647 0
56.218849 166.02036 2.8575087
54.227898 190.11436 0
56.095181 166.01605 2.8576539
54.086548 189.96237 0
55.969475 166.03752 2.8585248
64 64 0
55.849499 165.9863 2.8573637
64 64 0
55.724594 165.9971 2.8579443
64 64 0
55.599648 166.00774 2.8585248
64 64 0
55.481159 165.94055 2.8569281
64 64 0
55.37204 165.7645 2.8522842
64 64 0
55.277134 165.4278 2.8431408
64 64 0
55.267467 164.12296 2.8068581
64 64 0
55.191357 163.60504 2.7926352
56.425198 148.48965 0
55.142471 162.79723 2.7702847
56.400352 148.19479 0
55.121559 162.36227 2.7582383
56.347939 147.6465 0
55.083195 161.47173 2.733566
64 64 0
55.045052 160.60193 2.7094743
64 64 0
54.953114 160.32718 2.7020726
64 64 0
54.87315 159.93333 2.6913326
64 64 0
54.793625 159.54465 2.680738
64 64 0
54.723602 159.06796 2.6676764
64 64 0
64 64 0
56.053036 143.45639 0
64 64 0
55.968567 143.33282 0
64 64 0
55.872185 143.32822 0
64 64 0
55.920723 141.92574 0
64 64 0
55.836346 141.82275 0
64 64 0
55.74012 141.83353 0
64 64 0
55.64719 141.81314 0
64 64 0
56.826687 130.07278 0
64 64 0
64 64 -0
56.755375 129.98648 0
64 64 0
64 64 -0
56.67622 129.9725 0
54.443634 150.08362 2.4189198
64 64 -0
56.602898 129.90671 0
54.364548 149.84995 2.4126792
64 64 -0
56.522682 129.90289 0
54.264336 149.80728 2.4118087
64 64 -0
56.444836 129.8783 0
54.161255 149.79028 2.4116638
64 64 -0
56.364639 129.8743 0
54.057602 149.77834 2.4116638
64 64 -0
56.282627 129.88571 0
53.952148 149.78174 2.4120986
64 64 -0
56.242825 129.88103 0
59.158585 105.11772 1.1562723
64 64 -0
56.163841 129.86642 0
59.106449 105.13248 1.1568528
64 64 -0
56.083637 129.86209 0
59.059235 105.1059 1.1562723
64 64 -0
56.002808 129.86279 0
59.04903 104.7749 1.1471288
55.926399 129.82727 0
59.06366 104.24792 1.1324705
55.849426 129.7968 0
59.015671 104.23679 1.1323255
58.955132 104.32604 0
58.973511 104.17915 1.1308738
64 64 0
64 64 0
58.812973 104.27653 0
64 64 0
60.914616 87.731186 -0.66834486
58.765656 104.2599 0
64 64 0
60.900146 87.61924 -0.66529703
55.363148 129.80823 0
64 64 0
60.885941 87.507294 -0.66224927
55.29047 129.74615 0
53.793304 141.04791 2.1705995
60.877506 87.354156 -0.65804088
55.208965 129.75105 0
53.747734 140.68008 2.1605849
60.87431 87.164955 -0.65281588
55.126045 129.76617 0
53.648834 140.71402 2.1618917
60.845619 87.166306 -0.6529609
55.050098 129.72961 0
53.554047 140.71689 2.1623266
60.821167 87.136742 -0.65223533
54.965015 129.76001 0
53.461357 140.70421 2.1623266
60.797493 87.102005 -0.65136474
54.88842 129.72842 0
53.368679 140.69142 2.1623266
60.765984 87.123856 -0.65209031
54.811893 129.69675 0
53.301933 140.49326 2.1571021
60.740948 87.099342 -0.65150976
54.725975 129.73196 0
64 64 0
60.713039 87.09539 -0.65150976
54.650959 129.68979 0
53.57621 137.24138 2.0661042
60.688091 87.070824 -0.65092921
54.573071 129.66815 0
53.482548 137.26474 2.0671201
60.657238 87.087379 -0.65150976
54.484779 129.71854 0
53.386581 137.30341 2.0685713
60.631596 87.067886 -0.65107423
54.40538 129.70699 0
53.297264 137.29568 2.0687168
60.61615 87.076141 -0.65136474
54.364174 129.71146 0
53.242432 137.36118 2.0707486
60.585991 87.087448 -0.6517998
54.287827 129.67917 0
53.145432 137.40469 2.0723453
60.562695 87.052475 -0.65092921
54.202332 129.70859 0
53.052147 137.42235 2.0732157
60.52248 87.130531 -0.65325147
54.127586 129.66583 0
52.965759 137.39365 2.0727801
60.506996 87.044098 -0.65092921
54.04591 129.66927 0
52.870853 137.42136 2.0739412
60.475231 87.065544 -0.65165478
53.961849 129.68808 0
52.778221 137.43355 2.074667
60.424416 87.21022 -0.6558637
53.879318 129.69647 0
52.690292 137.41479 2.0745218
60.394779 87.216141 -0.65615368
53.804737 129.65332 0
58.438732 99.812279 1.0121561
60.020367 89.424576 -0.71870559
53.71978 129.67697 0
58.396267 99.8004 1.0120112
59.97102 89.537819 -0.72204393
53.637993 129.67993 0
58.357876 99.762794 1.01114
59.940166 89.532928 -0.72204393
58.325981 99.684799 0
58.312218 99.771355 1.0115756
59.911785 89.512604 -0.72160834
58.290279 99.631668 0
58.28051 99.692627 1.0095439
61.141464 81.701843 -0.99931401
59.898357 89.399918 -0.71856058
58.24474 99.640167 0
58.264725 99.516388 1.0047544
64 64 -0
61.032814 82.234627 -0.51595646
58.211708 99.571533 0
58.204288 99.617142 1.0078022
61.098694 81.694885 -0.99931401
61.012466 82.220764 -0.51566589
58.167892 99.569641 0
58.162941 99.599854 1.0075116
61.078999 81.681168 -0.99873799
60.992992 82.201767 -0.51523089
51.892132 137.29036 0
58.116539 99.613281 1.0080922
60.971855 82.193001 -0.51508594
51.799313 137.30133 0
58.066685 99.647156 1.0092534
60.953312 82.168831 -0.51450533
51.721939 137.21982 0
58.024475 99.634842 1.0091083
60.932228 82.159996 -0.51435977
51.630875 137.22034 0
57.983154 99.61734 1.0088178
60.905926 82.181908 -0.51508594
51.557255 137.1181 0
57.936638 99.630539 1.0093983
60.989872 81.624229 -0.99643165
60.900192 82.149292 -0.51421481
64 64 0
57.91861 99.606369 1.0088178
61.029091 81.268837 -0.97654086
60.874741 82.166016 -0.51479536
64 64 0
55.941624 110.84047 1.3273829
61.031193 81.132706 -0.96904469
60.865215 82.090546 -0.51276368
58.919281 93.320335 0
55.928509 110.5798 1.3202713
61.011383 81.124008 -0.96875668
60.839783 82.107224 -0.51334423
58.916965 93.124481 0
55.936562 110.20143 1.3098217
61.006809 81.028687 -0.96356797
60.829601 82.036858 -0.51145756
58.907005 92.974777 0
55.937416 109.8692 1.3006784
60.997059 80.963936 -0.96010846
60.819584 81.966492 -0.5095709
58.867466 92.994225 0
55.938164 109.54216 1.29168
60.978374 80.950119 -0.95953244
60.807911 81.906357 -0.50797421
64 64 0
55.931473 109.26125 1.2839882
60.955158 80.961716 -0.96039647
60.977261 80.838593 -0.47778687
64 64 0
55.896072 109.14406 1.2809405
60.936504 80.947853 -0.95982045
60.979103 80.712189 -0.47430354
64 64 0
55.924721 108.674 1.2678788
60.91325 80.959396 -0.96068448
60.965424 80.672737 -0.4732874
64 64 0
55.929375 108.34211 1.2587354
60.892761 80.95565 -0.96068448
60.73077 81.839607 -0.50652307
58.703648 92.901253 0
55.925446 108.06141 1.2510432
60.868523 80.972229 -0.96183765
60.699791 81.886742 -0.50797421
58.668732 92.894829 0
55.932556 107.72456 1.2417548
60.849903 80.958275 -0.96126163
60.664894 81.954262 -0.51000589
58.63097 92.903725 0
55.916744 107.51552 1.2360947
60.825611 80.974792 -0.9624148
60.650845 81.909355 -0.50884479
58.593178 92.912567 0
55.914799 107.23499 1.2284025
60.807018 80.96077 -0.96183765
60.629208 81.905296 -0.50884479
58.555359 92.921349 0
55.907753 106.98516 1.2215813
60.788452 80.946747 -0.96126163
60.618214 81.845062 -0.50724864
58.521385 92.909637 0
55.899357 106.74561 1.2150508
60.772823 80.91745 -0.95982045
60.591785 81.866478 -0.50797421
58.488407 92.892776 0
55.901272 106.45502 1.207068
60.753361 80.908463 -0.95953244
60.570202 81.86235 -0.50797421
58.448593 92.911652 0
55.880356 106.287 1.2025691
60.735878 80.889282 -0.95866728
60.554535 81.827583 -0.50710368
58.409714 92.925369 0
55.872654 106.05267 1.1961834
60.719421 80.865021 -0.95751411
60.54689 81.751984 -0.5050714
58.378742 92.898155 0
55.85955 105.84898 1.1906685
64 64 -0
60.818974 80.248459 -0.46240294
58.340828 92.90667 0
55.85392 105.60961 1.1841373
60.685677 80.82151 -0.95549577
60.811401 80.183418 -0.46066126
58.305904 92.899811 0
55.839813 105.4162 1.1789129
60.664349 80.822563 -0.95578378
60.791847 80.17955 -0.46066126
58.268963 92.903107 0
55.840313 105.15144 1.1716561
60.647057 80.803314 -0.95491976
60.782471 80.124687 -0.45920959
58.227932 92.926804 0
55.845509 104.86635 1.163819
60.63792 80.796219 -0.95463175
60.772732 80.122742 -0.45920959
58.209435 92.928406 0
55.864677 104.64231 1.1575783
60.619675 80.78199 -0.95405459
60.759407 80.088272 -0.45833904
58.170376 92.941803 0
55.826866 104.5764 1.1559817
60.5994 80.777893 -0.95405459
60.739967 80.084351 -0.45833904
58.139545 92.91433 0
55.770615 104.60216 1.1569978
60.615013 80.496002 -0.93848735
60.704243 80.061142 -0.45790347
58.066547 92.915382 0
55.608803 104.89267 1.1658506
60.700718 79.98024 -0.9093712
60.686939 80.046982 -0.45761347
58.030563 92.913284 0
55.477436 105.27948 1.1771712
60.711918 79.829391 -0.90101212
60.67178 80.022614 -0.45703292
57.991394 92.926437 0
55.412769 105.34038 1.1792029
60.70126 79.784897 -0.89870578
60.65136 80.023666 -0.45717791
57.954319 92.929337 0
55.363888 105.32489 1.1790578
60.685383 79.765701 -0.89784062
60.634136 80.009445 -0.4568879
57.918301 92.927094 0
55.321445 105.27882 1.1780418
60.674896 79.721199 -0.89553428
60.614796 80.005363 -0.4568879
57.880119 92.935013 0
57.792126 93.351044 0.83785266
60.656979 79.71212 -0.89524627
60.599785 79.980927 -0.45630735
57.847324 92.917419 0
57.750179 93.374008 0.83872324
60.642326 79.687836 -0.8940931
60.580479 79.976807 -0.45630735
57.810211 92.920135 0
57.70816 93.396935 0.83959436
60.613575 79.729271 -0.89668745
60.563366 79.962494 -0.45601681
57.775272 92.912636 0
57.681396 93.348671 0.83843327
60.570488 79.836388 -0.90302932
60.537479 79.988815 -0.4568879
57.738136 92.915276 0
55.166809 104.78885 1.1655606
60.533741 79.913101 -0.90764201
60.517056 79.989693 -0.45703292
64 64 0
55.131905 104.71214 1.1636739
60.503445 79.959427 -0.91052437
60.502186 79.965164 -0.45645234
64 64 0
55.109413 104.57956 1.1601906
60.496407 79.899635 -0.907354
60.484016 79.955856 -0.45630735
57.635605 92.88221 0
55.098408 104.39624 1.1552562
60.516373 79.71862 -0.89726347
60.464741 79.951599 -0.45630735
56.685135 97.005699 0
55.086708 104.21803 1.1504667
60.548019 79.487213 -0.88429171
60.443207 79.957451 -0.45659736
56.647522 96.986687 0
55.070908 104.06013 1.1462578
64 64 -0
60.531574 79.472923 -0.88371456
60.427338 79.937943 -0.45616236
56.612225 96.957458 0
55.046379 103.94283 1.1432099
60.523117 79.423309 -0.8811202
60.41037 79.923462 -0.45587179
56.572407 96.948517 0
55.387814 102.20332 1.0937203
60.511345 79.38884 -0.87939101
60.388832 79.92926 -0.45616236
56.521095 96.990265 0
54.656898 105.21344 1.1802189
64 64 -0
60.505489 79.37159 -0.87852585
60.371147 79.96254 -0.45717791
56.503471 96.975601 0
54.628551 105.22298 1.180654
60.488071 79.36232 -0.87823784
60.339123 80.01387 -0.4587746
56.456676 96.996948 0
54.578747 105.21162 1.180654
60.471832 79.347969 -0.87766069
60.317448 80.019562 -0.45906457
56.412148 97.008102 0
54.526627 105.21034 1.1809446
60.455616 79.333626 -0.87708467
60.302776 79.994843 -0.45848402
56.372269 96.998917 0
54.474503 105.20898 1.1812346
60.433578 79.344452 -0.87794983
60.289333 79.965057 -0.45775846
56.337112 96.969391 0
64 64 0
60.417397 79.330048 -0.87737268
60.264133 79.985863 -0.45848402
56.284252 97.015869 0
54.35957 105.25163 1.1831212
60.402424 79.3106 -0.87650752
60.248383 79.966171 -0.45804903
60.235073 80.022812 0
54.321617 105.18936 1.1816701
60.382736 79.311287 -0.87679666
60.226707 79.971733 -0.45833904
60.209732 80.043579 0
54.263489 105.21305 1.1826862
60.360653 79.321991 -0.87766069
60.194199 80.022781 -0.45993569
60.199974 79.998474 0
54.2113 105.21136 1.1829762
60.336132 79.342751 -0.879103
60.172428 80.028275 -0.4602257
60.185482 79.973618 0
54.156681 105.21972 1.1835568
60.320015 79.328247 -0.87852585
60.14093 80.074181 -0.46167737
60.161324 79.989243 0
54.106884 105.20779 1.1835568
60.294212 79.353966 -0.88025618
60.104443 80.140221 -0.46370906
60.140781 79.98967 0
54.058319 105.19077 1.1834118
60.268345 79.379631 -0.88198537
60.132511 79.939453 0
54.004875 105.19388 1.1838473
60.247314 79.385155 -0.88256139
53.931664 105.27789 0
53.951416 105.1969 1.1842823
60.223801 79.400703 -0.88371456
53.887993 105.24042 0
53.897934 105.19987 1.1847179
60.190338 79.456406 -0.88717407
53.844395 105.20291 0
53.844425 105.20278 1.1851535
60.177883 79.426689 -0.88573289
53.792114 105.2007 0
53.7934 105.19553 1.1852984
60.139244 79.502373 -0.89034557
53.741085 105.19338 0
53.743629 105.18316 1.1852984
60.070274 79.698402 -0.90187615
53.690048 105.18602 0
53.688828 105.1909 1.185879
60.013443 79.844131 -0.91052437
53.639023 105.17857 0
53.632725 105.20361 1.1866046
59.979084 79.899483 -0.91398388
64 64 0
53.582947 105.19106 1.1866046
59.969479 79.897049 -0.91398388
64 64 0
53.558064 105.18475 1.1866046
59.948997 79.897179 -0.91427189
64 64 0
53.501892 105.19728 1.1873301
54.895748 99.547859 0
53.453407 105.17953 1.1871852
55.158855 98.347824 -0.99053776
53.394516 105.20229 0
53.399773 105.18186 1.1876206
55.207157 97.989983 -0.98052382
53.346046 105.18439 0
53.346111 105.18413 1.1880562
55.217087 97.783188 -0.97486377
53.293667 105.18156 0
53.289822 105.19637 1.1887819
55.20649 97.656906 -0.97152543
53.242599 105.17363 0
53.23217 105.21355 1.1896523
55.200142 97.515572 -0.9677521
53.187572 105.18074 0
53.183701 105.19549 1.1895074
55.187492 97.399399 -0.96470428
53.13118 105.1928 0
53.124649 105.21757 1.1905235
55.191093 97.222961 -0.95991486
53.070744 105.21989 0
53.077518 105.19434 1.1902329
55.191093 97.061646 -0.95556092
53.031666 105.16641 0
53.025074 105.19116 1.1905235
55.186092 96.920471 -0.95178759
52.964436 105.21849 0
52.96859 105.20297 1.191249
55.173317 96.809448 -0.94888538
52.913288 105.21014 0
52.918812 105.18961 1.191249
55.156738 96.713455 -0.94641757
52.860783 105.20678 0
52.860916 105.20628 1.1921196
55.11858 96.697739 -0.94627255
52.820553 105.15813 0
52.807045 105.20784 1.1925552
55.08865 96.651901 -0.94525701
54.437176 99.038956 0
52.761368 105.17924 1.1921196
55.042336 96.666161 -0.94598258
54.411362 98.967133 0
52.70887 105.17567 1.1924101
55.00563 96.645287 -0.945692
54.938705 96.888199 0
52.652225 105.18704 1.1931357
54.977287 96.59433 -0.9445309
64 64 0
52.598305 105.18832 1.1935712
54.958794 96.508308 -0.9423542
54.836941 96.946442 0
52.548546 105.17452 1.1935712
54.958679 96.357216 -0.9382903
54.818146 96.860161 0
52.493214 105.18066 1.1941513
54.976971 96.216644 -0.93437195
52.454124 105.22443 0
52.46553 105.18372 1.1944418
54.985905 96.035645 -0.92943752
52.407146 105.20042 0
52.411552 105.18476 1.1948774
54.975475 95.924706 -0.92653471
52.350292 105.21143 0
52.361797 105.17073 1.1948774
54.992451 95.572975 -0.91695577
52.240738 105.21819 0
52.249508 105.18745 1.1961834
54.991531 95.43219 -0.91318244
52.202415 105.16393 0
52.192593 105.1982 1.1969091
54.989502 95.29644 -0.90955406
52.200207 104.98459 0
52.141384 105.1889 1.197054
59.282604 80.310913 -0.94627154
54.963238 95.245605 -0.90839356
54.552555 96.665588 0
52.091621 105.17454 1.197054
59.238365 80.389648 -0.95117223
58.064342 84.430664 -0.59418231
52.452599 103.74642 0
52.040432 105.1651 1.1971991
59.224365 80.364021 -0.95001906
58.065865 84.333694 -0.59157008
52.438114 103.61753 0
51.992157 105.14564 1.197054
59.21769 80.313568 -0.94742471
58.108547 84.097115 -0.58489394
52.448822 103.40374 0
59.371666 79.788315 0.45949346
59.203827 80.287926 -0.94627154
58.134174 83.920486 -0.57995951
52.41151 103.3548 0
59.358463 79.762772 0.45891288
59.198826 80.232506 -0.94338804
59.112373 80.524796 -0.48126966
59.316933 79.833191 0
59.342365 79.747192 0.4586229
59.208672 80.127533 -0.93762332
59.138287 80.364456 -0.47677076
59.291874 79.847481 0
59.327782 79.726608 0.45818734
59.239479 79.953201 -0.92782193
59.197269 80.094658 -0.46907908
59.283142 79.806877 0
59.316212 79.696053 0.45746177
59.297436 79.689774 -0.91283071
64 64 -0
59.273018 79.77124 0
59.295761 79.695358 0.45760676
59.323212 79.535484 -0.90418249
64 64 -0
59.259964 79.745583 0
59.294777 79.629944 0.45586511
59.319412 79.480316 -0.90130013
64 64 -0
59.240944 79.739845 0
59.280403 79.609344 0.45543009
59.315746 79.42514 -0.89841664
59.238827 79.678429 -0.45761347
59.247639 79.649422 0
59.260036 79.608597 0.45557511
59.297112 79.419472 -0.89841664
59.230499 79.637863 -0.45659736
59.231766 79.63372 0
59.244213 79.592903 0.45528454
59.283024 79.398956 -0.89755261
59.216171 79.617203 -0.45616236
59.212879 79.627945 0
59.231464 79.567268 0.45470399
59.26442 79.393242 -0.89755261
59.200363 79.601463 -0.45587179
59.200119 79.602249 0
59.206547 79.581367 0.45528454
59.264267 79.36071 -0.89582229
59.201656 79.563789 -0.45485568
59.184563 79.619247 0
59.204788 79.553642 0.454559
59.242649 79.364868 -0.89639944
59.184391 79.553024 -0.45471069
59.171852 79.593521 0
59.190609 79.532936 0.45412344
59.239449 79.309708 -0.89351594
59.170231 79.532303 -0.45427513
59.162281 79.557869 0
59.173386 79.522156 0.45397842
59.222496 79.299011 -0.89322793
59.145271 79.546295 -0.45485568
59.127975 79.601685 0
59.151535 79.526245 0.45426899
59.21175 79.268547 -0.89178675
59.138924 79.500771 -0.45369512
59.120033 79.56102 0
59.135891 79.510445 0.45397842
59.197968 79.247948 -0.89092159
59.117081 79.504791 -0.45398512
59.104355 79.545189 0
59.121838 79.489685 0.45354286
59.181107 79.237206 -0.89063358
59.101479 79.488976 -0.45369512
59.102844 79.484665 0
59.112522 79.454056 0.4526723
59.167397 79.216576 -0.88976842
59.082767 79.483047 -0.45369512
59.079407 79.493629 0
59.087563 79.467957 0.45325288
59.145866 79.220589 -0.89034557
59.065647 79.47213 -0.45354956
59.062271 79.482712 0
59.073612 79.447144 0.45281732
59.125904 79.219635 -0.89063358
59.054878 79.441414 -0.452824
59.046745 79.466812 0
59.054955 79.441185 0.45281732
59.101181 79.233437 -0.89178675
59.031452 79.450272 -0.45325956
59.026466 79.465767 0
59.036297 79.435196 0.45281732
59.078011 79.242279 -0.89265192
59.017578 79.429413 -0.452824
59.017376 79.430038 0
59.020844 79.419304 0.45252731
59.056408 79.246147 -0.89322793
58.99894 79.423386 -0.452824
58.997131 79.428955 0
59.008629 79.393509 0.45194677
59.036388 79.245079 -0.89351594
58.981915 79.412392 -0.45267901
58.978493 79.422897 0
58.985203 79.40229 0.45238233
59.008324 79.268585 -0.89524627
58.966526 79.396431 -0.45238844
58.961479 79.411873 0
58.973053 79.376465 0.45180175
58.976971 79.301857 -0.89755261
58.941444 79.410088 -0.45296901
58.947731 79.390938 0
58.957726 79.360489 0.4515112
64 64 -0
58.95039 79.320335 -0.89899379
58.929333 79.384224 -0.45238844
58.929138 79.384819 0
58.945675 79.334648 0.45093063
64 64 -0
58.925381 79.33387 -0.90014696
58.910751 79.378082 -0.45238844
58.90728 79.388573 0
58.920616 79.348267 0.4515112
58.903599 79.337532 -0.90072298
58.895447 79.362068 -0.45209846
58.891972 79.37252 0
58.902077 79.342117 0.4515112
58.88179 79.341187 -0.90130013
58.878532 79.350967 -0.45195344
58.876694 79.356468 0
58.885185 79.331017 0.45136619
58.866547 79.325172 -0.90072298
58.861641 79.339821 -0.45180789
58.856491 79.355202 0
58.865017 79.32975 0.4515112
58.844734 79.328773 -0.90130013
58.851391 79.308975 -0.45108232
58.842918 79.334167 0
58.844841 79.328453 0.45165619
58.829529 79.312721 -0.90072298
58.829567 79.312607 -0.45137289
58.824394 79.327927 0
58.831306 79.307457 0.4512212
58.816959 79.319405 -0.90130013
58.831978 79.275009 -0.45035678
58.820137 79.31002 0
58.82206 79.304337 0.4512212
58.798454 79.313133 -0.90130013
58.80851 79.283524 -0.45079234
58.794945 79.323463 0
58.796886 79.317749 0.45180175
58.794979 79.262779 -0.89870578
58.800114 79.247719 -0.44992122
58.781475 79.302376 0
58.780064 79.306519 0.45165619
58.778221 79.251572 -0.89841664
58.769909 79.275848 -0.45093733
58.771416 79.271446 0
58.771667 79.270706 0.45078564
58.764835 79.230583 -0.89755261
58.754829 79.259697 -0.45064732
58.754665 79.260178 0
58.749844 79.2742 0.45107564
58.758251 79.190018 -0.89553428
58.743176 79.233696 -0.45006678
58.727734 79.278442 0
58.726307 79.282585 0.4515112
58.733128 79.203224 -0.89668745
58.723076 79.232239 -0.45021176
58.709278 79.272064 0
58.704437 79.286034 0.45180175
58.71986 79.182182 -0.89582229
58.704674 79.225853 -0.45021176
58.690826 79.265663 0
58.68256 79.289429 0.45209175
58.694698 79.195328 -0.89697546
58.691422 79.20472 -0.4497762
58.668957 79.269051 0
58.66238 79.287895 0.45223674
58.686604 79.159622 -0.89524627
58.67477 79.19339 -0.44963121
58.650513 79.262604 0
58.637035 79.301056 0.45281732
58.670006 79.148315 -0.89495826
58.652969 79.196747 -0.44992122
58.628616 79.265953 0
58.620274 79.289665 0.4526723
58.655155 79.132103 -0.89438111
58.622494 79.224579 -0.45093733
58.604977 79.274162 0
58.594879 79.302757 0.45325288
58.635147 79.130508 -0.89466912
58.602364 79.222961 -0.45108232
58.596958 79.238205 0
58.576393 79.296211 0.45325288
58.615131 79.128899 -0.89495826
58.577003 79.236015 -0.4516629
58.559357 79.285591 0
58.554432 79.299431 0.45354286
58.593376 79.132111 -0.89553428
58.556854 79.234337 -0.45180789
58.540894 79.279007 0
58.539444 79.283058 0.45325288
58.575096 79.125572 -0.89553428
58.531429 79.247314 -0.45238844
58.527702 79.257721 0
58.512211 79.300903 0.45397842
58.551567 79.133614 -0.89639944
58.518288 79.226044 -0.45195344
58.503983 79.26577 0
58.493725 79.294266 0.45397842
58.545593 79.092957 -0.89438111
58.499893 79.219406 -0.45195344
58.47139 79.298279 0
58.469948 79.302269 0.45441398
58.523827 79.096092 -0.89495826
58.476196 79.227394 -0.45238844
58.463554 79.262238 0
58.446144 79.310234 0.45484954
58.507366 79.084587 -0.89466912
58.448906 79.24514 -0.45311457
58.437996 79.275101 0
58.42765 79.303513 0.45484954
58.496246 79.058502 -0.89351594
58.426926 79.248169 -0.45340458
58.414181 79.283043 0
58.410954 79.29187 0.45470399
58.478249 79.079483 -0.89495826
58.417713 79.244804 -0.45340458
58.412106 79.260117 0
58.398136 79.298264 0.45499456
58.445412 79.056374 -0.89438111
58.362904 79.280014 -0.45485568
58.369846 79.2612 0
58.361183 79.284683 0.45499456
58.434406 79.030251 -0.89322793
58.349854 79.258591 -0.45442069
58.344181 79.273911 0
58.344521 79.272987 0.45484954
58.407242 79.047752 -0.89466912
58.325996 79.26635 -0.45485568
58.327541 79.262192 0
58.307968 79.31485 0.45630068
58.396294 79.021599 -0.89351594
58.302101 79.274094 -0.45529124
58.305462 79.265091 0
58.296734 79.288483 0.4557201
58.374516 79.024513 -0.8940931
58.28912 79.252594 -0.45485568
58.281551 79.272812 0
58.263687 79.320511 0.45688123
58.349087 79.037071 -0.89524627
58.257896 79.279739 -0.45587179
58.261269 79.270752 0
58.237869 79.333031 0.45746177
58.327274 79.039902 -0.89582229
58.239437 79.272789 -0.45587179
58.231796 79.293037 0
58.215679 79.33577 0.45775178
58.301781 79.052391 -0.89697546
58.220985 79.265816 -0.45587179
58.215164 79.281197 0
58.191631 79.343361 0.45818734
58.281761 79.050323 -0.89726347
58.19516 79.278259 -0.45645234
58.178223 79.322845 0
58.163872 79.360611 0.45891288
58.241463 79.10141 -0.90072298
58.174854 79.276077 -0.45659736
58.168983 79.291481 0
58.139755 79.368126 0.45934844
58.21767 79.10894 -0.90158814
58.160114 79.259331 -0.45630735
58.152367 79.279572 0
58.102619 79.409561 0.46079957
58.199417 79.101944 -0.90158814
58.139816 79.257111 -0.45645234
58.128315 79.287056 0
58.078415 79.416977 0.46123514
58.15699 79.157661 -0.90533566
58.119518 79.254868 -0.45659736
58.104233 79.294525 0
58.05418 79.424362 0.4616707
58.136814 79.155411 -0.90562367
58.101089 79.247749 -0.45659736
58.059467 79.355339 0
58.0243 79.446243 0.46254125
58.124115 79.133865 -0.90475965
58.084549 79.235771 -0.45645234
58.040916 79.348152 0
58.001877 79.448708 0.4628318
58.111469 79.112289 -0.90389448
58.058598 79.247978 -0.45703292
57.999699 79.399139 0
57.970009 79.475334 0.46384737
58.083797 79.129242 -0.90533566
58.045856 79.226265 -0.45659736
57.967827 79.425812 0
57.951317 79.468033 0.46384737
58.063633 79.1269 -0.90562367
58.002785 79.281944 -0.45848402
57.937786 79.447578 0
57.949715 79.417175 0.46254125
58.039669 79.134155 -0.90648884
57.974804 79.298859 -0.45920959
57.924843 79.425728 0
51.591858 95.506111 0.94568533
58.015682 79.14138 -0.907354
57.944859 79.32058 -0.46008071
57.900475 79.432884 0
51.52705 95.558769 0.94771755
57.989761 79.153374 -0.90850717
57.916771 79.337402 -0.46080625
57.872238 79.449692 0
54.799648 87.19648 0.69692934
57.971458 79.146103 -0.90850717
57.877102 79.383156 -0.46240294
57.853573 79.442276 0
54.783154 87.156387 0.69605881
57.960392 79.147255 -0.90879518
57.860111 79.398766 -0.46298349
57.844246 79.438553 0
54.76532 87.160461 0.69634879
57.942097 79.139946 -0.90879518
57.843445 79.38649 -0.46283793
57.81979 79.44561 0
54.754715 87.105865 0.69504267
57.921879 79.137413 -0.90908319
57.817112 79.398331 -0.46341848
54.669075 87.238449 0
54.746162 87.046455 0.69359159
57.913258 79.106071 -0.90764201
57.812103 79.357124 -0.46240294
54.555408 87.439583 0
54.737751 86.987045 0.69213992
57.87756 79.141861 -0.91023636
57.787712 79.364075 -0.46283793
54.532948 87.413673 0
54.73336 86.918022 0.69039822
57.870934 79.105705 -0.90850717
57.761337 79.375824 -0.46341848
54.506618 87.3974 0
54.709579 86.897186 0.69010824
57.850739 79.103073 -0.90879518
57.727085 79.406776 -0.46457961
54.511719 87.303963 0
54.689758 86.866692 0.68952769
57.812931 79.143509 -0.91167754
57.716335 79.379944 -0.46399906
54.550499 87.128662 0
54.703407 86.754402 0.68647987
57.812298 79.092949 -0.90908319
57.680016 79.415611 -0.46530515
54.528484 87.102776 0
54.740974 86.584473 0.68169039
57.780289 79.118958 -0.91110152
57.65546 79.422386 -0.46574071
54.577797 86.903603 0
54.755211 86.472351 0.67864263
57.767944 79.097076 -0.91023636
57.632858 79.424324 -0.46603128
54.653404 86.642014 0
54.726074 86.465981 0.67878819
57.74971 79.089539 -0.91023636
55.0051 85.715607 -0.65644425
54.673851 86.515312 0
54.669109 86.526764 0.68096483
57.73148 79.08197 -0.91023636
55.012775 85.623146 -0.65397698
54.660637 86.470383 0
54.600014 86.616241 0.68401265
57.707287 79.088715 -0.91110152
55.02066 85.530731 -0.65150976
54.68959 86.32457 0
54.574692 86.600082 0.68386763
57.691055 79.076332 -0.91081351
55.004677 85.495903 -0.65078419
54.714863 86.188469 0
54.52533 86.641396 0.68546379
57.66684 79.082993 -0.91167754
54.990788 85.456261 -0.64991307
54.688057 86.177231 0
54.461758 86.716187 0.68807656
57.63858 79.099167 -0.91311872
54.985039 85.397476 -0.648462
54.665306 86.156387 0
54.416161 86.747742 0.68938267
57.60825 79.120064 -0.91484904
54.989548 85.314758 -0.64628476
54.697311 86.006058 0
54.400826 86.70742 0.68851155
57.585949 79.121841 -0.91542506
54.996262 85.227325 -0.6439631
54.717476 85.88459 0
54.424126 86.576202 0.68488318
57.545399 79.166443 -0.91859657
54.982834 85.187729 -0.64309198
54.684925 85.887726 0
54.551514 86.20121 0.67385316
57.510826 79.196693 -0.92090291
54.971519 85.143379 -0.64207637
54.652351 85.890823 0
54.606319 85.998619 0.66804814
57.449688 79.288689 -0.92695677
54.974632 85.065567 -0.64004415
54.640259 85.846016 0
54.604305 85.929932 0.6663065
57.399651 79.379807 -0.93272263
54.984447 85.007591 -0.63844806
54.668114 85.74469 0
54.591057 85.924248 0.6663065
57.352436 79.438324 -0.93675816
54.996071 84.910751 -0.63583529
54.666542 85.676056 0
54.552238 85.941513 0.66717756
57.313274 79.47776 -0.93964052
54.976986 84.885559 -0.63540024
54.632099 85.683868 0
54.529858 85.920532 0.66688704
64 64 -0
57.28223 79.498154 -0.94137084
54.980698 84.807877 -0.63336802
54.591423 85.705956 0
54.505444 85.904312 0.66674203
57.267639 79.48053 -0.94079369
54.978355 84.74456 -0.63177192
54.596333 85.622986 0
54.454113 85.950012 0.66848367
57.269619 79.42498 -0.93791133
54.961609 84.714592 -0.63119137
54.580627 85.587738 0
54.425522 85.943214 0.66862869
57.267582 79.378929 -0.93560499
54.96785 84.63224 -0.62901413
54.529499 85.63356 0
54.363586 86.012558 0.67109591
57.255249 79.356567 -0.93473983
54.972179 84.554703 -0.62698245
54.484531 85.664986 0
54.336994 86.0009 0.67109591
57.234615 79.353134 -0.93502784
54.964111 84.505737 -0.62582135
54.452061 85.66777 0
54.308327 85.993958 0.67124093
57.224426 79.326042 -0.9338758
54.968758 84.428268 -0.62378967
54.455349 85.589577 0
54.313271 85.91095 0.66906428
57.161877 79.41713 -0.93992853
54.954613 84.393593 -0.6230641
54.380737 85.687447 0
54.293125 85.884972 0.66862869
54.959564 84.316162 -0.62103188
54.360878 85.66156 0
54.254017 85.901703 0.66949928
54.947727 84.276764 -0.62016129
54.311378 85.702164 0
54.23391 85.875694 0.66906428
54.972095 84.156723 -0.61682296
54.29155 85.676186 0
54.179871 85.925529 0.67095095
54.96265 84.112625 -0.61580741
54.250427 85.697678 0
54.072449 86.093765 0.67646593
64 64 -0
54.961849 84.049576 -0.61421072
54.230637 85.671638 0
53.849281 86.517616 0.6898182
54.944057 84.024429 -0.61377519
54.167999 85.74044 0
53.849922 86.443764 0.687931
54.941334 83.966156 -0.61232406
54.133137 85.747498 0
53.805634 86.469345 0.6890921
56.573879 80.315445 -0.999026
54.949512 83.884239 -0.61014682
54.145676 85.650299 0
53.735435 86.551605 0.69199491
56.528008 80.311569 -0.99989116
54.942604 83.772552 -0.60738957
54.568085 84.590134 0
53.546783 86.819664 0.70099324
56.512627 80.293121 -0.99931401
54.955605 83.68132 -0.60492235
54.554077 84.555084 0
53.488842 86.873116 0.70302492
56.502785 80.288589 -0.99931401
54.952408 83.656967 -0.6043418
54.539486 84.554092 0
53.468506 86.880928 0.70346051
54.948269 83.603561 -0.60303569
54.529922 84.509583 0
53.482262 86.778534 0.70070273
54.93988 83.559601 -0.60201955
54.56422 84.370598 0
53.518085 86.629066 0.6964938
54.940338 83.496811 -0.60042346
54.526447 84.387512 0
53.519218 86.555115 0.69460714
54.921181 83.476418 -0.60013288
54.482033 84.418503 0
53.53149 86.457664 0.69199491
54.941681 83.371284 -0.59723014
54.459568 84.402283 0
53.537376 86.374397 0.6898182
56.387089 80.229134 -0.999026
54.938141 83.317978 -0.59592402
54.434921 84.390739 0
53.464012 86.460518 0.69286543
54.934719 83.264702 -0.5946179
54.410294 84.379166 0
53.432449 86.457184 0.693156
56.343479 80.220032 -0.99960202
54.933628 83.206749 -0.59316677
54.370129 84.400497 0
54.734085 83.629471 0.6062218
54.937115 83.13942 -0.59142512
54.292023 84.501755 0
54.692581 83.655838 0.60738289
54.927372 83.100296 -0.59055454
54.253864 84.518204 0
54.679985 83.621109 0.60665733
54.931122 83.03302 -0.58881289
54.244743 84.473534 0
54.678635 83.562927 0.60520625
56.26963 80.173515 -0.999026
54.919334 82.998611 -0.58808732
54.213287 84.475807 0
54.668453 83.523506 0.60433513
54.918858 82.94075 -0.58663565
54.148041 84.548462 0
53.191288 86.543983 0.69823545
54.916248 82.887619 -0.58532953
54.084873 84.61628 0
53.139278 86.582428 0.69983214
56.206562 80.154694 -0.99960202
54.906979 82.848557 -0.58445895
54.066757 84.59021 0
53.093933 86.606735 0.70099324
54.924961 82.753342 -0.58184618
54.048687 84.564133 0
53.066628 86.593544 0.70099324
54.920464 82.704956 -0.58068508
53.960205 84.683205 0
53.032532 86.59433 0.70142829
54.920616 82.647263 -0.57923394
53.912441 84.71785 0
53.02116 86.548363 0.70041269
54.900368 82.631607 -0.57908893
53.832592 84.817894 0
50.868443 90.887024 0.83567548
56.111382 80.102676 -0.99931401
54.914444 82.545929 -0.57676673
53.798286 84.824287 0
50.847393 90.847809 0.83494991
56.087364 80.102425 -0.99989116
54.905788 82.506958 -0.57589614
53.782314 84.793259 0
50.814964 90.831894 0.83494991
56.082207 80.088348 -0.99931401
54.8992 82.492126 -0.57560557
53.792732 84.740395 0
50.798756 90.823929 0.83494991
56.081093 80.041664 -0.99700767
54.897568 82.439186 -0.57429945
53.760773 84.742035 0
50.759449 90.821938 0.83538544
56.045647 80.064537 -0.999026
54.89835 82.381607 -0.57284838
53.7565 84.687668 0
50.715523 90.829208 0.83611101
56.026241 80.054916 -0.999026
54.890018 82.342667 -0.57197726
53.717617 84.703255 0
53.621086 84.897614 0.6516481
56.018379 80.022125 -0.99758482
54.897984 82.271172 -0.57009059
53.71582 84.644218 0
53.591206 84.894371 0.65193862
55.985153 80.040222 -0.99931401
54.910751 82.190445 -0.56791389
53.665291 84.682999 0
53.556675 84.900375 0.65251917
55.968094 80.025909 -0.999026
54.900429 82.156204 -0.56718779
54.759686 82.437027 0
50.432327 91.071312 0.84568995
55.953388 80.006935 -0.99844885
54.88549 82.131279 -0.56675279
54.737411 82.425842 0
50.390301 91.073456 0.84626991
54.894005 82.059929 -0.56486613
54.780762 82.284523 0
50.355251 91.061646 0.84641552
55.919395 79.978218 -0.99787283
54.890953 82.01181 -0.56370497
54.779816 82.231575 0
50.306152 91.077591 0.84743106
55.911793 79.945381 -0.99643165
54.895058 81.949806 -0.56210834
54.753086 82.229691 0
50.247581 91.112007 0.84902769
55.890186 79.940201 -0.99671966
54.887512 81.911011 -0.56123775
54.742867 82.195312 0
51.784214 88.010681 0.75236958
55.870934 79.930389 -0.99671966
54.887131 81.85833 -0.55993164
54.73745 82.151657 0
51.769379 87.96814 0.751499
55.84697 79.929779 -0.99729681
54.886875 81.805656 -0.55862498
54.748718 82.075592 0
51.747532 87.939453 0.75106347
55.844269 79.887695 -0.99527848
54.891468 81.74379 -0.55702883
54.74115 82.036613 0
51.73048 87.90152 0.7503379
55.832184 79.864029 -0.99441332
54.893818 81.686577 -0.55557775
54.745567 81.974518 0
51.713501 87.863586 0.74961233
55.829628 79.821991 -0.99239612
54.874847 81.670929 -0.5554322
54.735794 81.940201 0
51.718052 87.784081 0.74758065
55.810516 79.812103 -0.99239612
54.879784 81.609146 -0.55383605
54.723698 81.910507 0
51.71323 87.723068 0.74612898
55.803345 79.779228 -0.9909538
54.882477 81.551979 -0.55238438
54.738056 81.830002 0
51.706131 87.666702 0.74482286
55.772327 79.792267 -0.99239612
54.878075 81.508705 -0.55136883
54.723736 81.804947 0
51.696754 87.61496 0.74366176
55.758049 79.773132 -0.99181896
54.866554 81.479248 -0.55078828
54.719097 81.761444 0
51.70192 87.535599 0.74163008
55.753399 79.73568 -0.99008977
54.884037 81.394547 -0.54846603
54.719383 81.708725 0
51.700027 87.470085 0.74003339
55.75124 79.693649 -0.98807144
54.875114 81.360519 -0.54774046
53.349201 84.263641 0
51.700684 87.400024 0.73829228
55.72731 79.716118 -0.98980063
54.88641 81.313622 -0.54643434
53.351501 84.229576 0
51.720444 87.328201 0.73626006
55.720398 79.683243 -0.98835945
54.877636 81.279602 -0.54570824
53.365948 84.143051 0
51.740788 87.221428 0.73335725
55.703873 79.668655 -0.98807144
54.8908 81.204277 -0.54367656
53.358658 84.098 0
51.773521 87.091797 0.72972947
55.680099 79.667755 -0.98864746
54.88464 81.165726 -0.54280603
53.33683 84.080513 0
52.155083 86.305939 0.70534718
55.680618 79.621178 -0.98634225
54.876118 81.131775 -0.54208046
54.680199 81.499649 0
52.208752 86.140244 0.70055771
55.647129 79.638481 -0.98807144
54.877468 81.079468 -0.54077381
54.673767 81.460838 0
52.191803 86.107651 0.69997716
55.650223 79.587341 -0.98547709
54.86174 81.05928 -0.54048377
52.219604 85.991608 0
64 64 0
55.614262 79.609131 -0.98749429
54.865723 81.002457 -0.5390327
52.229992 85.908577 0
64 64 0
55.590496 79.608101 -0.98807144
54.882164 80.922775 -0.53685546
52.208462 85.885185 0
64 64 0
55.579021 79.584274 -0.98720628
54.864189 80.907173 -0.53671044
52.194397 85.84803 0
52.104851 86.013741 0.69881606
55.560196 79.574089 -0.98720628
54.868534 80.850426 -0.53525877
52.190323 85.792564 0
52.07579 86.003922 0.69896102
55.541386 79.563873 -0.98720628
54.858109 80.821114 -0.53467822
52.171455 85.764557 0
52.056648 85.975807 0.69852602
55.517632 79.562737 -0.98778343
54.870117 80.75074 -0.53279155
52.105312 85.823372 0
52.042534 85.938553 0.69780046
55.516201 79.520699 -0.9857651
54.874805 80.694099 -0.53134042
52.101425 85.767868 0
52.035976 85.887604 0.69663936
55.477562 79.546722 -0.98807144
54.862137 80.669388 -0.53090489
52.065125 85.771729 0
52.022038 85.850334 0.69591326
55.46875 79.51828 -0.98691827
54.852016 80.640121 -0.53032428
52.036312 85.761871 0
51.998146 85.831299 0.69576824
55.418762 79.520256 -0.98835945
54.854576 80.540649 -0.52785707
51.998875 85.705551 0
51.942909 85.80677 0.69591326
55.405025 79.500832 -0.98778343
54.849716 80.502327 -0.52698654
54.612667 80.92984 0
51.919086 85.787643 0.69576824
55.383793 79.494949 -0.98807144
54.86261 80.43222 -0.52509981
51.981865 85.612808 0
51.875088 85.804832 0.69678438
55.375153 79.466461 -0.98691827
54.860481 80.389389 -0.52408373
51.960831 85.589172 0
51.86647 85.758385 0.69576824
55.360771 79.470268 -0.98749429
54.868313 80.352112 -0.52306819
51.907188 85.654602 0
51.853325 85.751053 0.69576824
55.314278 79.509476 -0.99066579
54.8638 80.313858 -0.52219707
51.896286 85.61274 0
51.811813 85.763573 0.69663936
55.315811 79.462883 -0.98835945
54.85936 80.275627 -0.52132648
51.880375 85.579941 0
51.777897 85.762413 0.69707435
55.292049 79.461403 -0.9889366
54.847355 80.250977 -0.52089095
53.698376 82.291046 0
51.75161 85.747627 0.69707435
55.28355 79.432854 -0.98778343
54.832832 80.230865 -0.52060091
53.673725 82.283112 0
51.720226 85.741867 0.69736493
55.264908 79.42231 -0.98778343
54.831158 80.188126 -0.51958483
64 64 0
51.6786 85.754143 0.69823545
55.225842 79.447723 -0.99008977
54.824432 80.154442 -0.51885927
64 64 0
51.649761 85.743752 0.69838047
55.204624 79.441605 -0.99037778
54.828068 80.102707 -0.51755315
64 64 0
51.600342 85.76947 0.69968712
55.211636 79.38604 -0.98749429
54.836975 80.041969 -0.51595646
53.608711 82.192322 0
51.579205 85.745438 0.69939661
55.19305 79.375412 -0.98749429
54.838261 79.994812 -0.51479536
53.604839 82.148148 0
51.516781 85.793533 0.70142829
55.169319 79.373734 -0.98807144
54.834465 79.956696 -0.51392478
53.559589 82.176193 0
54.643055 80.289932 0.52465761
55.143002 79.376503 -0.9889366
54.841137 79.900566 -0.51247311
53.522049 82.190613 0
54.623379 80.278618 0.52465761
55.147713 79.325485 -0.98634225
54.832329 79.87149 -0.51189256
53.497478 82.182442 0
54.593319 80.285278 0.52523816
55.111061 79.3461 -0.98835945
54.82618 79.837921 -0.51116699
53.459858 82.196777 0
54.573647 80.273895 0.52523816
55.089928 79.339813 -0.98864746
54.82793 79.790871 -0.51000589
53.453568 82.157013 0
50.688442 86.917526 0.740179
55.076599 79.320107 -0.98807144
54.82716 79.74836 -0.50899035
53.444733 82.121773 0
50.67646 86.874474 0.73930788
55.06332 79.300369 -0.98749429
54.821251 79.714813 -0.50826424
53.412346 82.126984 0
50.675034 86.813492 0.73785675
55.018688 79.334206 -0.99037778
54.820648 79.672333 -0.50724864
53.353626 82.177048 0
50.668491 86.761497 0.73669565
55.026371 79.278725 -0.98749429
54.830669 79.611931 -0.50565201
53.257862 82.289833 0
50.643627 86.740891 0.73655063
55.015785 79.254517 -0.98663026
54.822361 79.582932 -0.5050714
54.506237 80.11969 0
50.618805 86.720245 0.73640507
54.99736 79.243645 -0.98663026
54.822029 79.54052 -0.50405586
54.457649 80.157509 0
50.57814 86.726448 0.73713118
54.986855 79.219398 -0.9857651
54.827103 79.489159 -0.5027492
54.501785 80.038483 0
50.524212 86.754929 0.73858231
54.947342 79.24408 -0.98807144
54.82431 79.451263 -0.50187862
54.548855 79.915108 0
50.496727 86.738625 0.73858231
54.948711 79.220825 -0.98691827
54.8256 79.427849 -0.50129807
