# .PCD v0.7 - Point Cloud Data file format
VERSION 0.7
FIELDS x y z
SIZE 4 4 4
TYPE F F F
COUNT 1 1 1
WIDTH 1588
HEIGHT 1
VIEWPOINT 0 0 0 1 0 0 0
POINTS 1588
DATA ascii
72.059151 51.985825 -0.80624723
74.990166 47.616417 -0.55097342
77.002876 44.615971 0
76.903564 44.764015 0.64689875
67.150681 59.315372 -0.93076086
67.675377 58.535213 -0.90849656
68.428757 57.415047 -0.87899786
69.566879 55.722813 -0.83149314
72.06501 52.008434 -0.80538321
64 64 -0
76.994339 44.679192 0
76.923904 44.783928 0.64675379
67.13147 59.356064 -0.92342699
67.670761 58.556297 -0.90572792
68.442383 57.411987 -0.88012254
69.562531 55.750824 -0.82935369
72.093948 51.996746 -0.80682439
75.023911 47.651653 -0.55068284
76.9944 44.729431 0
76.932587 44.821098 0.64602822
67.156456 59.331181 -0.92913252
67.677338 58.560738 -0.90572792
68.444656 57.42577 -0.87899786
69.581108 55.744804 -0.83063638
72.105553 52.010818 -0.80653638
75.032013 47.682205 -0.55010229
77.032249 44.723591 0
76.947021 44.849655 0.64559263
67.134369 59.375908 -0.92098445
67.686729 58.56102 -0.90642208
68.444038 57.443768 -0.87730867
69.596848 55.743046 -0.83149314
72.114227 52.02919 -0.80595922
75.05172 47.695549 -0.55010229
77.043846 44.756584 0
76.961395 44.878223 0.6451571
67.176071 59.326553 -0.93157816
67.696114 58.561333 -0.90711355
68.454811 57.444946 -0.87787098
69.59816 55.762558 -0.83020884
72.137405 52.026165 -0.80682439
75.062645 47.721813 -0.54966676
77.046616 44.802483 0
76.987419 44.889587 0.64530265
67.162231 59.358994 -0.92587262
67.716805 58.545074 -0.91057372
68.477043 57.429321 -0.88068706
69.613899 55.760834 -0.8310656
72.160614 52.023178 -0.80768955
75.076462 47.743774 -0.54937673
77.066864 44.822578 0
76.984161 44.943962 0.643996
67.184563 59.338337 -0.93076086
67.692268 58.595131 -0.90296191
68.467773 57.459923 -0.87730867
69.62674 55.76339 -0.83149314
72.166321 52.045868 -0.80682439
75.084366 47.77433 -0.54879618
77.08416 44.846966 0
77.010117 44.95536 0.64414155
67.195786 59.334023 -0.93239236
67.718636 58.570633 -0.90780509
68.478546 57.461136 -0.87787098
69.636688 55.770195 -0.83149314
72.183678 52.051479 -0.8071124
75.095154 47.800606 -0.54836065
77.09259 44.884258 0
77.009621 45.005394 0.6429804
67.153847 59.407158 -0.91853875
67.733719 58.562717 -0.90988225
68.497948 57.449795 -0.88012254
69.640808 55.785484 -0.83063638
72.203972 52.052837 -0.80768955
75.117668 47.809727 -0.5485062
77.109779 44.908684 0
77.026672 45.029705 0.64268988
67.232277 59.305119 -0.93972629
67.711838 58.608551 -0.90296191
68.494331 57.471977 -0.87787098
69.650734 55.792305 -0.83063638
72.212532 52.071289 -0.8071124
75.125435 47.840294 -0.54792565
77.132843 44.924538 0
77.046646 45.049736 0.64254487
67.193016 59.374119 -0.92668682
67.732597 58.5924 -0.90642208
68.499336 57.48159 -0.87730867
69.651901 55.811802 -0.82935369
72.229874 52.076969 -0.80740041
75.141991 47.85804 -0.5477801
77.141098 44.96183 0
77.054771 45.086891 0.6418193
67.195793 59.382042 -0.92587262
67.736267 58.601051 -0.90572792
68.507202 57.487034 -0.87730867
69.679321 55.793316 -0.83192068
72.250168 52.078407 -0.80797756
75.140793 47.901413 -0.54676449
77.152245 44.994843 0
77.062836 45.124046 0.64109373
67.20137 59.385906 -0.92587262
67.745659 58.601433 -0.90642208
68.515076 57.492485 -0.87730867
69.68338 55.808613 -0.8310656
72.273415 52.07563 -0.80884272
75.166161 47.906357 -0.54705453
77.178162 45.006477 0
77.076744 45.152657 0.6406582
67.198524 59.395954 -0.92424428
67.743187 58.611946 -0.90503645
68.5103 57.507736 -0.87561947
69.697113 55.799408 -0.83234823
72.283569 52.076385 -0.80913073
75.158096 47.938705 -0.54618394
77.171822 45.040085 0
77.061447 45.198967 0.63935208
67.243629 59.34304 -0.93565226
67.766907 58.591763 -0.90919071
68.523956 57.504845 -0.8767463
69.704086 55.810509 -0.83192068
72.297966 52.086403 -0.80913073
75.17749 47.952202 -0.54618394
77.185799 45.068832 0
77.090088 45.206245 0.63964206
67.203972 59.411808 -0.92261279
67.756195 58.62101 -0.90503645
68.528893 57.514477 -0.87618399
69.722794 55.804775 -0.83320498
72.309402 52.100677 -0.80884272
75.18795 47.978504 -0.54574841
77.205681 45.089039 0
77.118744 45.213543 0.63993263
67.263382 59.338741 -0.93809789
67.782837 58.596775 -0.90988225
68.545464 57.507477 -0.87787098
69.729752 55.815895 -0.83277744
72.3386 52.089539 -0.8102839
75.195374 48.009064 -0.54516786
77.22554 45.109268 0
77.138458 45.233662 0.63978761
67.21505 59.419563 -0.92261279
67.777832 58.617779 -0.90711355
68.54747 57.521286 -0.8767463
69.739639 55.822826 -0.83277744
72.34407 52.112331 -0.80941874
75.217674 48.018353 -0.54531282
77.251343 45.12101 0
77.167084 45.241051 0.64007765
67.229118 59.411324 -0.92505848
67.772781 58.63876 -0.90434492
68.552376 57.530937 -0.87618399
69.752464 55.825573 -0.83320498
72.361404 52.118195 -0.80970675
75.222023 48.053165 -0.54458731
77.286133 45.120007 0
77.171806 45.282467 0.63920707
67.240356 59.407158 -0.92668682
67.793716 58.622826 -0.90780509
68.560188 57.536442 -0.87618399
69.753456 55.845119 -0.83192068
72.375748 52.128307 -0.80970675
75.232307 48.07946 -0.54415226
77.31794 45.12331 0
77.170441 45.332367 0.63804597
67.257324 59.394932 -0.92994666
67.797318 58.631508 -0.90711355
68.57679 57.529522 -0.87787098
69.763306 55.852077 -0.83192068
72.393074 52.134216 -0.80999482
75.239532 48.110016 -0.54357171
77.373795 45.092686 0
77.168983 45.38224 0.63688487
67.240005 59.431129 -0.92342699
67.809601 58.627922 -0.90849656
68.575798 57.547482 -0.87618399
69.761269 55.875797 -0.83020884
72.401428 52.152798 -0.80941874
75.255707 48.127861 -0.54342616
77.417709 45.079132 0
77.182449 45.410885 0.63644928
67.259842 59.414909 -0.92750102
67.81028 58.640697 -0.90711355
68.565918 57.577873 -0.8728056
69.782982 55.866028 -0.83192068
72.421722 52.154533 -0.80999482
75.26886 48.149937 -0.54313618
77.428497 45.112328 0
77.195862 45.439537 0.63601375
67.22522 59.475197 -0.91609305
67.799286 58.669815 -0.90296191
68.57663 57.579243 -0.87337011
69.78685 55.881374 -0.8310656
72.448044 52.147869 -0.81114793
75.278954 48.176262 -0.54270059
77.424118 45.16671 0
77.188118 45.497807 0.63456261
67.273796 59.418766 -0.92831832
67.811554 58.666252 -0.90434492
68.587334 57.58065 -0.87393242
69.808594 55.871666 -0.83277744
72.450325 52.174919 -0.80999482
75.282959 48.21104 -0.54197508
77.407532 45.237991 0
77.219536 45.501068 0.63499814
67.276443 59.426754 -0.92750102
67.812157 58.679012 -0.90296191
68.592133 57.590324 -0.87337011
69.815414 55.882874 -0.83234823
72.479683 52.164101 -0.81143707
75.299004 48.228905 -0.54183006
77.363495 45.347301 0
77.226746 45.53817 0.63427263
67.276207 59.43874 -0.92587262
67.830276 58.667336 -0.90572792
68.593941 57.604141 -0.87224323
69.822227 55.894073 -0.83192068
72.493973 52.174355 -0.81143707
75.308952 48.255238 -0.54139447
77.349594 45.414177 0
77.252075 45.54995 0.63441759
67.307709 59.406601 -0.93320656
67.84845 58.655682 -0.90849656
68.601662 57.609695 -0.87224323
69.832016 55.901115 -0.83192068
72.490112 52.209824 -0.80970675
75.318855 48.28157 -0.54095894
77.344658 45.468346 0
77.253098 45.595501 0.63340151
67.290108 59.442665 -0.92668682
67.840225 58.680672 -0.90503645
68.630203 57.586414 -0.87618399
69.847809 55.899834 -0.83277744
72.510414 52.211693 -0.8102839
75.32872 48.307884 -0.54052395
77.367043 45.484486 0
77.272285 45.615738 0.63325649
67.301414 59.438629 -0.92831832
67.83783 58.697498 -0.90296191
68.620071 57.616722 -0.8728056
69.857597 55.906906 -0.83277744
72.536789 52.205223 -0.81143707
75.34462 48.325806 -0.54037839
77.371101 45.52594 0
77.285347 45.644424 0.63282096
67.307068 59.436623 -0.92913252
67.841034 58.699818 -0.90296191
68.629898 57.611275 -0.87393242
69.853439 55.92292 -0.83149314
72.537834 52.218769 -0.81085992
75.351044 48.336868 -0.54023337
77.391426 45.521374 0
77.281189 45.673489 0.6320954
67.274811 59.492607 -0.91853875
67.85627 58.692295 -0.90503645
68.616699 57.645657 -0.86999172
69.872253 55.917534 -0.83277744
72.558151 52.220718 -0.81143707
75.351639 48.375813 -0.53936285
77.386208 45.575462 0
77.2911 45.706367 0.63151485
67.303535 59.464603 -0.92505848
67.850868 58.713184 -0.90226775
68.636345 57.634811 -0.87224323
69.891075 55.912201 -0.83406013
72.581505 52.218533 -0.8123011
75.370506 48.389542 -0.53936285
77.408463 45.591652 0
77.307083 45.730835 0.63122481
67.334923 59.444691 -0.93076086
67.884384 58.69416 -0.90711355
68.651711 57.646034 -0.87224323
69.898476 55.943031 -0.83234823
72.600792 52.251816 -0.81143707
75.398987 48.429649 -0.53892726
77.428314 45.657707 0
77.34198 45.775627 0.63078928
67.31118 59.488567 -0.92261279
67.878914 58.715038 -0.90434492
68.653381 57.659843 -0.87111855
69.914284 55.941875 -0.83320498
72.624153 52.249718 -0.8123011
75.405487 48.46019 -0.53834671
77.453545 45.669754 0
77.354767 45.804337 0.63035369
67.316628 59.492573 -0.92261279
67.888268 58.715691 -0.90503645
68.670059 57.653202 -0.8728056
69.924019 55.949028 -0.83320498
72.638351 52.260147 -0.8123011
75.421181 48.478165 -0.53820169
77.454086 45.715374 0
77.37059 45.82885 0.63006371
67.313263 59.508522 -0.92016709
67.897629 58.716358 -0.90572792
68.686783 57.64658 -0.87449479
69.927643 55.964462 -0.83234823
72.655609 52.266418 -0.81259024
75.439926 48.491978 -0.53820169
77.476166 45.731644 0
77.367851 45.878475 0.62890261
67.365723 59.448936 -0.93320656
67.901024 58.725101 -0.90503645
68.682365 57.668591 -0.87224323
69.952614 55.950981 -0.83448935
72.669777 52.276886 -0.81259024
75.433937 48.539238 -0.53704059
77.49514 45.752121 0
77.40519 45.873753 0.62962812
67.362381 59.464924 -0.93076086
67.916367 58.717724 -0.90711355
68.693039 57.670174 -0.8728056
69.959274 55.962315 -0.83406013
72.683937 52.287369 -0.81259024
75.477371 48.519669 -0.53820169
77.514084 45.772617 0
77.414696 45.906662 0.62904757
67.359016 59.480881 -0.92831832
67.910774 58.738567 -0.90434492
68.70372 57.671761 -0.87337011
69.968979 55.969521 -0.83406013
72.701164 52.293724 -0.81287825
75.471268 48.566917 -0.53704059
77.526779 45.801498 0
77.421051 45.943733 0.62832201
67.361519 59.488914 -0.92750102
67.91114 58.751335 -0.90296191
68.699219 57.693745 -0.87111855
69.981758 55.97261 -0.83448935
72.721481 52.295959 -0.81345427
75.458862 48.622452 -0.53558946
77.520767 45.855415 0
77.436646 45.968307 0.62803149
67.337387 59.532578 -0.91935295
67.932487 58.735973 -0.90642208
68.709877 57.695362 -0.87168092
69.979156 55.996296 -0.83277744
72.741814 52.29821 -0.81403142
75.48365 48.627991 -0.53587949
77.539574 45.875931 0
77.452209 45.992874 0.62774146
67.363525 59.508911 -0.92505848
67.923813 58.760803 -0.90296191
68.720535 57.696995 -0.87224323
69.991898 55.99942 -0.83320498
72.759041 52.304642 -0.81431943
75.489754 48.658516 -0.53529894
77.54586 45.913132 0
77.455269 46.034092 0.62687093
67.365982 59.51693 -0.92424428
67.954224 58.733463 -0.90849656
68.731194 57.698643 -0.8728056
70.007721 55.998466 -0.83406013
72.776276 52.311104 -0.81460744
75.498917 48.684883 -0.53486335
77.567711 45.929512 0
77.470718 46.058685 0.62658036
67.365448 59.528904 -0.92261279
67.933434 58.774323 -0.90226775
68.729645 57.716534 -0.87111855
70.026649 55.99342 -0.83534443
72.79039 52.321716 -0.81460744
75.486168 48.740299 -0.53341222
77.592659 45.941765 0
77.489265 46.079124 0.62643534
67.359222 59.542786 -0.92016709
67.936592 58.776699 -0.90226775
68.733437 57.719391 -0.87111855
70.025314 56.005257 -0.83448935
72.800552 52.322903 -0.81489551
75.501633 48.738949 -0.53370225
77.581635 45.97908 0
77.493828 46.095581 0.62614483
67.406326 59.491623 -0.93157816
67.954994 58.765446 -0.90503645
68.734894 57.733231 -0.86999172
70.038063 56.00845 -0.83491689
72.811539 52.337669 -0.81460744
75.488739 48.794315 -0.53225112
77.593987 46.007965 0
77.502922 46.128487 0.62556422
67.387894 59.527267 -0.92505848
67.961319 58.770229 -0.90503645
68.742462 57.738956 -0.86999172
70.044617 56.01984 -0.83448935
72.834999 52.335949 -0.8154726
75.522797 48.787498 -0.53297669
77.615715 46.024406 0
77.518234 46.153091 0.62527424
67.40226 59.519566 -0.92750102
67.955498 58.791004 -0.90226775
68.743881 57.752777 -0.86886698
70.06356 56.014893 -0.83577198
72.852211 52.342514 -0.81576061
75.525452 48.822121 -0.53225112
77.621689 46.061592 0
77.533501 46.177727 0.62498367
67.410675 59.519733 -0.92831832
67.989136 58.759861 -0.90849656
68.760651 57.746399 -0.87055403
70.066994 56.030388 -0.83491689
72.860031 52.361443 -0.81518459
75.55323 48.82365 -0.53268671
77.624443 46.102905 0
77.542435 46.210632 0.62440312
67.386086 59.563164 -0.92016709
67.977211 58.788609 -0.90434492
68.765121 57.756191 -0.86999172
70.079727 56.033646 -0.83534443
72.889778 52.351601 -0.81662577
75.571564 48.837624 -0.53268671
77.652367 46.111115 0
77.548157 46.247658 0.62367755
67.41848 59.531925 -0.92750102
67.986549 58.789436 -0.90503645
68.788101 57.741776 -0.8728056
70.086235 56.045074 -0.83491689
72.891273 52.378784 -0.8154726
75.618294 48.814472 -0.53399283
77.66449 46.140015 0
77.569595 46.264046 0.62367755
67.393791 59.575275 -0.91935295
68.005058 58.778332 -0.90780509
68.789482 57.755623 -0.87168092
70.102081 56.044292 -0.83577198
72.908455 52.385437 -0.81576061
75.589188 48.890381 -0.53181559
77.676559 46.16893 0
77.572044 46.305183 0.62280703
67.402145 59.575466 -0.92016709
68.002182 58.795113 -0.90572792
68.787727 57.773502 -0.86999172
70.105438 56.059803 -0.83491689
72.931946 52.383904 -0.81662577
75.613777 48.896145 -0.5321061
77.69809 46.185471 0
77.599747 46.313366 0.623097
67.392403 59.599152 -0.91609305
67.996231 58.81583 -0.90296191
68.79525 57.779293 -0.86999172
70.121292 56.059063 -0.83577198
72.945969 52.394703 -0.81662577
75.625664 48.91843 -0.53181559
77.697357 46.230896 0
77.605247 46.350388 0.62237144
67.461197 59.521118 -0.93320656
68.014755 58.804798 -0.90572792
68.796555 57.793125 -0.86886698
70.134018 56.062408 -0.83619952
72.972641 52.389149 -0.81777894
75.618469 48.96537 -0.53065503
77.712463 46.255684 0
77.62339 46.370949 0.62222648
67.427246 59.576099 -0.92261279
68.024109 58.805676 -0.90642208
68.804047 57.798927 -0.86886698
70.124748 56.09417 -0.83363259
72.983498 52.404083 -0.81749094
75.649345 48.963001 -0.53123504
77.727509 46.280502 0
77.63195 46.403854 0.62164587
67.472008 59.529495 -0.93320656
68.011909 58.834324 -0.90226775
68.817764 57.796715 -0.86999172
70.143745 56.089405 -0.83491689
72.99115 52.423126 -0.81691378
75.667511 48.977089 -0.53123504
77.748909 46.297104 0
77.650017 46.424438 0.62150091
67.434898 59.588291 -0.92179859
68.036652 58.815414 -0.90642208
68.828377 57.798538 -0.87055403
70.159599 56.088741 -0.83577198
73.001961 52.438076 -0.81662577
75.676086 49.003487 -0.53079998
77.754303 46.334259 0
77.661659 46.453255 0.62106532
67.458466 59.569073 -0.92668682
68.018211 58.85194 -0.90088481
68.842125 57.796356 -0.87168092
70.166 56.100231 -0.83534443
73.028656 52.432652 -0.81777894
75.684601 49.0299 -0.53036445
77.756432 46.375504 0
77.670067 46.48616 0.62048477
67.460777 59.577145 -0.92587262
68.024429 58.856796 -0.90088481
68.830826 57.826233 -0.86830252
70.191353 56.087475 -0.83748388
73.042625 52.443569 -0.81777894
75.693069 49.056313 -0.52992892
77.777718 46.392139 0
77.684814 46.510868 0.62019479
67.490524 59.550213 -0.93239236
68.039932 58.849815 -0.90296191
68.83828 57.832073 -0.86830252
70.181908 56.119194 -0.83491689
73.066162 52.442291 -0.81864411
75.720741 49.058182 -0.53036445
77.786133 46.425182 0
77.696312 46.539688 0.6197592
67.471451 59.585522 -0.92587262
68.03685 58.866539 -0.90088481
68.848877 57.83392 -0.86886698
70.204117 56.110523 -0.83662874
73.08651 52.445129 -0.81922013
75.722733 49.092777 -0.52963889
77.807358 46.441853 0
77.7174 46.556248 0.6197592
67.458832 59.607033 -0.92179859
68.04615 58.861099 -0.90226775
68.8526 57.836849 -0.86886698
70.202522 56.122349 -0.83577198
73.090294 52.454681 -0.81893212
75.725296 49.108036 -0.52934831
77.808304 46.462471 0
77.711868 46.584953 0.61903363
67.485573 59.584068 -0.92750102
68.071014 58.842354 -0.90642208
68.869484 57.830761 -0.87055403
70.208862 56.133877 -0.83534443
73.107437 52.461617 -0.81922013
75.740067 49.126289 -0.52920336
77.810143 46.503674 0
77.726456 46.609695 0.61874312
67.472504 59.611534 -0.92261279
68.061676 58.866947 -0.90296191
68.867485 57.848595 -0.86886698
70.227921 56.129303 -0.83662874
73.121368 52.47263 -0.81922013
75.751587 49.148628 -0.52891332
77.828033 46.524467 0
77.731339 46.646667 0.61801755
67.511597 59.573128 -0.93157816
68.067879 58.871861 -0.90296191
68.868591 57.86245 -0.86774015
70.237427 56.136833 -0.83662874
73.138504 52.47961 -0.81950814
75.753365 49.183208 -0.52818722
77.839439 46.55341 0
77.755516 46.659206 0.61816257
67.492332 59.608326 -0.92505848
68.092804 58.853222 -0.90711355
68.88549 57.8564 -0.86942935
70.243721 56.148407 -0.83619952
73.15242 52.490662 -0.81950814
75.780968 49.185215 -0.52862281
77.863747 46.566074 0
77.760292 46.696175 0.61743701
67.479141 59.63575 -0.92016709
68.092758 58.866028 -0.90572792
68.886574 57.870262 -0.86830252
70.26281 56.143906 -0.83748388
73.179214 52.48555 -0.82066131
75.789139 49.211655 -0.52818722
77.862091 46.611332 0
77.784424 46.708755 0.61758196
67.45356 59.678562 -0.91201901
68.098961 58.870975 -0.90572792
68.897156 57.872192 -0.86886698
70.262672 56.163517 -0.83619952
73.193123 52.496647 -0.82066131
75.806999 49.22591 -0.52818722
77.879845 46.632156 0
77.798828 46.733536 0.61729199
67.511314 59.617161 -0.92587262
68.092613 58.891579 -0.90296191
68.910904 57.87019 -0.86999172
70.278564 56.163067 -0.83705628
73.207016 52.507763 -0.82066131
75.821594 49.24424 -0.5280422
77.884552 46.669247 0
77.800179 46.774559 0.61642087
67.541374 59.590572 -0.93239236
68.114494 58.876972 -0.90642208
68.902405 57.895935 -0.86717778
70.297676 56.158646 -0.83834064
73.224136 52.51487 -0.82094932
75.842667 49.254486 -0.52818722
77.905479 46.686035 0
77.811226 46.803391 0.61598587
67.524994 59.621811 -0.92668682
68.092361 58.917118 -0.90019327
68.909775 57.901863 -0.86717778
70.307152 56.166264 -0.83834064
73.238007 52.526024 -0.82094932
75.844177 49.289043 -0.52746165
77.910072 46.723122 0
77.82547 46.828197 0.6156953
67.502342 59.66069 -0.91935295
68.101646 58.918167 -0.90088481
68.920326 57.903847 -0.86774015
70.310158 56.181889 -0.83748388
73.271362 52.513031 -0.82267964
75.852165 49.315483 -0.52702665
77.921127 46.752094 0
77.842949 46.848953 0.61555034
67.582207 59.572697 -0.93891209
68.126717 58.899731 -0.90503645
68.937279 57.897942 -0.86942935
70.316368 56.193504 -0.83705628
73.272217 52.540329 -0.82152647
75.869904 49.329819 -0.52702665
77.945229 46.764885 0
77.850586 46.881855 0.61496973
67.525276 59.653809 -0.92261279
68.120232 58.920307 -0.90226775
68.931847 57.919701 -0.86717778
70.335503 56.189178 -0.83834064
73.289314 52.547527 -0.82181448
75.877792 49.356281 -0.52659112
77.949654 46.801956 0
77.864723 46.90667 0.61467975
67.542999 59.642731 -0.92587262
68.110542 58.944752 -0.89880764
68.948807 57.91383 -0.86886698
70.33522 56.208794 -0.83705628
73.306404 52.554749 -0.82210249
75.908592 49.354515 -0.52717167
77.970428 46.818825 0
77.868965 46.943604 0.61395365
67.563873 59.627861 -0.92994666
68.135674 58.92638 -0.90296191
68.959366 57.915878 -0.86942935
70.34787 56.212479 -0.83748388
73.320229 52.566002 -0.82210249
75.926277 49.368916 -0.52717167
77.97802 46.851852 0
77.883003 46.968422 0.61366361
67.503471 59.712551 -0.91283321
68.125923 58.950817 -0.89949912
68.976364 57.910069 -0.87111855
70.347527 56.232082 -0.83619952
73.337318 52.573257 -0.82239163
75.943954 49.383339 -0.52717167
77.995438 46.872784 0
77.8937 46.997288 0.61322808
67.556145 59.653454 -0.92587262
68.141678 58.937778 -0.90226775
68.9543 57.944538 -0.86661547
70.361969 56.223995 -0.83748388
71.788361 54.480572 -0.68545914
75.94619 49.398609 -0.5268811
77.999184 46.889305 0
77.8974 47.013721 0.61293811
67.589607 59.62336 -0.93320656
68.128708 58.966057 -0.89811611
68.990616 57.915169 -0.87168092
70.364861 56.23962 -0.83662874
71.842499 54.437996 -0.68920666
75.953949 49.425095 -0.5264461
78.003349 46.926353 0
77.911316 47.03857 0.61264753
67.519547 59.719337 -0.91364735
68.13797 58.967175 -0.89880764
68.988281 57.932983 -0.86999172
70.387268 56.231453 -0.83834064
71.85405 54.447479 -0.68920666
75.97155 49.439552 -0.5264461
78.020668 46.947304 0
77.931793 47.055393 0.61264753
67.590736 59.643494 -0.93076086
68.1632 58.94894 -0.90296191
69.005302 57.92725 -0.87168092
70.383591 56.255024 -0.83662874
71.849136 54.476933 -0.68776548
75.979218 49.466061 -0.52601057
78.034637 46.972298 0
77.939041 47.08828 0.61206698
67.561371 59.689743 -0.92179859
68.159714 58.965584 -0.90088481
68.999695 57.948971 -0.86942935
70.409294 56.242958 -0.83876818
71.870529 54.474457 -0.68863058
75.973595 49.508595 -0.52499443
78.045265 47.001293 0
77.95285 47.11314 0.61177695
67.544502 59.720699 -0.91609305
68.188187 58.943573 -0.90572792
69.003761 57.958927 -0.86886698
70.41539 56.254658 -0.83834064
71.882027 54.483974 -0.68863058
75.974525 49.543083 -0.52426887
78.055832 47.030304 0
77.969933 47.13401 0.61163199
67.571777 59.69836 -0.92179859
68.181488 58.964066 -0.90296191
69.027283 57.945435 -0.87168092
70.424744 56.262413 -0.83834064
71.883606 54.505447 -0.68776548
72.041534 54.315247 -0.35156211
78.063019 47.06332 0
77.97702 47.166893 0.61105138
67.570641 59.710285 -0.92016709
68.184349 58.972988 -0.90226775
69.024841 57.963234 -0.86999172
70.43737 56.266243 -0.83876818
71.891769 54.518951 -0.68747741
72.056549 54.32098 -0.3517071
78.066833 47.100327 0
77.984055 47.199772 0.61047083
67.569496 59.722187 -0.91853875
68.174347 58.997307 -0.89880764
69.035385 57.965412 -0.87055403
70.446709 56.274025 -0.83876818
71.903214 54.528496 -0.68747741
72.05825 54.342697 -0.35127154
78.087242 47.117332 0
77.997681 47.22467 0.61018032
67.644432 59.643097 -0.9364664
68.190048 58.990807 -0.90088481
69.045944 57.96759 -0.87111855
70.462624 56.273952 -0.83962327
71.924614 54.526146 -0.68834257
72.053246 54.372368 -0.350546
78.09761 47.146347 0
78.024612 47.233616 0.61047083
67.598869 59.708107 -0.92342699
68.205772 58.984333 -0.90296191
69.043427 57.985378 -0.86942935
70.462067 56.293556 -0.83834064
71.916107 54.559517 -0.68661231
72.051514 54.398033 -0.34996542
78.111282 47.171364 0
78.028168 47.270481 0.60974526
67.594521 59.723801 -0.92098445
68.192459 59.01247 -0.89880764
69.047424 57.995361 -0.86886698
70.47467 56.297443 -0.83876818
71.944145 54.549294 -0.68805349
72.073151 54.395832 -0.35040098
78.134949 47.184448 0
78.031639 47.307346 0.60901916
67.580566 59.750832 -0.91609305
68.204948 59.009861 -0.90019327
69.05468 58.001465 -0.86886698
70.474045 56.317055 -0.83748388
71.952232 54.562851 -0.68776548
72.081398 54.409565 -0.350256
78.135139 47.22541 0
78.048454 47.328285 0.6088742
67.611221 59.724953 -0.92261279
68.240112 58.98045 -0.90642208
69.068474 57.999821 -0.86999172
70.493271 56.313114 -0.83876818
71.926918 54.615925 -0.68459505
72.076202 54.439198 -0.34952986
78.155396 47.242504 0
78.058525 47.357185 0.60843861
67.661095 59.676514 -0.93402076
68.226715 59.00856 -0.90226775
69.056023 58.029209 -0.86661547
70.509186 56.313137 -0.83962327
73.626328 52.632019 -0.83017468
72.101181 54.433098 -0.35011044
78.152084 47.28743 0
78.068558 47.38607 0.60800362
67.65033 59.69978 -0.92994666
68.242493 59.00219 -0.90434492
69.069801 58.027584 -0.86774015
70.508507 56.332737 -0.83834064
71.966309 54.615395 -0.68603623
72.106018 54.450809 -0.34982044
78.165527 47.312485 0
78.081894 47.411011 0.60771304
67.61068 59.756889 -0.91853875
68.23877 59.018787 -0.90226775
69.080307 58.029846 -0.86830252
70.521088 56.3367 -0.83876818
71.977646 54.625027 -0.68603623
72.107445 54.472488 -0.34938487
78.182312 47.333572 0
78.091835 47.439903 0.60727805
67.608727 59.774723 -0.91609305
68.238022 59.037914 -0.90019327
69.087822 58.042923 -0.86774015
70.534973 56.348534 -0.83876818
71.997978 54.635571 -0.68632424
72.144958 54.463482 -0.350256
78.198975 47.375137 0
78.104935 47.485237 0.60655195
67.645988 59.741528 -0.92424428
68.263588 59.02018 -0.90434492
69.088409 58.056789 -0.86661547
70.55423 56.34473 -0.84005249
71.982368 54.676678 -0.6840179
72.153084 54.477287 -0.35011044
78.22921 47.38044 0
78.135025 47.490448 0.60698748
67.589958 59.817211 -0.90875918
68.263069 59.03294 -0.90296191
69.0989 58.05909 -0.86717778
70.553444 56.364349 -0.83876818
73.684822 52.715866 -0.8287335
72.164581 54.487148 -0.35011044
78.22216 47.429245 0
78.138046 47.527252 0.60626197
67.649811 59.757854 -0.92261279
68.269073 59.038094 -0.90296191
69.106071 58.065254 -0.86717778
70.56266 56.372272 -0.83876818
73.70182 52.72366 -0.82902151
72.193016 54.477325 -0.35083598
78.24897 47.438545 0
78.147766 47.556171 0.60582638
67.658157 59.758526 -0.92342699
68.252121 59.069859 -0.89811611
69.109924 58.075275 -0.86661547
70.585289 56.364655 -0.84048003
73.722198 52.727547 -0.82959867
72.194344 54.499027 -0.35040098
78.251961 47.475491 0
78.167625 47.57328 0.60582638
67.630959 59.800339 -0.91527885
68.264633 59.067417 -0.89949912
69.107101 58.092987 -0.86492628
70.587784 56.380394 -0.83962327
73.732422 52.743229 -0.82930952
72.212608 54.50108 -0.35069099
78.261719 47.504524 0
78.167076 47.613991 0.60495585
67.648979 59.789787 -0.91853875
68.296875 59.04224 -0.90503645
69.127548 58.083805 -0.86717778
70.603722 56.380592 -0.84048003
73.7528 52.747169 -0.82988667
72.213882 54.522781 -0.350256
78.274811 47.529644 0
78.173248 47.646828 0.60437524
67.650826 59.797928 -0.91772455
68.289703 59.062584 -0.90226775
69.141357 58.082336 -0.86830252
70.606178 56.396336 -0.83962327
73.766388 52.758965 -0.82988667
76.260681 49.888046 -0.52209222
78.284462 47.558693 0
78.186172 47.671818 0.60408473
67.678619 59.776257 -0.92342699
68.295662 59.067772 -0.90226775
69.131821 58.107712 -0.86548859
70.615364 56.404324 -0.83962327
73.783356 52.766876 -0.83017468
76.277725 49.90287 -0.52209222
78.311157 47.568108 0
78.216141 47.677212 0.60452026
67.716232 59.743462 -0.93157816
68.262024 59.118324 -0.89396185
69.15564 58.09478 -0.86830252
70.634666 56.400719 -0.84090757
73.790123 52.786491 -0.82959867
72.251595 54.548706 -0.35040098
78.310471 47.608932 0
78.215347 47.71788 0.60364974
67.688812 59.78516 -0.92342699
68.307571 59.078167 -0.90226775
69.159431 58.104836 -0.86774015
70.637093 56.416458 -0.84005249
73.807068 52.794437 -0.82988667
72.269844 54.550873 -0.35069099
78.319977 47.637989 0
78.241852 47.727257 0.60393971
67.71347 59.767319 -0.92831832
68.300278 59.098465 -0.89949912
69.159851 58.118706 -0.86661547
70.646248 56.424484 -0.84005249
73.834251 52.790741 -0.83103985
76.38015 49.888882 -0.52426887
78.339737 47.655304 0
78.247795 47.760101 0.60335916
67.712044 59.77924 -0.92668682
68.31945 59.088593 -0.90226775
69.150177 58.14402 -0.8638016
70.645226 56.444088 -0.83876818
73.84436 52.80653 -0.83075076
76.40406 49.896038 -0.52455944
78.352592 47.680466 0
78.257111 47.78904 0.60292357
67.756371 59.739231 -0.9364664
68.325386 59.093815 -0.90226775
69.177406 58.127384 -0.86717778
70.664536 56.440567 -0.84005249
73.89209 52.779621 -0.8336342
76.4039 49.930538 -0.52383333
78.361984 47.709522 0
78.273254 47.810173 0.60277861
67.76152 59.743774 -0.9364664
68.344597 59.084007 -0.90503645
69.1744 58.145073 -0.86548859
70.680458 56.440941 -0.84090757
72.083298 54.853596 -0.68027037
76.41745 49.949429 -0.52368832
78.371315 47.738594 0
78.265274 47.858585 0.60161746
67.710938 59.811218 -0.92261279
68.323921 59.119305 -0.89949912
69.191582 58.139912 -0.86717778
70.686188 56.452854 -0.84048003
73.915756 52.807426 -0.83334619
76.441315 49.956654 -0.52397889
78.377151 47.771553 0
78.288223 47.871933 0.60176301
67.709435 59.82309 -0.92098445
68.319824 59.135777 -0.89742464
69.198662 58.146191 -0.86717778
70.688477 56.468624 -0.83962327
73.922394 52.82716 -0.83276904
76.447922 49.98336 -0.5235433
78.393295 47.792824 0
78.29734 47.900871 0.60132748
67.727631 59.812809 -0.92424428
68.329033 59.137257 -0.89811611
69.198967 58.160076 -0.86605096
70.704407 56.469036 -0.84048003
73.939323 52.835297 -0.83305705
76.471756 49.990654 -0.52383333
78.392097 47.833565 0
78.313332 47.922035 0.60118246
67.713699 59.833523 -0.92016709
68.321953 59.151112 -0.89603901
69.212639 58.151833 -0.86774015
70.719208 56.461586 -0.84176433
72.142555 54.8647 -0.68199962
76.490593 49.986549 -0.52426887
78.391479 47.853905 0
78.316116 47.938454 0.60089195
67.675919 59.885929 -0.90957332
68.357895 59.122669 -0.90226775
69.216324 58.161922 -0.86717778
70.71463 56.485023 -0.84005249
72.157043 54.870678 -0.68228871
76.510971 49.99778 -0.52441388
78.407501 47.875198 0
78.335518 47.955765 0.60089195
67.753441 59.809372 -0.92750102
68.363785 59.127937 -0.90226775
69.209808 58.183369 -0.86492628
70.727127 56.489323 -0.84048003
73.990273 52.846096 -0.83449936
76.538292 50.001289 -0.52484941
78.423508 47.896492 0
78.341026 47.988579 0.60031134
67.708969 59.869072 -0.91527885
68.349564 59.155609 -0.89811611
69.237198 58.166988 -0.86830252
70.732765 56.501274 -0.84005249
73.99337 52.869728 -0.8336342
72.201584 54.865356 -0.34285372
78.436005 47.921669 0
78.360359 48.00592 0.60031134
67.733795 59.851521 -0.92016709
68.352058 59.164593 -0.89742464
69.257843 58.158211 -0.87055403
70.745255 56.5056 -0.84048003
74.010269 52.877968 -0.83392221
72.212616 54.875275 -0.34285372
78.44149 47.954601 0
78.365768 48.038734 0.59973079
67.781853 59.808327 -0.93076086
68.364616 59.162411 -0.89880764
69.241074 58.190971 -0.86661547
70.757744 56.509949 -0.84090757
74.027161 52.886234 -0.83421022
64 64 -0
78.471321 47.96048 0
78.374611 48.067669 0.59929579
67.776978 59.823887 -0.92831832
68.363731 59.175125 -0.89742464
69.241264 58.204853 -0.86548859
70.777122 56.506691 -0.84219193
74.054459 52.883011 -0.83536339
64 64 -0
78.476723 47.99342 0
78.386871 48.092766 0.59900522
67.742172 59.872398 -0.91853875
68.359444 59.191555 -0.89534748
69.251678 58.207428 -0.86605096
70.782722 56.518688 -0.84176433
74.067886 52.895168 -0.83536339
64 64 -0
78.475082 48.03405 0
78.406082 48.110161 0.59900522
67.757133 59.865944 -0.92098445
68.36525 59.196827 -0.89534748
69.265511 58.206249 -0.86717778
70.79866 56.519295 -0.84261948
72.174828 55.005074 -0.67738801
64 64 -0
78.490868 48.055405 0
78.41478 48.139122 0.59856969
67.808731 59.819336 -0.93239236
68.384567 59.187267 -0.89811611
69.275925 58.208862 -0.86774015
70.790405 56.54649 -0.84048003
72.203102 54.995842 -0.67882919
64 64 -0
78.510124 48.072922 0
78.423447 48.168064 0.5981347
67.840446 59.794743 -0.93891209
68.400536 59.18145 -0.90019327
69.28978 58.207729 -0.86886698
70.802872 56.550911 -0.84090757
72.193039 55.028687 -0.67709893
64 64 -0
78.51532 48.105843 0
78.446068 48.181671 0.59827971
67.79879 59.850437 -0.92750102
68.419907 59.171967 -0.90296191
69.296776 58.214127 -0.86886698
70.811867 56.559135 -0.84090757
74.14241 52.921059 -0.83709371
64 64 -0
78.534515 48.12339 0
78.451134 48.21447 0.59769911
67.770386 59.891445 -0.91935295
68.3918 59.214287 -0.89603901
69.300316 58.224285 -0.86830252
70.817383 56.571152 -0.84048003
74.159279 52.929512 -0.83738172
72.282867 54.974228 -0.34212819
78.543121 48.152473 0
78.463173 48.239594 0.59740913
67.785385 59.885086 -0.92179859
68.414566 59.201138 -0.89949912
69.303856 58.234428 -0.86774015
70.840256 56.564281 -0.84219193
74.158638 52.957027 -0.83622855
72.31488 54.961285 -0.34299928
78.558739 48.173885 0
78.478683 48.260918 0.59726357
67.783646 59.896938 -0.92016709
68.444176 59.180653 -0.90434492
69.314262 58.23711 -0.86830252
70.849236 56.572552 -0.84219193
72.218773 55.087399 -0.67565775
72.322266 54.97517 -0.34285372
78.556686 48.214439 0
78.480072 48.29752 0.59653801
67.808746 59.879726 -0.92505848
68.426147 59.211819 -0.89949912
69.324677 58.239796 -0.86886698
70.851227 56.588383 -0.84133518
74.216896 52.947426 -0.8388229
72.315529 55.004311 -0.34212819
78.589874 48.216766 0
78.499039 48.315029 0.59653801
67.776756 59.924217 -0.91609305
68.418289 59.231892 -0.89673048
69.317818 58.261143 -0.86661547
70.860184 56.596664 -0.84133518
72.243805 55.103497 -0.67594576
72.329933 55.010544 -0.34227374
78.608932 48.234406 0
78.503853 48.347809 0.59595746
67.836372 59.864899 -0.92994666
68.421173 59.234562 -0.89673048
69.331642 58.253189 -0.86830252
70.885612 56.57822 -0.84390378
72.259735 55.097099 -0.67681092
72.335365 55.015575 -0.34227374
78.604309 48.258484 0
78.499168 48.371811 0.59537691
67.824532 59.887634 -0.92587262
68.450844 59.214184 -0.90157628
69.335129 58.263355 -0.86774015
70.884079 56.597828 -0.84261948
74.306602 52.917728 -0.84343559
72.360359 55.010445 -0.34285372
64 64 0
78.521576 48.38554 0.59552193
67.76545 59.96096 -0.91038752
68.446358 59.230579 -0.89949912
69.338593 58.273518 -0.86717778
70.889519 56.609905 -0.84219193
74.327034 52.92263 -0.8440116
72.34642 55.047153 -0.34183818
72.410065 54.978882 0
78.529808 48.41449 0.59508693
67.814217 59.918549 -0.92098445
68.441849 59.246944 -0.89742464
69.331627 58.294827 -0.86492628
70.908966 56.606976 -0.84347624
72.270767 55.149765 -0.67508167
72.37851 55.03447 -0.34270874
72.438728 54.970039 0
78.541527 48.439659 0.59479636
67.798866 59.944813 -0.91609305
68.464737 59.234009 -0.90088481
69.355888 58.28273 -0.86774015
70.917892 56.61533 -0.84347624
72.270844 55.171097 -0.67421651
72.385788 55.048389 -0.34256375
72.4105 55.022015 0
78.55677 48.461029 0.59465134
67.881592 59.866524 -0.93483806
68.477356 59.232098 -0.90226775
69.359314 58.292908 -0.86717778
70.926811 56.623695 -0.84347624
72.260262 55.203712 -0.67248732
72.389496 55.066097 -0.34227374
72.439148 55.013214 0
78.564857 48.490002 0.59421581
67.825592 59.936012 -0.92016709
68.462486 59.259426 -0.89811611
69.362732 58.303085 -0.86661547
70.935722 56.632069 -0.84347624
72.270882 55.213699 -0.67248732
72.403839 55.07246 -0.34241873
72.439301 55.034794 0
78.583588 48.50761 0.59421581
67.877998 59.890297 -0.93157816
68.488869 59.242931 -0.90226775
69.394012 58.283707 -0.87055403
70.941086 56.644199 -0.84304702
72.277939 55.227474 -0.67219824
72.421745 55.075069 -0.34270874
72.457275 55.037418 0
78.598732 48.529018 0.59407079
67.896553 59.880623 -0.93483806
68.48082 59.262939 -0.89949912
69.372978 58.319763 -0.86605096
70.953506 56.648853 -0.84347624
72.292091 55.233715 -0.67248732
72.425392 55.092796 -0.34241873
72.425179 55.093021 0
78.606705 48.557999 0.5936352
67.823296 59.967838 -0.91609305
68.490005 59.264706 -0.90019327
69.383347 58.322563 -0.86661547
70.965912 56.653538 -0.84390378
72.29911 55.247505 -0.67219824
72.432571 55.10675 -0.34227374
72.489647 55.046562 0
78.62178 48.57943 0.59349024
67.899673 59.897224 -0.93320656
68.471519 59.295597 -0.89534748
69.397194 58.321709 -0.86774015
70.978317 56.658241 -0.84433132
72.295425 55.272537 -0.67104506
72.443314 55.116947 -0.34227374
72.514801 55.041737 0
78.633247 48.604633 0.59320021
67.863708 59.944885 -0.92342699
68.491043 59.286472 -0.89811611
69.376007 58.35767 -0.86323708
70.969475 56.685261 -0.84219193
72.31311 55.27507 -0.67162216
72.443283 55.138447 -0.34183818
72.489716 55.089706 0
78.641075 48.633617 0.59276468
67.909576 59.906658 -0.93320656
68.489799 59.299168 -0.89673048
69.396866 58.349468 -0.86548859
70.988953 56.682545 -0.84347624
72.334366 55.273895 -0.67248732
72.464752 55.137375 -0.34227374
72.514862 55.084915 0
78.645279 48.666351 0.59218413
67.839325 59.989933 -0.91527885
68.550995 59.246609 -0.90780509
69.400177 58.359661 -0.86492628
70.987137 56.702126 -0.84219193
72.337738 55.291451 -0.67191023
72.475456 55.14761 -0.34227374
72.475235 55.147839 0
78.667381 48.680309 0.59232908
67.878387 59.958916 -0.92342699
68.508102 59.302784 -0.89811611
69.403473 58.369854 -0.86436391
71.013718 56.692055 -0.84433132
72.362587 55.286602 -0.6730634
72.51133 55.131622 -0.34328929
72.496735 55.146832 0
78.678696 48.705536 0.59203911
67.852425 59.995663 -0.91609305
68.531166 59.290157 -0.90157628
69.424362 58.36174 -0.86661547
71.01899 56.704231 -0.84390378
72.362343 55.307899 -0.67219824
72.594101 55.067009 -0.34619209
72.467735 55.198357 0
78.689949 48.730782 0.59174854
68.032257 59.818863 -0.95765394
68.543823 59.288406 -0.90296191
69.445282 58.353664 -0.86886698
71.027802 56.712719 -0.84390378
72.380035 55.310558 -0.67277533
76.94455 50.577511 -0.52078551
64 64 0
78.70118 48.756016 0.59145856
67.937668 59.926804 -0.93402076
68.549515 59.2939 -0.90296191
69.452103 58.360249 -0.86886698
71.029457 56.728603 -0.84304702
74.562057 53.074413 -0.8468951
76.967987 50.585678 -0.52107608
64 64 0
78.712357 48.781269 0.59116799
67.871384 60.000206 -0.91772455
68.53141 59.318291 -0.89880764
69.448433 58.370853 -0.86774015
71.048126 56.718098 -0.84475887
74.565048 53.084526 -0.84660596
76.96524 50.604725 -0.52064055
72.512383 55.205276 0
78.717941 48.793892 0.59102297
67.927841 59.951683 -0.92994666
68.54406 59.316559 -0.90019327
69.441071 58.392029 -0.86548859
71.042625 56.741356 -0.84304702
74.581848 53.093575 -0.8468951
76.981415 50.620399 -0.52064055
72.573738 55.163277 0
78.721832 48.826607 0.59044242
67.894829 59.995399 -0.92098445
68.539215 59.332848 -0.89811611
69.437225 58.409527 -0.8638016
71.051392 56.74987 -0.84304702
74.587799 53.113792 -0.84631795
76.997574 50.636093 -0.52064055
64 64 0
78.73291 48.851849 0.59015244
67.951416 59.947029 -0.93320656
68.579872 59.302414 -0.90503645
69.475899 58.383358 -0.86886698
71.078064 56.740021 -0.84518647
74.593727 53.133995 -0.84574193
77.006462 50.659245 -0.52035052
64 64 0
78.754829 48.865944 0.59029746
67.914848 59.994228 -0.92342699
68.553986 59.340244 -0.89880764
69.479126 58.393623 -0.86830252
71.079659 56.755913 -0.84433132
74.632149 53.120918 -0.84775913
77.000778 50.697277 -0.51947939
72.612999 55.186962 0
78.754944 48.902363 0.58957189
67.912773 60.006016 -0.92179859
68.577164 59.327835 -0.90226775
69.496567 58.389355 -0.86999172
71.077621 56.775482 -0.84304702
74.659767 53.118992 -0.8489123
77.064117 50.664742 -0.52136606
72.623642 55.197376 0
78.7659 48.927635 0.58928132
67.893349 60.035439 -0.91609305
68.586334 59.329777 -0.90296191
69.481979 58.417747 -0.86661547
71.086349 56.784039 -0.84304702
74.665665 53.139252 -0.84833628
64 64 -0
72.678032 55.163239 0
78.776825 48.952896 0.58899134
67.950157 59.987305 -0.92831832
68.588448 59.338909 -0.90226775
69.48159 58.431625 -0.86548859
71.105873 56.781624 -0.84433132
74.704185 53.126339 -0.85035461
64 64 -0
72.685043 55.177448 0
78.787697 48.978176 0.58870077
67.941116 60.006153 -0.92505848
68.604652 59.333736 -0.90434492
69.488312 58.438251 -0.86548859
71.110985 56.793869 -0.84390378
74.713669 53.142975 -0.85006547
77.105072 50.719574 -0.52107608
72.692047 55.19165 0
78.791237 49.010853 0.58812022
67.91465 60.042545 -0.91772455
68.610283 59.339306 -0.90434492
69.491455 58.448498 -0.86492628
71.134125 56.787865 -0.84561563
74.737701 53.14489 -0.85093063
77.12841 50.728035 -0.52136606
72.666084 55.239159 0
78.809334 49.028736 0.58812022
67.983444 59.992416 -0.93157816
68.579086 59.393166 -0.89603901
69.508438 58.458183 -0.86548859
71.137062 56.819691 -0.84390378
74.778488 53.156197 -0.8520838
72.577461 55.37056 -0.33980596
64 64 0
78.841812 49.068249 0.5879752
68.033638 59.951714 -0.94217193
68.54924 59.434235 -0.88911867
69.518715 58.461246 -0.86605096
71.152969 56.821053 -0.84475887
74.798874 53.161907 -0.85265982
72.587883 55.380928 -0.33980596
72.719818 55.248512 0
78.852516 49.093552 0.58768523
68.007088 59.988068 -0.93483806
68.565399 59.429085 -0.89119583
69.525398 58.467918 -0.86605096
71.165268 56.826073 -0.84518647
74.815628 53.171291 -0.85294896
72.590958 55.398659 -0.33951595
72.726715 55.262733 0
78.859497 49.122543 0.58724964
67.990944 60.013878 -0.92994666
68.659653 59.345974 -0.90849656
69.50692 58.499725 -0.8621124
71.177567 56.831097 -0.84561563
74.832367 53.180717 -0.85323697
72.597672 55.412716 -0.33937094
72.740944 55.269611 0
78.859077 49.158867 0.58652407
67.978249 60.036144 -0.92587262
68.66172 59.355148 -0.90780509
69.542366 58.477692 -0.86661547
71.182579 56.84341 -0.84518647
74.852753 53.186516 -0.85381299
72.596992 55.434116 -0.33893538
78.95665 49.097473 0
78.873322 49.180496 0.58637911
67.969017 60.054893 -0.92261279
68.638863 59.38908 -0.90226775
69.563446 58.470062 -0.86886698
71.187584 56.855709 -0.84475887
74.884163 53.181396 -0.85525531
72.599968 55.451832 -0.3386454
78.952499 49.137566 0
78.89122 49.198479 0.58637911
67.991325 60.042294 -0.92668682
68.63018 59.408821 -0.89949912
69.559296 58.487526 -0.86717778
71.199852 56.860786 -0.84518647
74.908241 53.183636 -0.85611933
72.60659 55.4659 -0.33849984
78.959358 49.166641 0
78.898018 49.227463 0.58594352
68.046402 59.992523 -0.93891209
68.622269 59.422203 -0.89742464
69.544579 58.508762 -0.86436391
71.207825 56.861515 -0.84561563
74.911102 53.193867 -0.85583133
72.611748 55.4711 -0.33849984
78.975716 49.16835 0
78.910629 49.232811 0.58608854
67.99498 60.053005 -0.92587262
68.677757 59.378426 -0.90711355
69.554817 58.511898 -0.86492628
71.220093 56.866627 -0.84604323
74.938866 53.192513 -0.8569845
72.599869 55.503418 -0.33762926
78.99733 49.1828 0
78.921074 49.258141 0.58579856
68.038475 60.019661 -0.93483806
68.640457 59.426346 -0.89880764
69.583153 58.497215 -0.86830252
71.217735 56.886169 -0.84475887
74.955597 53.20211 -0.85727251
72.569412 55.553947 -0.3360326
78.985565 49.230164 0
78.920357 49.29443 0.5850724
67.972786 60.093857 -0.91853875
68.613785 59.463615 -0.89257884
69.571686 58.521778 -0.86548859
71.23365 56.887691 -0.84561563
74.979706 53.204475 -0.85813767
72.605553 55.538803 -0.33704871
72.664505 55.480843 0
78.938118 49.312469 0.5850724
68.04454 60.032906 -0.93402076
68.658661 59.430542 -0.90019327
69.600075 58.507156 -0.86886698
71.245903 56.892845 -0.84604323
74.989052 53.221367 -0.85784966
72.589798 55.574684 -0.3360326
72.659927 55.505894 0
78.952148 49.334164 0.58492744
67.985741 60.100018 -0.91935295
68.621147 59.478283 -0.89188737
69.588539 58.531708 -0.86605096
71.265495 56.890831 -0.84732753
75.00946 53.227425 -0.85842568
72.599976 55.585068 -0.3360326
72.644142 55.541851 0
78.966141 49.355873 0.58478242
68.050583 60.046139 -0.93320656
68.637367 59.473366 -0.89396185
69.616966 58.517159 -0.86942935
71.277756 56.89603 -0.84775507
75.029877 53.233501 -0.85900283
72.602707 55.602718 -0.33574259
72.665527 55.541389 0
78.976379 49.381233 0.58449185
67.963287 60.140694 -0.91201901
68.639244 59.482468 -0.89327031
69.630859 58.516865 -0.87055403
71.264252 56.926327 -0.84518647
75.050285 53.239628 -0.85957885
72.601669 55.624001 -0.33530703
72.679474 55.548241 0
78.98288 49.41021 0.58405685
68.049484 60.066277 -0.93076086
68.684288 59.449619 -0.90088481
69.611977 58.54845 -0.86661547
71.294899 56.913639 -0.84775507
75.070709 53.24577 -0.860156
72.615509 55.630783 -0.33545205
72.708344 55.540604 0
78.993034 49.43557 0.58376628
67.933548 60.188126 -0.90305364
68.668159 59.476238 -0.89673048
69.611252 58.562317 -0.86548859
71.285027 56.940319 -0.84561563
75.098549 53.244755 -0.86130917
72.629356 55.637573 -0.3355976
72.767159 55.504032 0
79.01062 49.453697 0.58376628
67.991463 60.141342 -0.91527885
68.651985 59.5028 -0.89257884
69.636086 58.551441 -0.86830252
71.300926 56.941998 -0.84647077
75.115257 53.254581 -0.86159718
72.635712 55.651627 -0.33545205
72.781158 55.511017 0
79.013237 49.486294 0.58318573
67.996124 60.146168 -0.91527885
68.693527 59.473602 -0.89949912
69.631706 58.568829 -0.86661547
71.316849 56.943687 -0.84732753
75.139404 53.257244 -0.86246234
72.664505 55.64402 -0.33617815
72.795151 55.518024 0
79.027031 49.508049 0.58304077
68.004333 60.147575 -0.91609305
68.745995 59.434055 -0.90849656
69.645576 58.5686 -0.86774015
71.317963 56.959663 -0.84647077
75.152374 53.270714 -0.86246234
64 64 -0
72.812889 55.521446 0
79.040787 49.529816 0.58289576
68.069618 60.094231 -0.92994666
68.708084 59.481472 -0.90019327
69.6558 58.571907 -0.86830252
71.330162 56.964958 -0.84689832
75.18399 53.266289 -0.86390352
72.669678 55.679375 -0.3355976
72.800598 55.553719 0
79.050751 49.555206 0.58260518
68.060051 60.112827 -0.92668682
68.724396 59.476765 -0.90226775
69.658691 58.582256 -0.86774015
71.342377 56.970261 -0.84732753
64 64 -0
72.687225 55.682678 -0.33588761
72.807045 55.567955 0
79.049431 49.59137 0.58187962
68.029007 60.151871 -0.91853875
68.733498 59.479 -0.90296191
69.65789 58.596111 -0.86661547
71.361992 56.968506 -0.84861016
75.2099 53.293346 -0.86390352
72.689758 55.700352 -0.3355976
72.81723 55.578606 0
79.063072 49.613148 0.58173466
68.130264 60.064682 -0.94054043
68.724426 59.498569 -0.90019327
69.657043 58.60997 -0.86548859
71.355614 56.991573 -0.84689832
75.22657 53.303337 -0.86419153
72.684731 55.725197 -0.33501706
72.808556 55.607212 0
79.072914 49.638535 0.58144408
68.07177 60.125107 -0.92668682
68.701698 59.525639 -0.89534748
69.667671 58.606377 -0.86661547
71.367294 56.988934 -0.84775507
75.255501 53.288731 -0.86592072
72.674667 55.744774 -0.33443648
72.809845 55.616135 0
79.081589 49.647644 0.58144408
68.072868 60.13343 -0.92587262
68.747131 59.49332 -0.90296191
69.670486 58.616737 -0.86605096
71.364586 57.00845 -0.84647077
75.264694 53.305897 -0.86563271
72.609253 55.826824 -0.3315337
72.763359 55.680531 0
79.091393 49.673027 0.58115405
68.03447 60.179146 -0.91609305
68.727074 59.523212 -0.89811611
69.69545 58.60611 -0.86886698
71.384216 57.00676 -0.84775507
75.307648 53.291058 -0.86793905
72.521027 55.930138 -0.32776034
72.697823 55.762707 0
79.101151 49.698414 0.58086407
68.060654 60.163647 -0.92098445
68.758011 59.504807 -0.90296191
69.672409 58.640915 -0.86436391
71.381462 57.026268 -0.84647077
75.324341 53.301178 -0.86822706
72.466553 56.00111 -0.32529312
72.616959 55.859009 0
79.118423 49.716671 0.58086407
68.076065 60.158394 -0.92342699
68.715958 59.555305 -0.89396185
69.701065 58.626865 -0.86774015
71.386147 57.038708 -0.84604323
75.333496 53.318417 -0.86793905
72.464867 56.022041 -0.32485756
72.607857 55.887276 0
79.13945 49.731388 0.58100909
67.994286 60.244576 -0.90387094
68.805412 59.481953 -0.90988225
69.692741 58.647682 -0.86548859
71.409515 57.033573 -0.84775507
75.350159 53.328579 -0.86822706
72.444206 56.060753 -0.32369643
72.598694 55.915504 0
79.149094 49.756821 0.58071852
68.081734 60.171635 -0.92261279
68.755966 59.539253 -0.89949912
69.714035 58.640659 -0.86774015
71.414185 57.04604 -0.84732753
75.370598 53.335217 -0.86880422
72.457581 56.06741 -0.32384145
72.604668 55.929459 0
79.151131 49.789352 0.58013797
68.071915 60.190079 -0.91935295
68.75769 59.548428 -0.89880764
69.735344 58.633678 -0.86999172
71.426331 57.051498 -0.84775507
75.36837 53.363098 -0.86765105
72.448189 56.095387 -0.32311589
72.61821 55.93631 0
79.156921 49.818314 0.57970297
68.090973 60.181511 -0.92261279
68.75206 59.564457 -0.89673048
69.723251 58.657948 -0.86717778
71.434723 57.060478 -0.84775507
75.377434 53.380371 -0.86736304
72.472931 56.091415 -0.32369643
72.627945 55.946728 0
79.185432 49.826012 0.58013797
68.131752 60.152775 -0.93076086
68.801483 59.529171 -0.90503645
69.707397 58.685638 -0.8638016
71.424316 57.086956 -0.84561563
75.371323 53.411762 -0.86592072
72.482483 56.101658 -0.32369643
72.626236 55.967804 0
79.198746 49.847908 0.57999295
68.100189 60.191406 -0.92261279
68.729683 59.606682 -0.89050168
69.724976 58.682175 -0.86548859
71.451469 57.078465 -0.84775507
75.361374 53.446625 -0.86419153
72.480606 56.122513 -0.32326144
72.639763 55.974678 0
79.208229 49.873348 0.57970297
68.097542 60.203079 -0.92098445
68.815948 59.53738 -0.90572792
69.723946 58.695995 -0.86436391
71.47113 57.077 -0.84903938
75.351357 53.481453 -0.86246234
72.486298 56.136311 -0.32311589
72.641808 55.992207 0
79.213844 49.902336 0.57926738
68.080345 60.228172 -0.91609305
68.821335 59.543201 -0.90572792
69.763931 58.671875 -0.86942935
71.487022 57.079067 -0.84989452
72.655769 55.998688 -0.65692008
72.495789 56.146568 -0.32311589
72.662949 55.99205 0
79.223228 49.927792 0.57897681
68.143044 60.179485 -0.92913252
68.782471 59.589836 -0.89742464
69.77037 58.678841 -0.86942935
71.487839 57.095074 -0.84903938
72.684441 55.991623 -0.65836126
72.524376 56.139229 -0.32384145
72.664963 56.00959 0
79.236404 49.949715 0.57883185
68.118546 60.211269 -0.92261279
68.806259 59.578636 -0.90088481
69.773056 58.689255 -0.86886698
71.469719 57.128464 -0.84604323
72.709343 55.988113 -0.65951443
72.533867 56.149536 -0.32384145
72.689926 56.00597 0
79.253372 49.968136 0.57883185
