# .PCD v0.7 - Point Cloud Data file format
VERSION 0.7
FIELDS x y z
SIZE 4 4 4
TYPE F F F
COUNT 1 1 1
WIDTH 1839
HEIGHT 1
VIEWPOINT 0 0 0 1 0 0 0
POINTS 1839
DATA ascii
64 64 -0
64 64 -0
64 64 -0
64 64 -0
64 64 -0
90.080406 73.765038 0
90.072357 73.762024 0.77751762
69.622513 66.11293 -0.99025255
64 64 -0
64 64 -0
64 64 -0
64 64 -0
64 64 -0
90.107567 73.811188 0
90.099457 73.808144 0.77867872
69.5737 66.10228 -0.98210132
64 64 -0
64 64 -0
64 64 -0
64 64 -0
64 64 -0
90.08596 73.839058 0
90.131348 73.856178 0.77998483
69.561913 66.105515 -0.98047298
64 64 -0
64 64 -0
64 64 -0
64 64 -0
64 64 -0
90.156799 73.901894 0
90.143715 73.896942 0.7807104
69.499298 66.089409 -0.96987921
64 64 -0
64 64 -0
64 64 -0
64 64 -0
64 64 -0
90.144821 73.933495 0
90.151169 73.935905 0.78129095
69.542953 66.113663 -0.97802728
64 64 -0
64 64 -0
64 64 -0
64 64 -0
64 64 -0
90.171707 73.979912 0
90.173141 73.980461 0.78230709
69.535782 66.118591 -0.97721308
64 64 -0
64 64 -0
64 64 -0
64 64 -0
64 64 -0
90.169342 74.015244 0
90.195023 74.025078 0.78332263
69.579353 66.143005 -0.98536122
64 64 -0
64 64 -0
64 64 -0
64 64 -0
64 64 -0
90.215523 74.069252 0
90.207161 74.06604 0.78404874
69.531929 66.128624 -0.97721308
64 64 -0
64 64 -0
64 64 -0
64 64 -0
64 64 -0
90.243446 74.098175 0
90.215614 74.087463 0.78448373
69.529358 66.135307 -0.97721308
64 64 -0
64 64 -0
64 64 -0
64 64 -0
64 64 -0
90.250626 74.137375 0
90.213104 74.122887 0.7847743
69.531372 66.143768 -0.97802728
64 64 -0
64 64 -0
64 64 -0
64 64 -0
64 64 -0
90.282051 74.18602 0
90.234764 74.167694 0.78578985
69.538002 66.154037 -0.97965878
64 64 -0
64 64 -0
64 64 -0
64 64 -0
64 64 -0
90.284264 74.223419 0
90.246689 74.208809 0.78651595
69.563019 66.171509 -0.98454702
64 64 -0
64 64 -0
64 64 -0
64 64 -0
64 64 -0
90.325233 74.275993 0
90.248848 74.246178 0.78695095
69.578796 66.18544 -0.98780686
64 64 -0
64 64 -0
64 64 -0
64 64 -0
64 64 -0
90.361252 74.326782 0
90.280014 74.294952 0.78825766
69.543945 66.17952 -0.98210132
64 64 -0
64 64 -0
64 64 -0
64 64 -0
64 64 -0
90.382668 74.371956 0
90.296562 74.338104 0.78912818
69.48613 66.164452 -0.97232175
64 64 -0
64 64 -0
64 64 -0
64 64 -0
64 64 -0
90.394318 74.413376 0
90.313049 74.38131 0.78999877
69.557045 66.200188 -0.98536122
64 64 -0
64 64 -0
64 64 -0
64 64 -0
64 64 -0
90.405914 74.454842 0
90.314987 74.418839 0.7904343
69.586548 66.219681 -0.99106675
70.418785 66.550354 -0.95279491
64 64 -0
64 64 -0
64 64 -0
64 64 -0
90.417458 74.496353 0
90.365158 74.475571 0.79232097
69.602226 66.233757 -0.99432659
64 64 -0
64 64 -0
64 64 -0
64 64 -0
64 64 -0
90.41925 74.534042 0
90.381454 74.518974 0.79319209
69.549034 66.220322 -0.98536122
64 64 -0
64 64 -0
64 64 -0
64 64 -0
64 64 -0
90.425827 74.573692 0
90.407303 74.566284 0.79435265
69.552834 66.237419 -0.98699272
64 64 -0
64 64 -0
64 64 -0
64 64 -0
64 64 -0
90.506409 74.680313 0
90.420258 74.645607 0.79551381
69.518044 66.231155 -0.98128718
64 64 -0
64 64 -0
64 64 -0
64 64 -0
64 64 -0
90.512779 74.720139 0
90.455566 74.697006 0.79696548
69.542816 66.24897 -0.98617536
70.48381 66.630775 -0.96525252
64 64 -0
64 64 -0
64 64 -0
64 64 -0
90.538391 74.767822 0
90.48114 74.744598 0.79812658
69.585884 66.274307 -0.99432659
70.541031 66.6632 -0.97424996
64 64 -0
64 64 -0
64 64 -0
64 64 -0
90.563934 74.815582 0
90.501816 74.790298 0.79914212
69.455002 66.228706 -0.97150755
64 64 -0
64 64 -0
64 64 -0
64 64 -0
64 64 -0
90.555656 74.84964 0
90.503197 74.828209 0.79957771
69.502625 66.255928 -0.98047298
70.562424 66.690414 -0.9784016
64 64 -0
64 64 -0
64 64 -0
86.393692 73.180809 -0.67593169
90.600319 74.905411 0
90.542992 74.881912 0.80117434
69.573036 66.292664 -0.99351239
64 64 -0
64 64 -0
64 64 -0
64 64 -0
64 64 -0
90.635269 74.957352 0
90.568253 74.929787 0.8023349
69.593109 66.308823 -0.99758649
70.616188 66.731155 -0.98739904
64 64 -0
64 64 -0
64 64 -0
64 64 -0
90.641235 74.997467 0
90.583862 74.973785 0.80320603
69.523186 66.283867 -0.98536122
70.568176 66.715981 -0.9804787
64 64 -0
64 64 -0
64 64 -0
64 64 -0
90.663452 75.025497 0
90.596436 74.997787 0.80378658
69.534119 66.296227 -0.98780686
70.439774 66.672005 -0.96179235
64 64 -0
64 64 -0
64 64 -0
64 64 -0
90.669342 75.065689 0
90.635918 75.051819 0.80538273
69.563293 66.316216 -0.99351239
64 64 -0
64 64 -0
64 64 -0
64 64 -0
64 64 -0
90.73764 75.131912 0
90.660927 75.099976 0.80654383
69.565048 66.324837 -0.99432659
70.377747 66.664345 -0.95348644
64 64 -0
64 64 -0
64 64 -0
64 64 -0
90.714554 75.160194 0
90.666672 75.14019 0.80712438
69.557678 66.329651 -0.99351239
70.383766 66.675926 -0.95486939
64 64 -0
64 64 -0
64 64 -0
86.383194 73.382523 -0.67781836
90.758652 75.216614 0
90.681961 75.184464 0.8079955
69.509285 66.3172 -0.98536122
70.408287 66.695312 -0.95902371
64 64 -0
64 64 -0
64 64 -0
64 64 -0
90.764267 75.257004 0
90.721107 75.238853 0.80959159
69.50193 66.32193 -0.98454702
70.488228 66.738167 -0.97148126
64 64 -0
64 64 -0
64 64 -0
64 64 -0
90.808197 75.313622 0
90.736244 75.283257 0.81046271
69.490028 66.324722 -0.98291868
70.498779 66.751877 -0.97355843
64 64 -0
64 64 -0
64 64 -0
64 64 -0
90.832848 75.362244 0
90.770439 75.335815 0.81191385
69.482651 66.329422 -0.98210132
70.393845 66.71656 -0.95832956
64 64 -0
64 64 -0
64 64 -0
64 64 -0
90.852638 75.408905 0
90.766296 75.372223 0.81220442
69.502563 66.345734 -0.98617536
70.478256 66.761673 -0.97148126
64 64 -0
64 64 -0
64 64 -0
64 64 -0
90.872337 75.455627 0
90.790764 75.420853 0.81336498
69.513367 66.358215 -0.98862106
70.350372 66.716225 -0.95279491
64 64 -0
64 64 -0
64 64 -0
64 64 -0
90.872833 75.494232 0
90.810394 75.467522 0.81438106
69.551392 66.382416 -0.99595499
70.476173 66.779297 -0.9721728
64 64 -0
64 64 -0
64 64 -0
64 64 -0
90.90197 75.545166 0
90.839493 75.518356 0.81568718
69.507652 66.371529 -0.98862106
70.500465 66.799026 -0.97632706
64 64 -0
64 64 -0
64 64 -0
64 64 -0
90.926247 75.594131 0
90.858978 75.565163 0.81670332
69.518402 66.384064 -0.99106675
70.455612 66.788963 -0.97009563
64 64 -0
64 64 -0
64 64 -0
64 64 -0
90.94088 75.639038 0
90.887909 75.616158 0.81800944
69.520042 66.3927 -0.99188089
70.410812 66.778809 -0.96386683
64 64 -0
64 64 -0
64 64 -0
64 64 -0
90.969772 75.690216 0
90.912003 75.665176 0.81917053
69.458221 66.373741 -0.98128718
70.471878 66.814568 -0.97355843
64 64 -0
64 64 -0
64 64 -0
64 64 -0
91.003365 75.743553 0
90.950302 75.720474 0.82076663
69.419106 66.364517 -0.97476745
70.413284 66.798309 -0.96525252
64 64 -0
64 64 -0
64 64 -0
64 64 -0
91.027321 75.792824 0
90.998055 75.780052 0.82265389
69.511337 66.412689 -0.99188089
70.409897 66.806053 -0.96525252
64 64 -0
64 64 -0
64 64 -0
64 64 -0
91.032127 75.833824 0
91.031395 75.833504 0.82410502
69.445061 66.391525 -0.98047298
70.41568 66.817825 -0.96663553
64 64 -0
64 64 -0
64 64 -0
64 64 -0
91.060692 75.885315 0
91.045616 75.878693 0.82497555
69.464783 66.408066 -0.98454702
70.384727 66.813446 -0.96248388
64 64 -0
64 64 -0
64 64 -0
64 64 -0
91.084412 75.934792 0
91.074043 75.930222 0.82628167
69.499504 66.427338 -0.99106675
70.37384 66.81324 -0.96109819
64 64 -0
64 64 -0
64 64 -0
87.097351 74.19455 -0.70510346
91.124809 75.972168 0
91.100113 75.961266 0.82729781
69.510132 66.439987 -0.99351239
70.51725 66.885956 -0.9832474
64 64 -0
64 64 -0
64 64 -0
64 64 -0
91.134117 76.015472 0
91.128403 76.012939 0.82860392
69.484581 66.4366 -0.98943526
70.37162 66.830681 -0.96179235
64 64 -0
64 64 -0
64 64 -0
64 64 -0
91.162384 76.067261 0
91.132866 76.054153 0.82918447
69.431976 66.421097 -0.98047298
70.446106 66.8731 -0.97355843
64 64 -0
64 64 -0
64 64 -0
64 64 -0
91.166801 76.108551 0
91.165756 76.108086 0.83063614
69.433556 66.429672 -0.98128718
70.506744 66.909561 -0.9832474
64 64 -0
64 64 -0
64 64 -0
64 64 -0
91.199677 76.162621 0
91.179565 76.153625 0.83150667
69.39904 66.422073 -0.97558159
70.407089 66.87429 -0.96871263
64 64 -0
64 64 -0
64 64 -0
64 64 -0
91.222946 76.212517 0
91.202789 76.203476 0.83266783
69.508797 66.479309 -0.99595499
70.513428 66.931458 -0.9853245
64 64 -0
64 64 -0
64 64 -0
64 64 -0
91.241386 76.260353 0
91.225937 76.253403 0.83382893
69.442734 66.457489 -0.98454702
70.377266 66.879448 -0.96525252
64 64 -0
64 64 -0
64 64 -0
64 64 -0
91.297714 76.325394 0
91.263199 76.309807 0.83542502
69.453278 66.470184 -0.98699272
70.405762 66.901634 -0.97009563
64 64 -0
64 64 -0
64 64 -0
64 64 -0
91.315979 76.37339 0
91.276718 76.355614 0.83629614
69.495277 66.497223 -0.99514079
70.502754 66.955048 -0.9853245
64 64 -0
64 64 -0
64 64 -0
64 64 -0
91.315224 76.412849 0
91.304344 76.407906 0.83760226
69.438286 66.479248 -0.98536122
70.430695 66.931679 -0.97494143
64 64 -0
64 64 -0
64 64 -0
64 64 -0
91.35231 76.469597 0
91.341354 76.464607 0.83919895
69.466759 66.500214 -0.99106675
70.386086 66.92067 -0.96871263
64 64 -0
64 64 -0
64 64 -0
64 64 -0
91.370346 76.517792 0
91.340439 76.504112 0.83963394
69.414307 66.484138 -0.98210132
70.277672 66.880264 -0.95279491
64 64 -0
64 64 -0
64 64 -0
64 64 -0
91.393044 76.568214 0
91.363098 76.554474 0.84079504
69.474174 66.519623 -0.99351239
70.433701 66.961266 -0.97701859
64 64 -0
64 64 -0
64 64 -0
87.524429 74.827682 -0.72324467
91.420387 76.620888 0
91.380959 76.602745 0.84181118
69.471123 66.52623 -0.99351239
70.38456 66.947998 -0.97009563
64 64 -0
64 64 -0
64 64 -0
64 64 -0
91.442917 76.671471 0
91.394012 76.648888 0.84268177
69.445633 66.522446 -0.98943526
70.394653 66.962044 -0.9721728
64 64 -0
64 64 -0
64 64 -0
64 64 -0
91.484268 76.730873 0
91.41172 76.697266 0.84369785
69.397758 66.508202 -0.98128718
70.391068 66.969765 -0.9721728
64 64 -0
64 64 -0
64 64 -0
87.800781 75.059608 -0.73296857
91.723747 76.882507 0
91.4105 76.736954 0.84413344
69.452965 66.54187 -0.99188089
70.40567 66.985962 -0.97494143
64 64 -0
64 64 -0
64 64 -0
64 64 -0
91.887421 76.999557 0
91.413933 76.778847 0.84471399
69.387207 66.519142 -0.98047298
70.32933 66.959694 -0.96386683
64 64 -0
64 64 -0
64 64 -0
64 64 -0
92.041412 77.11261 0
110.13857 85.575127 1.4224839
69.469177 66.565529 -0.99595499
70.443871 67.022751 -0.98186439
64 64 -0
64 64 -0
64 64 -0
64 64 -0
92.086823 77.175224 0
110.11716 85.633064 1.422629
69.466072 66.572136 -0.99595499
70.408424 67.015579 -0.97701859
64 64 -0
64 64 -0
64 64 -0
87.718849 75.16124 -0.73209798
92.132103 77.237961 0
110.18033 85.73082 1.4253868
69.464516 66.575439 -0.99595499
70.438377 67.034424 -0.98186439
64 64 -0
64 64 -0
64 64 -0
64 64 -0
92.138214 77.261612 0
110.2095 85.778648 1.4266928
69.412254 66.558807 -0.98699272
70.389336 67.020752 -0.97494143
64 64 -0
64 64 -0
64 64 -0
64 64 -0
92.122169 77.295601 0
114.74495 87.991196 1.5676162
69.422546 66.571693 -0.98943526
70.372078 67.022018 -0.97286427
64 64 -0
64 64 -0
64 64 -0
64 64 -0
92.129593 77.340721 0
114.68774 88.039124 1.566745
69.441765 66.588867 -0.99351239
70.404671 67.046959 -0.9784016
64 64 -0
64 64 -0
64 64 -0
64 64 -0
92.113449 77.374695 0
114.61642 88.080261 1.565439
69.447548 66.599693 -0.99514079
70.414574 67.06118 -0.9804787
71.790253 67.717682 -0.95610821
64 64 -0
64 64 -0
64 64 -0
92.116058 77.417625 0
114.5404 88.119026 1.5639879
69.426567 66.59774 -0.99188089
70.401825 67.064598 -0.97909576
71.937012 67.7995 -0.97468287
64 64 -0
64 64 -0
87.85038 75.417343 -0.73848361
92.250061 77.523506 0
114.47372 88.162125 1.5628268
69.369957 66.578613 -0.98210132
70.370972 67.059296 -0.97494143
71.799568 67.7453 -0.95835972
64 64 -0
64 64 -0
87.944321 75.497902 -0.74182194
92.304085 77.591431 0
114.38359 88.193855 1.56094
69.424728 66.612984 -0.99269509
70.367271 67.066994 -0.97494143
71.831665 67.772362 -0.96286279
64 64 -0
64 64 -0
87.930412 75.526825 -0.74182194
92.325142 77.643677 0
114.32154 88.238922 1.5599239
69.403763 66.610939 -0.98943526
70.349998 67.06813 -0.97286427
71.785919 67.761925 -0.95779741
64 64 -0
64 64 -0
87.850945 75.524071 -0.73978972
92.34613 77.696014 0
114.20332 88.25676 1.5571667
69.360573 66.598061 -0.98210132
70.368881 67.086754 -0.97632706
71.996292 67.875496 -0.98425138
74.131332 68.910271 -0.93847919
78.99675 71.268349 -0.92876571
87.902481 75.584618 -0.74182194
92.343613 77.737061 0
114.05238 88.258469 1.5533928
69.428558 66.639122 -0.99514079
70.333549 67.079086 -0.97148126
71.840782 67.811836 -0.96567672
64 64 -0
79.081009 71.331703 -0.93453157
87.874443 75.606674 -0.74138635
92.359764 77.787231 0
113.72392 88.173515 1.5441045
69.425369 66.645676 -0.99514079
70.307281 67.075745 -0.96802115
71.845314 67.825768 -0.96680355
73.967155 68.860481 -0.9243567
78.983788 71.306839 -0.92905372
87.935143 75.671959 -0.74370861
92.357109 77.828331 0
113.51251 88.144753 1.5384444
69.391075 66.637024 -0.98943526
70.362152 67.112022 -0.97701859
71.872627 67.850868 -0.97074211
74.030457 68.906357 -0.9307766
78.942413 71.309021 -0.92703539
87.930344 75.705437 -0.74399859
92.382469 77.883171 0
113.38994 88.15889 1.5355417
69.3302 66.615234 -0.97884148
70.425941 67.152847 -0.98739904
71.836052 67.844711 -0.96680355
73.973816 68.8936 -0.92606854
78.868568 71.295174 -0.92299986
87.990837 75.770966 -0.74632084
92.356323 77.912865 0
113.34673 88.211693 1.5351067
69.363754 66.647797 -0.98617536
70.400307 67.159485 -0.98463035
71.813057 67.856888 -0.96511436
73.989594 68.931328 -0.92863721
78.92511 71.367722 -0.92761254
88.032227 75.863419 -0.74849808
92.490639 78.064301 0
113.38126 88.376869 1.5380088
69.418152 66.6828 -0.99677229
70.405487 67.171677 -0.98601604
71.794724 67.859558 -0.96342516
73.928413 68.916054 -0.92350161
78.897652 71.376572 -0.92645937
88.017868 75.892448 -0.74849808
92.538918 78.131042 0
113.41698 88.468811 1.5400411
69.423752 66.693733 -0.99840063
70.42411 67.190567 -0.98947614
71.790054 67.868973 -0.96342516
73.940857 68.93718 -0.92521346
78.884102 71.392265 -0.92617136
88.096558 75.967682 -0.75140029
92.507835 78.158569 0
113.41994 88.544678 1.5410566
69.332001 66.656204 -0.98210132
70.321457 67.149117 -0.97424996
71.799026 67.885185 -0.96511436
73.957863 68.960632 -0.92735291
78.884407 71.414856 -0.92674738
88.044861 75.978256 -0.75023919
92.500031 78.197647 0
113.3763 88.597427 1.5406216
69.355331 66.675903 -0.98699272
70.35804 67.176933 -0.9804787
71.748878 67.871895 -0.9594866
73.956451 68.974953 -0.92778045
78.847687 71.418968 -0.92501819
88.086159 76.035172 -0.75198084
92.520103 78.250687 0
113.34189 88.654739 1.5404761
69.383011 66.697876 -0.99269509
70.363174 67.18911 -0.98186439
71.744194 67.881256 -0.9594866
73.932068 68.977783 -0.92606854
78.838707 71.436905 -0.92501819
88.113411 76.08522 -0.75328696
92.684326 78.376083 0
113.25166 88.684074 1.5385894
70.35482 67.194542 -0.98117024
71.766731 67.904297 -0.96286279
73.95816 69.00592 -0.92906475
78.77887 71.429268 -0.92184669
88.098785 76.114349 -0.75328696
92.722748 78.438789 0
113.17538 88.72023 1.5371383
69.400208 66.718742 -0.99677229
70.37529 67.209656 -0.98463035
71.782524 67.918129 -0.96511436
73.941376 69.005005 -0.92778045
78.825203 71.463783 -0.92501819
88.077553 76.121902 -0.75285196
92.746544 78.472519 0
113.13723 88.738251 1.5364127
69.352783 66.70298 -0.98862106
70.281853 67.172134 -0.97078979
71.764175 67.920662 -0.96342516
73.958229 69.028587 -0.92991984
78.802315 71.474693 -0.92415303
88.113907 76.17675 -0.75444812
92.729034 78.50724 0
113.06091 88.774178 1.5349611
69.384789 66.727318 -0.99514079
70.345139 67.213722 -0.98117024
71.754906 67.927742 -0.96286279
73.920097 69.024384 -0.9269253
78.765594 71.478554 -0.92242384
88.113091 76.212921 -0.75488365
92.799713 78.586632 0
112.99387 88.814667 1.5338005
69.337425 66.711433 -0.98699272
70.332314 67.216843 -0.97978723
71.754677 67.939407 -0.96342516
73.950638 69.05497 -0.93034905
78.77037 71.50341 -0.92328787
88.102943 76.2444 -0.75502867
92.833099 78.647339 0
112.89434 88.838539 1.5316232
69.382584 66.742561 -0.99595499
70.359703 67.240433 -0.98463035
71.713684 67.930321 -0.95892209
73.912498 69.050667 -0.92735291
78.701378 71.49073 -0.91954035
88.083504 76.271156 -0.75488365
92.833931 78.69162 0
112.83652 88.883446 1.5307527
69.335258 66.726578 -0.98780686
70.315582 67.22757 -0.9784016
71.745132 67.958138 -0.96342516
73.906387 69.062645 -0.92735291
78.733772 71.529671 -0.9221347
88.068657 76.300247 -0.75488365
92.857872 78.747765 0
112.76013 88.918785 1.529301
69.353951 66.744293 -0.99188089
70.293816 67.226044 -0.97563291
71.735825 67.965179 -0.96286279
73.918541 69.083977 -0.92906475
78.729279 71.549835 -0.92242384
88.072281 76.338806 -0.7554642
92.904884 78.815872 0
112.68837 88.956352 1.5279949
69.319855 66.734932 -0.98617536
70.347916 67.263466 -0.98463035
71.717468 67.967552 -0.96117359
73.935211 69.107697 -0.9312042
78.724739 71.569984 -0.92271185
88.061966 76.370255 -0.75560921
92.928619 78.8722 0
112.63507 89.003288 1.5272694
69.369263 66.768547 -0.99595499
70.321678 67.259636 -0.98117024
71.717201 67.97921 -0.96173811
73.924477 69.11734 -0.9307766
78.701782 71.580658 -0.92184669
88.042389 76.396942 -0.7554642
92.98465 78.945312 0
112.52169 89.019165 1.5246571
70.304375 67.260368 -0.97909576
71.721405 67.993195 -0.96286279
73.918289 69.129333 -0.9307766
78.651268 71.577034 -0.91925234
88.013542 76.418823 -0.75502867
92.985062 78.989883 0
112.47757 89.070618 1.5242215
69.358177 66.779236 -0.99514079
70.282616 67.258736 -0.97632706
71.734619 68.011879 -0.96511436
73.912079 69.141312 -0.9307766
78.646683 71.597115 -0.91954035
87.989296 76.443047 -0.75473863
93.050087 79.068031 0
112.40112 89.105247 1.5227704
69.297806 66.756058 -0.98454702
70.300926 67.277901 -0.97978723
71.725258 68.018883 -0.96455199
73.914963 69.15802 -0.93163174
78.660454 71.626747 -0.92098266
87.960411 76.464828 -0.7543031
93.041084 79.107925 0
112.31543 89.134933 1.5210288
70.319199 67.297119 -0.9832474
71.706879 68.021156 -0.96286279
73.899628 69.165253 -0.9307766
78.637466 71.637276 -0.9201175
87.96376 76.50338 -0.75488365
64 64 0
112.24816 89.174057 1.5198677
69.299881 66.77343 -0.98617536
70.306328 67.300102 -0.98186439
71.715523 68.037537 -0.96455199
73.902466 69.181969 -0.93163174
78.637383 71.659744 -0.92069352
87.95784 76.53714 -0.75517362
64 64 0
112.17165 89.208237 1.518416
69.344681 66.805107 -0.99514079
70.244568 67.277397 -0.97286427
71.724144 68.053947 -0.96624118
73.900742 69.196312 -0.93205929
78.62812 71.677429 -0.92069352
87.956482 76.573334 -0.75560921
64 64 0
112.10436 89.247116 1.5172554
70.289444 67.310654 -0.9804787
71.696747 68.05143 -0.96342516
73.858124 69.189148 -0.92863721
78.623421 71.697517 -0.92098266
87.964256 76.614372 -0.75633478
93.064445 79.299019 0
111.99104 89.261642 1.5146426
70.294319 67.322937 -0.98186439
71.691841 68.06073 -0.96342516
73.888153 69.220222 -0.93205929
78.582085 71.698273 -0.91896433
87.976585 76.657875 -0.7572059
93.082764 79.353569 0
111.91453 89.295357 1.5131916
69.343224 66.829094 -0.99677229
70.308022 67.339928 -0.98463035
71.704895 68.079529 -0.96567672
73.904541 69.244186 -0.93420035
78.613914 71.737671 -0.92155868
87.956665 76.684402 -0.75706035
93.123985 79.420357 0
111.87473 89.348366 1.5129009
69.326698 66.82859 -0.99432659
70.259674 67.32402 -0.97771007
71.70446 68.091232 -0.96624118
73.898193 69.256149 -0.93420035
78.581711 71.743195 -0.9201175
87.968872 76.727966 -0.75793141
93.165085 79.487267 0
111.82573 89.396454 1.512321
69.345085 66.846634 -0.99840063
70.295509 67.352806 -0.98393887
71.712952 68.107697 -0.96792823
73.869171 69.256027 -0.93205929
78.581467 71.765663 -0.92069352
87.93512 76.747147 -0.75735086
93.201485 79.551857 0
111.71703 89.412697 1.5098537
69.258812 66.808853 -0.98291868
70.287033 67.358047 -0.9832474
71.690056 68.107437 -0.96567672
73.867355 69.270378 -0.9324885
78.599457 71.797905 -0.92242384
87.951797 76.793198 -0.758367
93.219398 79.60675 0
111.68169 89.46788 1.5097082
70.269699 67.358528 -0.98117024
71.698532 68.123924 -0.96736592
73.892639 69.299263 -0.93548304
78.539864 71.788666 -0.91925234
87.913406 76.80986 -0.7576409
93.246391 79.666611 0
111.59592 89.496033 1.5079665
70.280937 67.369438 -0.9832474
71.700516 68.130974 -0.96792823
73.875877 69.297958 -0.93420035
78.557945 71.809677 -0.92069352
87.910248 76.826767 -0.75778645
93.282799 79.708893 0
111.54846 89.507591 1.506951
70.263596 67.369888 -0.98117024
71.695511 68.140274 -0.96792823
73.864937 69.307449 -0.93377113
78.530273 71.817459 -0.91954035
87.91304 76.865494 -0.758367
93.314201 79.771385 0
111.43065 89.518234 1.5041932
70.259521 67.377457 -0.98117024
71.677101 68.142342 -0.96624118
73.854004 69.316933 -0.93334359
78.534477 71.842377 -0.92040551
87.879181 76.884506 -0.75778645
93.350098 79.836449 0
111.34948 89.548393 1.5025971
70.233376 67.373077 -0.97771007
71.694435 68.163704 -0.96905512
73.865631 69.338608 -0.93505549
78.529541 71.862396 -0.92069352
87.872734 76.918297 -0.75807643
93.367561 79.891724 0
111.18147 89.531387 1.4982431
70.26458 67.399757 -0.9832474
71.675995 68.165726 -0.96736592
73.872719 69.357872 -0.9363398
78.510941 71.875015 -0.9201175
87.852539 76.944656 -0.75793141
93.384933 79.947052 0
110.99071 89.501617 1.4931631
69.314735 66.892601 -0.99758649
70.242836 67.397728 -0.9804787
71.679871 68.179848 -0.9684906
73.879768 69.377167 -0.9376241
78.478706 71.88018 -0.91867632
87.859703 76.985886 -0.75865698
93.429642 80.01738 0
110.87771 89.513672 1.4905509
69.29821 66.891907 -0.99514079
70.234329 67.402863 -0.97978723
71.67482 68.189125 -0.9684906
73.837212 69.369423 -0.93420035
78.48278 71.905098 -0.91954035
87.830307 77.007233 -0.75822145
93.465088 80.082855 0
110.75562 89.520493 1.4876481
70.252213 67.42244 -0.9832474
71.669746 68.198395 -0.9684906
73.848732 69.391167 -0.93591225
78.491371 71.932526 -0.92069352
87.837372 77.0485 -0.75894755
93.450195 80.120941 0
110.72931 89.579475 1.4877937
69.28688 66.902328 -0.99432659
70.270058 67.442062 -0.98670751
71.67804 68.214996 -0.9701798
73.819695 69.390701 -0.93377113
78.468185 71.942574 -0.91982949
87.807922 77.069794 -0.75851202
93.435272 80.159027 0
110.66647 89.618408 1.4867775
70.265892 67.449638 -0.98670751
71.672943 68.224274 -0.9701798
73.840164 69.417419 -0.9363398
78.449501 71.955055 -0.91925234
87.801208 77.103554 -0.758802
93.465866 80.222183 0
110.6537 89.684807 1.4873581
70.230988 67.440239 -0.98186439
71.658943 68.228638 -0.96905512
73.860573 69.444191 -0.93890679
78.467064 71.987511 -0.92098266
87.785355 77.132309 -0.758802
93.487251 80.280418 0
110.64537 89.753716 1.4880836
70.235596 67.452621 -0.9832474
71.658272 68.240341 -0.96961743
73.831535 69.443672 -0.93676734
78.448341 71.999969 -0.92040551
87.746742 77.148453 -0.75807643
93.503983 80.336205 0
110.59604 89.799988 1.4875031
70.26651 67.479637 -0.98878467
71.653137 68.249596 -0.96961743
73.833939 69.460533 -0.9376241
78.447716 72.022453 -0.92098266
87.726303 77.174614 -0.75793141
93.575233 80.422379 0
104.27248 86.362289 1.2864957
69.260605 66.929405 -0.99269509
70.279839 67.496971 -0.99155331
71.656868 68.263779 -0.97074211
73.82283 69.46991 -0.93719488
78.424446 72.032349 -0.9201175
87.705826 77.200745 -0.75778645
93.632675 80.501152 0
104.23181 86.403351 1.2860601
70.244942 67.487427 -0.98670751
71.665024 68.280464 -0.9724313
73.829666 69.489288 -0.93847919
78.423759 72.05481 -0.92069352
87.662628 77.214172 -0.75691533
93.617249 80.539482 0
104.16841 86.431679 1.284899
70.218834 67.482719 -0.9832474
71.668724 68.294693 -0.97355819
73.840942 69.511192 -0.94019109
78.414017 72.072235 -0.92069352
87.633057 77.235146 -0.75648034
93.674446 80.618484 0
104.13675 86.477661 1.284754
69.232712 66.938766 -0.98943526
70.227753 67.497604 -0.9853245
71.645805 68.293999 -0.97130662
73.834274 69.523079 -0.94019109
78.372688 72.071922 -0.91867632
87.5672 77.235695 -0.75488365
93.677032 80.667068 0
104.07331 86.505783 1.2835928
70.249748 67.51989 -0.98947614
71.658325 68.31321 -0.97355819
73.836533 69.539993 -0.94104618
78.380959 72.099434 -0.91982949
87.510437 77.241211 -0.75357753
93.670479 80.710587 0
104.00986 86.533783 1.2824317
70.210533 67.507698 -0.98393887
71.626549 68.307465 -0.9701798
73.8209 69.546829 -0.94019109
78.384659 72.124435 -0.92069352
87.458221 77.249168 -0.75241643
93.691048 80.769455 0
103.95998 86.569336 1.2817062
70.219398 67.522621 -0.98601604
71.665565 68.341728 -0.97580969
73.82312 69.563751 -0.94104618
78.370331 72.139259 -0.92040551
87.396988 77.251892 -0.7509653
93.779465 80.866882 0
103.91008 86.604797 1.2809806
69.270027 66.993324 -0.99921483
70.210777 67.527657 -0.9853245
71.655884 68.348465 -0.97524518
73.794075 69.562935 -0.93890679
78.364983 72.159172 -0.92069352
87.344803 77.259621 -0.7498042
93.772644 80.910568 0
103.81946 86.617065 1.2789484
70.202133 67.532669 -0.98463035
71.632957 68.347656 -0.97299367
73.809647 69.587471 -0.94104618
78.35511 72.176521 -0.92069352
87.324234 77.28524 -0.74965864
93.765739 80.954254 0
103.79211 86.665161 1.2789484
70.189156 67.535187 -0.9832474
71.627701 68.356873 -0.97299367
73.807358 69.601875 -0.94147539
78.367676 72.206688 -0.9221347
87.303658 77.310837 -0.74951363
93.831116 81.039261 0
103.72859 86.692612 1.2777873
70.252357 67.576302 -0.99363047
71.651543 68.376625 -0.97637206
73.777222 69.592499 -0.93890679
78.344772 72.205101 -0.92098266
87.318161 77.337814 -0.75023919
93.865982 81.083115 0
103.66527 86.688232 1.2761912
70.21756 67.566376 -0.98878467
71.633018 68.378281 -0.97468287
73.797188 69.619637 -0.94147539
78.334846 72.222427 -0.92098266
87.338097 77.386665 -0.75140029
93.922073 81.163216 0
103.61528 86.723221 1.2754656
70.213242 67.573883 -0.98878467
71.636543 68.39257 -0.97580969
73.803726 69.639145 -0.94275808
78.329384 72.242325 -0.92127067
87.33992 77.425217 -0.75198084
93.996056 81.25386 0
103.55626 86.75293 1.2744495
69.190079 66.993706 -0.98780686
70.191536 67.571365 -0.98601604
71.622421 68.396713 -0.97468287
73.788025 69.645859 -0.94190294
78.319412 72.259628 -0.92127067
87.368706 77.479385 -0.75343251
94.002243 81.305695 0
103.49272 86.77993 1.2732884
70.195892 67.583862 -0.98739904
71.639091 68.41864 -0.97749674
73.781189 69.657684 -0.94190294
78.309425 72.276924 -0.92127067
87.410881 77.541435 -0.75531924
94.044388 81.378418 0
103.44269 86.814629 1.2725629
69.217033 67.026077 -0.99432659
70.195915 67.593872 -0.9880932
71.638153 68.43042 -0.97806126
73.774353 69.669502 -0.94190294
78.281509 72.283829 -0.9201175
87.434952 77.593178 -0.75662535
94.086388 81.451263 0
103.36115 86.830978 1.2708212
70.182884 67.596298 -0.98670751
71.602043 68.421761 -0.9741205
73.794113 69.696793 -0.94446993
78.267029 72.298477 -0.91982949
87.458939 77.644997 -0.75793141
94.110275 81.513779 0
103.32904 86.875916 1.2706761
70.178535 67.603767 -0.98670751
71.609863 68.438629 -0.97580969
73.773926 69.700867 -0.94318724
78.274864 72.326141 -0.92098266
87.48732 77.699509 -0.75938255
94.156525 81.589478 0
103.2879 86.915558 1.2702405
69.218834 67.05246 -0.99677229
70.204498 67.628967 -0.99155331
71.626427 68.460648 -0.97862357
73.780319 69.720444 -0.94446993
78.260315 72.340759 -0.92069352
87.497673 77.743629 -0.76025367
94.193657 81.660065 0
103.26917 86.968269 1.2705312
70.217422 67.646614 -0.99432194
71.612259 68.464706 -0.97749674
73.764549 69.727066 -0.94361484
78.263611 72.365837 -0.92155868
87.525864 77.798302 -0.7617048
94.221687 81.725502 0
103.27275 87.034096 1.2715467
69.215698 67.067566 -0.99758649
70.195709 67.643951 -0.99155331
71.628754 68.486786 -0.98031062
73.770905 69.746666 -0.94489914
78.25795 72.385689 -0.92184669
87.549492 77.850426 -0.76301092
94.289978 81.814781 0
103.29417 87.110519 1.2731434
70.186882 67.658913 -0.99155331
71.596024 68.492271 -0.97749674
73.743721 69.762421 -0.94361484
78.23764 72.42012 -0.92184669
87.587524 77.949623 -0.76533312
94.318504 81.930313 0
103.36792 87.28212 1.2773523
70.182457 67.666389 -0.99155331
71.590591 68.50145 -0.97749674
73.76767 69.792526 -0.94661099
78.214127 72.429405 -0.92098266
87.584061 77.986069 -0.76576871
94.323685 81.982864 0
103.42021 87.37738 1.2799646
70.186638 67.678978 -0.99293631
71.611359 68.526207 -0.98087513
73.756241 69.801689 -0.94618177
78.230598 72.462433 -0.92271185
87.598404 78.033142 -0.76678425
94.342194 82.043434 0
103.4634 87.467499 1.2822868
70.173584 67.681313 -0.99155331
71.610245 68.538002 -0.98143744
73.758049 69.818741 -0.94703853
78.19371 72.46373 -0.92098266
87.612679 78.080276 -0.76780039
94.351669 82.098747 0
103.50642 87.557739 1.2846085
70.220802 67.719673 -0.99985927
71.582954 68.534157 -0.97862357
73.746613 69.827896 -0.94661099
78.196777 72.488831 -0.92184669
87.600098 78.111465 -0.76794535
94.414642 82.186157 0
103.54929 87.648132 1.2869307
70.13884 67.68074 -0.98739904
71.59053 68.551147 -0.98031062
73.735146 69.837021 -0.94618177
78.173218 72.498009 -0.92098266
87.596405 78.147987 -0.76838094
94.446213 82.255013 0
103.59645 87.741333 1.289398
70.155899 67.701088 -0.99086183
71.580673 68.557701 -0.97974825
73.745682 69.85936 -0.94789368
78.167366 72.517792 -0.92127067
87.597115 78.187202 -0.76896149
94.468735 82.318604 0
103.6301 87.826653 1.2914301
70.185783 67.72924 -0.99639648
71.588226 68.57473 -0.98143744
73.738594 69.871132 -0.94789368
78.170341 72.542908 -0.9221347
87.597755 78.226433 -0.76954204
94.477783 82.374214 0
103.66803 87.914764 1.2936068
70.164116 67.726334 -0.99363047
71.573982 68.578636 -0.98031062
73.722717 69.877586 -0.94703853
78.160011 72.560028 -0.9221347
87.584991 78.257622 -0.76968706
94.526833 82.454117 0
103.72361 88.013763 1.2963645
70.17675 67.744179 -0.99639648
71.572807 68.590424 -0.98087513
73.728767 69.897308 -0.94832122
78.154091 72.579819 -0.92242384
87.612183 78.313049 -0.77113813
94.566818 82.528755 0
103.74344 88.09137 1.2979608
70.193672 67.764671 -0.99985927
71.584625 68.61013 -0.98312664
73.721634 69.909058 -0.94832122
78.165817 72.610344 -0.92386502
87.581558 78.333473 -0.77070314
94.606667 82.603516 0
103.81199 88.198746 1.3011535
70.171982 67.761711 -0.99709064
71.587715 68.624573 -0.98425138
73.723267 69.926147 -0.94917798
78.133316 72.613998 -0.92242384
87.590836 78.378181 -0.77157372
94.6064 82.654037 0
103.87148 88.300934 1.3040563
71.584923 68.629158 -0.98425138
73.719681 69.932022 -0.94917798
78.150185 72.636002 -0.92386502
87.604324 78.405968 -0.77229929
94.621773 82.688789 0
103.92776 88.368332 1.3063785
70.160866 67.770264 -0.99639648
71.561981 68.627708 -0.98199981
73.677475 69.922325 -0.94575423
78.130905 72.64769 -0.92328787
87.600204 78.442619 -0.77273482
94.612495 82.733932 0
103.95591 88.45182 1.3082652
70.177696 67.790833 -0.99985927
71.556389 68.636841 -0.98199981
73.696556 69.950119 -0.94832122
78.102814 72.653938 -0.9221347
87.582733 78.471123 -0.77273482
94.643074 82.803574 0
104.01048 88.551712 1.3110224
71.563766 68.653961 -0.98368901
73.706848 69.972595 -0.95003307
78.114388 72.684532 -0.92357701
87.587357 78.513222 -0.77346039
94.677956 82.876038 0
104.05161 88.643616 1.3133446
71.549477 68.657753 -0.98256218
73.699631 69.984314 -0.95003307
78.103882 72.701584 -0.92357701
87.578659 78.547173 -0.77375096
94.774712 82.986877 0
104.12353 88.754761 1.3166831
70.146851 67.802643 -0.99709064
71.561134 68.677567 -0.98481369
73.69677 69.998741 -0.95046228
78.07135 72.705002 -0.9221347
87.57431 78.583847 -0.77418596
94.800446 83.054176 0
104.14662 88.836029 1.3184247
70.146507 67.812714 -0.99778211
71.551163 68.684021 -0.98425138
73.702591 70.018562 -0.95174497
78.074013 72.730179 -0.92299986
87.569923 78.620544 -0.77462149
94.759705 83.080399 0
108.03801 91.317001 1.4473019
71.541183 68.69046 -0.98368901
73.682243 70.022156 -0.95046228
78.059067 72.744453 -0.92271185
87.565483 78.657249 -0.77505708
89.601059 79.92334 0
108.0182 91.378426 1.4477369
71.535515 68.69957 -0.98368901
73.696739 70.047432 -0.95260173
78.039703 72.755951 -0.9221347
87.538925 78.680206 -0.7747665
89.55088 79.934975 0
107.94981 91.409592 1.4465758
71.538437 68.714058 -0.98481369
73.676361 70.05098 -0.95131743
78.055435 72.789368 -0.92386502
87.512367 78.703133 -0.77447653
89.465424 79.924454 0
107.89023 91.446152 1.4457052
71.549957 68.733963 -0.98706526
73.682098 70.070847 -0.95260173
78.044807 72.806351 -0.92386502
87.50338 78.737045 -0.7747665
89.428528 79.944153 0
107.83063 91.482605 1.4448346
71.539932 68.740379 -0.98650289
73.674751 70.082542 -0.95260173
78.01226 72.809547 -0.92242384
87.485558 78.765442 -0.7747665
89.373993 79.952698 0
107.77979 91.524475 1.444254
71.529907 68.74678 -0.98594058
73.671738 70.096962 -0.95302927
78.014725 72.83474 -0.92328787
87.489693 78.807671 -0.77549261
89.310654 79.955582 0
107.71572 91.557953 1.4432379
71.524162 68.755875 -0.98594058
73.66436 70.10865 -0.95302927
78.025909 72.865494 -0.92473018
87.484955 78.84436 -0.7759276
89.260574 79.966698 0
107.66043 91.596878 1.4425124
71.548447 68.783997 -0.98987913
73.652641 70.117577 -0.95260173
78.002075 72.87413 -0.92386502
87.493347 78.889427 -0.77679873
89.223679 79.986061 0
107.58755 91.624573 1.4412062
71.52552 68.782219 -0.98762977
73.649567 70.131981 -0.95302927
77.978241 72.882713 -0.92299986
87.462173 78.909439 -0.77636319
89.182381 80.002571 0
107.52343 91.657707 1.4401902
71.528297 68.796768 -0.98875445
73.655151 70.151917 -0.95431358
77.984947 72.910713 -0.92415303
87.457291 78.946159 -0.77679873
89.132294 80.013412 0
107.4856 91.707489 1.4400451
71.518219 68.803123 -0.98819208
73.63472 70.155289 -0.95302927
77.96109 72.91925 -0.92328787
87.456734 78.98568 -0.77737927
89.104141 80.038155 0
107.4302 91.746025 1.4393196
71.503845 68.806717 -0.98706526
73.644569 70.178001 -0.95474112
77.967728 72.947273 -0.92444104
87.442978 79.016815 -0.77752429
89.058456 80.051636 0
89.306892 80.210777 0.83934397
71.510864 68.824028 -0.98875445
73.645729 70.19519 -0.95559627
77.969971 72.972534 -0.9253062
87.437943 79.053558 -0.77795982
89.008385 80.06221 0
89.265427 80.227303 0.8386184
71.505028 68.833099 -0.98875445
73.633926 70.204063 -0.95516872
77.928665 72.969795 -0.92328787
87.437195 79.093109 -0.77853984
88.949577 80.067055 0
89.197739 80.226868 0.83702171
71.482109 68.831131 -0.98650289
73.639366 70.22406 -0.95645303
77.943901 73.003464 -0.92501819
87.392754 79.104507 -0.77766931
88.917038 80.08873 0
89.138824 80.231934 0.83571559
71.497589 68.853981 -0.98931676
73.627533 70.232918 -0.95602548
77.906952 73.003433 -0.92328787
87.352676 79.118645 -0.77694374
88.901947 80.121651 0
89.09301 80.245346 0.83484447
71.494652 68.858505 -0.98931676
73.645302 70.252693 -0.95816487
77.905861 73.014656 -0.92357701
87.291214 79.098831 -0.77520204
88.883461 80.131027 0
89.065742 80.249191 0.83426392
71.501564 68.87587 -0.99100596
73.633438 70.261543 -0.95773733
77.886276 73.025803 -0.92299986
87.259872 79.118462 -0.7747665
88.88578 80.17527 0
89.024307 80.265312 0.83353835
71.504173 68.890472 -0.99213064
73.604347 70.259155 -0.95559627
77.875359 73.04258 -0.92299986
87.245956 79.149399 -0.77491206
88.883644 80.216682 0
88.978523 80.278519 0.83266783
71.494011 68.896759 -0.99156833
73.613968 70.28199 -0.95730811
77.877419 73.067833 -0.92386502
87.245033 79.18885 -0.77549261
88.855331 80.241051 0
88.928375 80.288788 0.83165169
71.488091 68.905815 -0.99156833
73.614967 70.29924 -0.95816487
77.87944 73.093102 -0.92473018
87.244034 79.228302 -0.77607262
88.844383 80.276772 0
88.891289 80.307503 0.83107114
71.494904 68.923233 -0.99325752
73.603065 70.308037 -0.95773733
77.846809 73.095657 -0.92328787
87.264725 79.282066 -0.77737927
88.846466 80.321075 0
88.845512 80.32045 0.83020055
71.493187 68.935074 -0.99381983
73.591133 70.316803 -0.95730811
77.866058 73.132301 -0.9253062
87.315666 79.355896 -0.77970099
88.848457 80.365402 0
88.808411 80.339027 0.82962
71.461784 68.92733 -0.99044365
73.596352 70.336876 -0.95859241
77.842056 73.140488 -0.92444104
87.379501 79.438469 -0.78245878
88.833 80.398277 0
88.797318 80.37471 0.82991004
71.468521 68.944748 -0.99213064
73.592964 70.351295 -0.95902002
77.809441 73.142937 -0.92299986
87.395493 79.489655 -0.78361988
88.839203 80.445503 0
88.755852 80.39032 0.82918447
71.46254 68.953773 -0.99213064
73.598122 70.371407 -0.96030432
77.81562 73.171059 -0.92415303
87.43737 79.558144 -0.78565156
88.862686 80.504295 0
88.736031 80.420227 0.82918447
71.452324 68.959969 -0.99156833
73.573318 70.37162 -0.95859241
77.804527 73.187744 -0.92415303
87.483452 79.629646 -0.7878288
88.864388 80.548744 0
88.698868 80.438583 0.82860392
71.463234 68.980255 -0.99381983
73.57843 70.391731 -0.95987678
77.797714 73.207283 -0.92444104
87.516403 79.692619 -0.78956991
88.887657 80.607666 0
88.683319 80.471306 0.82874948
71.452995 68.986443 -0.99325752
73.587769 70.414726 -0.96158862
77.799484 73.232582 -0.9253062
87.510391 79.729691 -0.79000545
88.867569 80.637726 0
88.680664 80.512665 0.82932949
71.442749 68.992622 -0.99269515
73.558693 70.412003 -0.95944917
77.788315 73.249252 -0.9253062
87.530205 79.784142 -0.79131156
88.890686 80.696762 0
88.65638 80.539581 0.82918447
71.440918 69.00444 -0.99325752
73.563705 70.432137 -0.96073186
77.781418 73.268791 -0.92559421
87.554245 79.841568 -0.79276323
88.892082 80.741341 0
88.649323 80.578072 0.82962
71.443283 69.019104 -0.9943822
73.547424 70.437958 -0.95987678
77.761642 73.279655 -0.92501819
87.582474 79.90197 -0.79435939
88.876144 80.774315 0
88.629272 80.607841 0.82962
71.449852 69.036636 -0.9960714
73.539642 70.449486 -0.95987678
77.75042 73.29628 -0.92501819
87.645042 79.985764 -0.79711717
88.851555 80.801453 0
88.626404 80.649231 0.83020055
71.443756 69.045639 -0.9960714
73.540329 70.466766 -0.96073186
77.734894 73.309982 -0.92473018
87.72464 80.081375 -0.80045491
96.026031 85.708344 0
88.610565 80.681885 0.83034557
71.43766 69.054626 -0.9960714
73.541008 70.484062 -0.96158862
77.72364 73.326576 -0.92473018
87.812645 80.18306 -0.80408329
96.008377 85.752876 0
88.603287 80.720383 0.83078116
71.427345 69.060753 -0.99550903
73.533165 70.49559 -0.96158862
77.712357 73.343147 -0.92473018
87.973442 80.334717 -0.81017888
96.050896 85.838425 0
88.604538 80.764725 0.83150667
71.417038 69.066856 -0.99494672
73.542267 70.518684 -0.96330047
77.696777 73.356789 -0.92444104
88.202568 80.533691 -0.81859666
96.088959 85.921181 0
88.588554 80.797371 0.83165169
71.43187 69.090172 -0.99776059
73.525909 70.524406 -0.96244371
77.70253 73.385025 -0.92559421
88.311195 80.651016 -0.8229506
96.092499 85.980522 0
88.585388 80.838814 0.83223224
71.407837 69.080292 -0.99494672
73.526207 70.533066 -0.96287292
77.692596 73.390373 -0.9253062
88.326836 80.683334 -0.82382113
96.113556 86.023453 0
88.609497 80.877182 0.83339339
71.410065 69.094994 -0.9960714
73.518311 70.544571 -0.96287292
77.668449 73.398117 -0.92444104
88.349487 80.742165 -0.8252728
96.202728 86.141869 0
88.597656 80.912796 0.83368391
71.395538 69.098183 -0.99494672
73.531525 70.570641 -0.96501237
77.691154 73.43811 -0.92674738
88.354904 80.789261 -0.82614338
96.274498 86.248703 0
88.572914 80.939545 0.83353835
71.397728 69.112885 -0.9960714
73.506683 70.570473 -0.96330047
77.671234 73.448776 -0.92617136
88.364532 80.839363 -0.82715946
96.341782 86.352783 0
105.49837 92.68129 1.4088417
71.39991 69.127617 -0.99719822
73.502953 70.584877 -0.96372807
77.659813 73.465286 -0.92617136
88.369797 80.886551 -0.82803005
96.370361 86.430382 0
105.44659 92.719574 1.4082612
71.389519 69.133644 -0.99663377
73.494995 70.596352 -0.96372807
77.656853 73.487679 -0.92674738
88.370705 80.930801 -0.82875562
96.441559 86.537781 0
105.40761 92.76667 1.4081161
71.368767 69.145676 -0.99550903
73.470612 70.613411 -0.96287292
77.60421 73.499931 -0.92473018
88.368057 81.016426 -0.83006173
96.50647 86.699547 0
105.26126 92.813087 1.4055034
71.375038 69.163322 -0.99719822
73.466812 70.627792 -0.96330047
77.609673 73.528229 -0.92588335
88.36451 81.057777 -0.83064228
96.57283 86.804489 0
105.21365 92.853989 1.4050684
71.381264 69.180977 -0.99888527
73.479805 70.653969 -0.96543992
77.619316 73.559525 -0.92732453
88.390678 81.120049 -0.83223897
96.600632 86.882698 0
105.15323 92.885849 1.4041972
71.362541 69.181129 -0.99719822
73.471764 70.665421 -0.96543992
77.60775 73.575974 -0.92732453
88.386978 81.161469 -0.83281952
96.615524 86.952026 0
105.09705 92.920601 1.4034717
71.356277 69.190018 -0.99719822
73.463699 70.676857 -0.96543992
77.591934 73.589417 -0.92703539
88.417175 81.226883 -0.83456117
96.643051 87.030418 0
105.04509 92.958252 1.4028912
71.366592 69.21064 -0.99944979
73.455627 70.688286 -0.96543992
77.555008 73.587921 -0.9253062
88.426033 81.277367 -0.83557671
96.6577 87.099907 0
104.97613 92.983818 1.4017299
71.347855 69.210716 -0.99776059
73.44754 70.699707 -0.96543992
77.551857 73.610283 -0.92588335
88.426346 81.321907 -0.83630288
96.684952 87.17849 0
104.91565 93.015274 1.4008595
71.345688 69.222534 -0.99832296
73.4478 70.717064 -0.966295
77.540237 73.626648 -0.92588335
88.435036 81.372482 -0.83731842
96.754486 87.287323 0
104.86362 93.05265 1.4002789
71.347656 69.237312 -0.99944979
73.427139 70.719543 -0.96501237
77.562279 73.667007 -0.92818856
88.452103 81.429138 -0.83862454
96.815323 87.390327 0
104.80733 93.086929 1.3995533
73.435722 70.742867 -0.96672422
77.537971 73.674377 -0.92732453
88.456406 81.476807 -0.83949566
96.854797 87.478378 0
104.73833 93.112038 1.3983922
73.435913 70.760239 -0.96757936
77.522057 73.687706 -0.92703539
88.494408 81.548714 -0.84152734
96.906784 87.575653 0
104.68201 93.146111 1.3976667
73.423569 70.768646 -0.96715176
77.497749 73.694992 -0.92617136
88.523834 81.614677 -0.84326899
96.950134 87.667015 0
104.62987 93.183121 1.3970861
71.318123 69.269783 -0.99888527
73.423706 70.786018 -0.96800691
77.498604 73.720352 -0.92703539
88.557358 81.683777 -0.84515566
96.984879 87.752434 0
104.56084 93.207901 1.3959249
73.403023 70.788391 -0.96672422
77.495247 73.742722 -0.92761254
88.586533 81.749939 -0.84689736
96.998344 87.822739 0
104.49602 93.235588 1.3949089
73.398972 70.802757 -0.96715176
77.470886 73.749916 -0.92674738
88.615585 81.816193 -0.84863901
96.982193 87.87175 0
104.43121 93.263184 1.3938932
73.407333 70.817474 -0.96843612
77.460808 73.75502 -0.92645937
88.67215 81.879852 -0.85096127
97.064682 87.961914 0
104.40089 93.27845 1.3934578
73.399094 70.828842 -0.96843612
77.474113 73.78952 -0.92818856
88.705177 81.949364 -0.85284793
97.111511 88.056923 0
104.34026 93.308914 1.3925866
73.394974 70.843208 -0.96886367
77.449745 73.796661 -0.92732453
88.721275 82.006737 -0.85415405
97.179169 88.167389 0
104.27122 93.333168 1.3914261
73.390846 70.857582 -0.96929121
77.467133 73.834251 -0.92934173
88.712082 82.045776 -0.85458905
97.141548 88.201324 0
104.21896 93.369545 1.3908455
73.382553 70.868927 -0.96929121
77.459419 73.853584 -0.92963088
88.723801 82.100189 -0.85575014
97.234055 88.330505 0
104.17505 93.411972 1.3905549
73.37838 70.883293 -0.96971875
77.443321 73.866768 -0.92934173
88.714485 82.139275 -0.85618573
97.296951 88.4384 0
104.11854 93.445129 1.3898294
73.374207 70.897667 -0.97014797
77.431396 73.883003 -0.92934173
88.696732 82.172195 -0.85633069
97.30513 88.506378 0
104.04944 93.468941 1.3886683
73.378242 70.918129 -0.97143066
77.415283 73.896164 -0.92905372
88.708214 82.226707 -0.85749185
97.401146 88.639297 0
103.99708 93.504967 1.3880877
73.345123 70.91114 -0.96886367
77.411644 73.918518 -0.92963088
88.702881 82.268906 -0.8580724
97.492706 88.769386 0
103.94885 93.544006 1.3876522
73.353256 70.934662 -0.97057551
77.407951 73.940872 -0.93020689
88.70166 82.314217 -0.85879797
97.609085 88.918327 0
103.89226 93.576782 1.3869267
73.353104 70.952072 -0.97143066
77.404236 73.963242 -0.93078405
88.708717 82.365753 -0.85981405
97.65831 89.017906 0
103.83565 93.609459 1.386201
73.311768 70.938828 -0.96800691
77.396332 73.982521 -0.93107206
88.715683 82.417343 -0.86083019
97.749084 89.148743 0
103.75818 93.626526 1.3847499
73.332169 70.971588 -0.97100306
77.417419 74.023468 -0.9333784
88.701729 82.4534 -0.86112016
97.781227 89.236237 0
103.68904 93.649666 1.3835888
73.331947 70.989006 -0.9718582
77.359749 74.005562 -0.93020689
88.700203 82.49881 -0.86184573
97.83403 89.339439 0
103.6407 93.688248 1.3831532
73.319397 70.9972 -0.97143066
77.372475 74.040337 -0.93193722
88.727707 82.566086 -0.86358738
97.90744 89.458427 0
103.58403 93.720528 1.3824277
73.315033 71.011543 -0.9718582
77.364464 74.059601 -0.93222523
88.721863 82.608452 -0.86416799
97.959816 89.561974 0
103.53148 93.755829 1.3818471
73.318855 71.032074 -0.9731425
77.344032 74.069504 -0.93164808
88.728401 82.660225 -0.86518407
97.98291 89.643745 0
103.46231 93.778534 1.380686
73.293968 71.030937 -0.97143066
77.348358 74.098099 -0.93280125
88.734833 82.712029 -0.86619961
97.960213 89.691071 0
103.42216 93.823059 1.380541
73.273209 71.03286 -0.97014797
77.332031 74.111099 -0.93251324
88.716362 82.745056 -0.86634517
97.912552 89.719513 0
103.3571 93.848694 1.3795249
73.272873 71.05027 -0.97100306
77.311569 74.120941 -0.93193722
88.735054 82.806351 -0.8677963
97.869019 89.751015 0
103.30032 93.880501 1.3787993
73.28476 71.077026 -0.9731425
77.303444 74.140152 -0.93222523
88.720573 82.842522 -0.86808628
97.817184 89.776146 0
103.23526 93.905907 1.3777832
73.272125 71.085129 -0.97271496
77.299393 74.162498 -0.93280125
88.693665 82.869225 -0.86794132
97.765335 89.801193 0
103.19084 93.946991 1.3774933
73.251328 71.08696 -0.97143066
77.287109 74.178558 -0.93280125
88.658463 82.889565 -0.86750573
97.717613 89.829308 0
103.12987 93.975357 1.3766221
73.259262 71.101921 -0.97271496
77.285057 74.189728 -0.93308926
88.671799 82.923439 -0.86837685
97.677216 89.830658 0
103.10352 93.992668 1.3763322
73.254745 71.116234 -0.9731425
77.272736 74.20578 -0.93308926
88.65303 82.956406 -0.86852187
97.687248 89.903069 0
103.03017 94.011391 1.375026
73.24614 71.127411 -0.9731425
77.268593 74.228127 -0.93366641
88.634216 82.989349 -0.86866689
97.705391 89.981888 0
102.97742 94.045837 1.3744454
73.241577 71.141708 -0.97357005
77.272598 74.256805 -0.93481958
88.615379 83.022285 -0.86881244
97.772804 90.098969 0
102.92464 94.0802 1.3738649
73.228889 71.149734 -0.9731425
77.247925 74.263329 -0.93395442
88.571823 83.036095 -0.86808628
97.823532 90.203506 0
102.84718 94.09539 1.3724138
73.224289 71.164024 -0.97357005
77.264114 74.301544 -0.93597275
88.577538 83.088089 -0.86910242
97.874069 90.308212 0
102.80257 94.135925 1.3721232
73.199425 71.162552 -0.9718582
77.235329 74.304848 -0.93481958
88.554459 83.117767 -0.86910242
97.940819 90.425865 0
102.74153 94.163635 1.3712527
73.227203 71.202103 -0.97571111
77.231018 74.327194 -0.9353956
88.514954 83.134636 -0.86852187
97.966301 90.511688 0
102.69276 94.200836 1.3708171
73.218491 71.213242 -0.97571111
77.230759 74.352737 -0.93626076
88.512268 83.180252 -0.86924744
98.020325 90.620064 0
102.6317 94.228355 1.3699466
73.217842 71.230705 -0.97656626
77.238586 74.384682 -0.93770194
88.534058 83.24514 -0.87084407
98.074127 90.728615 0
102.56243 94.249352 1.3687854
73.221207 71.251366 -0.97785056
77.238228 74.410263 -0.9385671
88.48629 83.255501 -0.86997354
98.111359 90.824463 0
102.52176 94.292702 1.3686398
73.20034 71.25296 -0.97656626
77.20533 74.410248 -0.93712592
88.524208 83.333328 -0.87215018
98.168839 90.936539 0
102.45248 94.313492 1.3674787
73.179482 71.254524 -0.97528195
77.221138 74.448639 -0.93914312
88.541595 83.395164 -0.87360132
98.217941 91.042358 0
102.39137 94.340599 1.3666081
73.186806 71.278358 -0.9769938
77.224724 74.477455 -0.94029629
88.526299 83.431259 -0.87389189
98.258667 91.141853 0
102.34245 94.377281 1.3661727
73.173988 71.286263 -0.97656626
77.216118 74.496651 -0.94058543
88.547554 83.496429 -0.87548798
98.31958 91.257675 0
102.27724 94.40097 1.3651571
73.165176 71.297348 -0.97656626
77.199364 74.509384 -0.94029629
88.560577 83.555222 -0.8767947
98.343636 91.344521 0
102.2364 94.443954 1.3650116
73.168396 71.318024 -0.97785056
77.214966 74.547913 -0.94231462
88.569427 83.610817 -0.87795579
98.408188 91.463913 0
102.17929 94.47393 1.3642859
73.15152 71.322678 -0.9769938
77.190086 74.554176 -0.94144946
88.59034 83.676193 -0.87955189
98.456261 91.570511 0
102.11404 94.497314 1.3632704
73.154686 71.343369 -0.9782781
77.16523 74.560402 -0.94058543
88.607079 83.738403 -0.88100302
98.504128 91.677261 0
102.05688 94.527084 1.3625443
73.145805 71.354424 -0.9782781
77.176643 74.595749 -0.94231462
88.587265 83.771393 -0.88114858
98.555832 91.787422 0
102.01593 94.569794 1.3623993
73.136909 71.365471 -0.9782781
77.159805 74.608421 -0.94202662
88.59977 83.830437 -0.88245469
98.611374 91.901016 0
101.94255 94.586349 1.3610932
73.128006 71.376511 -0.9782781
77.171112 74.643814 -0.94375581
88.624298 83.899338 -0.88419634
