# .PCD v0.7 - Point Cloud Data file format
VERSION 0.7
FIELDS x y z
SIZE 4 4 4
TYPE F F F
COUNT 1 1 1
WIDTH 1794
HEIGHT 1
VIEWPOINT 0 0 0 1 0 0 0
POINTS 1794
DATA ascii
62.278164 99.597305 -0.99532717
62.277172 99.617813 0
64 64 0
62.237209 99.55368 -0.99416608
62.234394 99.610497 0
59.088428 163.06142 2.7699945
62.192936 99.577469 -0.99489164
62.189781 99.639542 0
58.967945 163.07095 2.7704296
62.149136 99.590836 -0.99532717
62.14645 99.642517 0
58.852829 162.97659 2.7679622
62.104752 99.614517 -0.99605274
62.104492 99.619461 0
58.728546 163.0585 2.7704296
62.066807 99.518799 -0.99344051
62.06004 99.643127 0
64 64 0
62.02129 99.563141 -0.99474663
62.019287 99.599182 0
64 64 0
64 64 -0
61.97509 99.617546 0
64 64 0
61.929642 99.656647 0
64 64 0
61.885017 99.680092 0
64 64 0
61.841595 99.682724 0
64 64 0
61.819084 99.696976 0
64 64 0
61.7766 99.683945 0
64 64 0
61.732166 99.702003 0
57.030514 173.71898 3.0704174
61.690037 99.683655 0
56.91708 173.4149 3.062145
61.64521 99.706802 0
64 64 0
61.601368 99.714325 0
56.699005 172.70786 3.0428421
61.558216 99.711395 0
56.568718 172.68341 3.0424073
61.512901 99.739563 0
56.436321 172.6899 3.0428421
61.468246 99.757301 0
56.298756 172.7688 3.0453095
61.424671 99.759399 0
56.169949 172.72314 3.0442939
61.381462 99.756271 0
64 64 0
61.345592 99.654579 -0.99852002
61.337101 99.768654 0
64 64 0
61.293884 99.765411 0
64 64 0
61.24987 99.772507 0
64 64 0
61.205841 99.779526 0
64 64 0
61.161373 99.791687 0
64 64 0
61.115623 99.819351 0
64 64 0
61.071072 99.831406 0
64 64 0
61.02993 99.80191 0
60.984924 99.819046 0
60.939877 99.836121 0
64 64 0
60.89613 99.837578 0
64 64 0
60.849644 99.870087 0
55.309277 162.95288 2.7742028
60.807224 99.855896 0
55.196171 162.86984 2.7721713
60.782776 99.885056 0
64 64 0
60.737061 99.907074 0
64 64 0
60.693676 99.903107 0
64 64 0
60.651264 99.888702 0
64 64 0
60.558594 99.942688 0
54.517025 163.04195 2.7787023
60.514164 99.948853 0
54.403378 162.96835 2.7769606
60.469711 99.954987 0
54.277199 163.0239 2.7788475
60.427299 99.940323 0
54.156013 163.0276 2.7792828
60.384914 99.925629 0
54.040009 162.97943 2.7782669
60.337818 99.957489 0
53.886719 163.2982 2.7875552
60.294373 99.953033 0
64 64 0
60.247154 99.984756 0
64 64 0
60.203678 99.980194 0
64 64 0
60.157444 100.00146 0
53.271786 164.51414 2.8231125
60.115063 99.98645 0
53.149223 164.51144 2.8234031
60.070454 99.992065 0
53.018196 164.58609 2.8258703
60.020111 100.04938 0
52.924606 164.31964 2.8187587
59.977711 100.0342 0
56.627254 130.04968 1.8560983
59.933006 100.03965 0
56.550365 130.01492 1.8553727
59.88887 100.0399 0
56.477085 129.94907 1.853776
59.841751 100.06592 0
56.400379 129.91412 1.8530505
59.79697 100.0712 0
56.327957 129.84296 1.8513088
56.415676 128.41301 0
56.257519 129.75623 1.8491321
56.374928 128.42392 0
56.220848 129.72574 1.8484066
56.295849 128.42502 0
56.179691 129.39636 1.8394082
56.214268 128.44666 0
56.23032 128.31378 1.8092208
56.132618 128.4682 0
56.164574 128.20633 1.806463
56.048996 128.50514 0
56.100349 128.0885 1.8034153
55.962059 128.56778 0
56.033188 127.99641 1.8010936
55.87236 128.65097 0
55.957165 127.97642 1.8008031
55.785728 128.70822 0
55.885757 127.92026 1.7994969
55.696297 128.78601 0
55.808525 127.91041 1.7994969
50.463009 168.61392 0
55.730644 127.90561 1.799642
50.347401 168.51491 0
55.649391 127.9265 1.800513
50.223846 168.47769 0
55.567402 127.95242 1.8015286
50.099674 168.4455 0
55.477108 128.04007 1.8042864
49.981102 168.37189 0
55.395584 128.06061 1.8051569
49.851505 168.38065 0
55.309807 128.11197 1.8068986
49.719749 168.40472 0
55.212631 128.24559 1.8109626
56.947529 115.10156 0
55.126484 128.29669 1.8127036
56.986279 114.37131 0
55.033031 128.39917 1.815897
56.95076 114.1824 0
52.563919 145.41159 2.2959933
56.886475 114.19962 0
52.470665 145.36169 2.2949772
56.833923 114.13432 0
56.701923 115.05782 1.4404405
48.694363 170.16328 0
56.64394 115.02325 1.439715
48.547371 170.27347 0
52.169079 145.36566 2.2962837
48.404625 170.35257 0
52.065498 145.38728 2.2972994
48.272324 170.35941 0
51.966404 145.37794 2.2974443
49.032932 164.79489 0
51.915714 145.38095 2.297735
48.950455 164.51422 0
51.812775 145.39713 2.2986054
48.889618 164.09453 0
51.711327 145.40289 2.299186
48.819584 163.74174 0
51.612198 145.39311 2.2993309
53.300953 133.73074 0
51.510704 145.39862 2.2999117
53.213524 133.73834 0
51.409977 145.3989 2.3003471
51.334896 145.23439 0
51.310028 145.39389 2.3006377
51.240791 145.19333 0
51.211689 145.37851 2.3006377
53.292175 131.60654 0
51.119061 145.32706 2.2996216
53.209675 131.59869 0
51.039639 145.19342 2.2962837
53.130486 131.57018 0
50.997669 144.8288 2.2864144
64 64 -0
53.067169 131.44397 0
50.993141 144.23851 2.2701597
64 64 -0
64 64 0
50.948139 143.90475 2.2611616
53.223717 129.47609 0
50.878601 143.72485 2.2565176
53.145462 129.45787 0
50.822235 143.46799 2.2496965
53.074097 129.3985 0
50.788738 143.07782 2.2391014
53.009766 129.298 0
50.738045 142.79533 2.2315547
64 64 0
64 64 0
53.185852 127.31656 0
64 64 0
53.037315 127.2646 0
49.878242 145.4953 2.309926
53.009796 127.19643 0
64 64 0
53.271969 125.25035 0
49.715317 145.55658 2.3123934
53.20068 125.22195 0
49.660118 145.29361 2.3054266
53.130356 125.18836 0
64 64 0
53.061928 125.14445 0
49.434418 145.42242 2.310071
51.407452 133.90567 0
49.36092 145.26668 2.3061528
51.32671 133.8699 0
64 64 0
52.012806 129.63564 0
64 64 0
51.985275 129.33957 0
64 64 0
51.929073 129.20216 0
48.94561 145.3176 2.3096356
53.017551 122.9248 0
64 64 0
64 64 0
64 64 0
53.19783 121.18991 0
64 64 0
53.114151 121.25352 0
64 64 0
53.041069 121.26076 0
50.702305 133.48087 1.975687
52.979763 121.2066 0
50.668495 133.20451 1.9682853
52.917583 121.15747 0
50.663029 132.78532 1.9568198
51.209656 129.54221 0
50.670498 132.30502 1.9436131
51.128464 129.5369 0
50.615017 132.15118 1.9396942
51.105801 129.23538 0
64 64 0
51.043232 129.13806 0
50.933945 129.6875 1.8704666
50.96249 129.13258 0
50.929047 129.29967 1.8598716
50.88483 129.11166 0
50.871704 129.17685 1.8568238
50.808231 129.08557 0
50.791924 129.16605 1.8569694
50.732719 129.05429 0
50.712154 129.15512 1.8571143
50.699677 129.01567 0
50.675919 129.13181 1.8566788
50.63372 128.93839 0
50.598274 129.11057 1.8565338
64 64 0
50.523827 129.07397 1.8559532
50.459839 128.98741 0
50.465351 128.96097 1.8531954
50.345024 129.1442 0
50.385799 128.94968 1.853341
50.279205 129.06654 0
64 64 0
50.177914 129.15683 0
64 64 0
64 64 0
64 64 0
64 64 0
64 64 0
64 64 0
64 64 0
64 64 0
64 64 0
64 64 0
64 64 0
64 64 0
64 64 0
64 64 0
64 64 0
64 64 0
64 64 0
64 64 0
64 64 0
64 64 0
64 64 0
64 64 0
64 64 0
50.963013 121.34688 0
64 64 0
50.962166 121.03173 0
50.875114 121.41251 1.6447864
51.02969 120.42245 0
50.795277 121.44218 1.6460924
51.011925 120.18869 0
50.806629 121.07684 1.6360785
50.966431 120.07662 0
50.805908 120.76727 1.6276608
50.923557 119.95441 0
50.829571 120.35657 1.6163402
50.913502 119.84515 0
50.84058 120.15634 1.6108251
50.889004 119.64691 0
50.784653 120.08983 1.6093739
50.886562 119.35754 0
50.725273 120.03841 1.6083579
50.887211 119.05813 0
50.65757 120.02233 1.6083579
50.905525 118.68794 0
50.591099 120.00112 1.6082128
50.894272 118.44436 0
50.5429 119.90404 1.6058906
50.873795 118.2413 0
50.499805 119.78673 1.6029884
50.855015 118.03323 0
50.57613 119.1796 1.5860077
50.860207 117.72914 0
50.619335 118.71408 1.573091
50.854942 117.47061 0
50.681015 118.1781 1.5581427
50.837788 117.26268 0
50.695351 117.83908 1.5488538
50.842453 116.96892 0
50.740547 117.37917 1.5360826
50.830147 116.74596 0
50.760403 117.0253 1.5263586
50.729454 116.608 0
50.698395 116.73114 1.5188119
50.681248 116.53139 0
50.646187 116.66968 1.5175053
50.630634 116.46483 0
50.583839 116.64847 1.5173603
64 64 -0
50.571125 116.4335 0
50.513786 116.65739 1.5180858
64 64 -0
50.506485 116.42227 0
50.443687 116.66623 1.5188119
64 64 -0
50.434025 116.44121 0
50.37746 116.65987 1.519102
64 64 -0
50.369362 116.42981 0
50.306 116.67354 1.5199726
64 64 -0
50.303391 116.42336 0
50.238422 116.67204 1.520408
50.270401 116.42013 0
50.201336 116.68382 1.5209886
50.195148 116.4488 0
50.133717 116.68219 1.5214242
50.134449 116.422 0
50.067417 116.67545 1.5217142
50.068439 116.41528 0
50.001106 116.66862 1.5220047
50.005119 116.39841 0
49.937477 116.65167 1.5220047
49.93507 116.40659 0
49.871178 116.64467 1.5222948
49.871758 116.38956 0
49.808926 116.62254 1.5221498
49.794853 116.42268 0
49.734482 116.64548 1.5233109
49.727417 116.42055 0
49.672241 116.6232 1.5231658
49.662716 116.40828 0
49.596329 116.65096 1.524472
49.593884 116.411 0
49.521698 116.67361 1.5256331
49.529182 116.39856 0
49.458065 116.65607 1.5256331
49.458916 116.40613 0
49.387505 116.6635 1.5263586
49.384422 116.42863 0
49.325275 116.6408 1.5262136
49.312664 116.44099 0
49.257481 116.63803 1.5266486
49.24931 116.42322 0
49.189663 116.63519 1.5270842
49.185978 116.40535 0
49.119011 116.64226 1.5278097
49.115559 116.41245 0
49.056831 116.61925 1.5276648
49.047955 116.40944 0
48.98328 116.63614 1.5286809
48.983204 116.39633 0
48.911102 116.64792 1.5295514
48.912704 116.40315 0
48.844627 116.63963 1.5298414
48.840721 116.4149 0
48.776699 116.63626 1.530277
48.80761 116.41072 0
48.737667 116.65201 1.5310025
48.753025 116.36234 0
48.676964 116.62355 1.5307126
58.171745 83.926102 -0.57981449
58.17688 83.908562 0
58.16452 83.950813 0.58053339
64 64 -0
58.152069 83.904083 -0.57937896
64 64 0
64 64 0
58.130962 83.887047 -0.57908893
64 64 0
64 64 0
64 64 -0
64 64 0
64 64 0
58.093304 83.837936 -0.57807285
64 64 0
64 64 0
58.070827 83.825806 -0.57792783
64 64 0
58.048557 83.900269 0.58009833
58.049866 83.80867 -0.57763726
58.026711 83.885765 0
58.023022 83.898041 0.58024335
58.025936 83.80146 -0.57763726
58.014713 83.838669 0
58.00499 83.870895 0.5796628
48.113564 116.42757 0
48.055878 116.61794 1.5355021
48.05629 116.38841 0
47.993828 116.59364 1.5353565
47.991482 116.37408 0
47.910538 116.63889 1.5372437
47.919044 116.38454 0
47.840851 116.63928 1.5378243
47.852692 116.37503 0
47.775726 116.62468 1.5379692
47.775566 116.40022 0
47.696785 116.65467 1.5394204
47.7169 116.36567 0
47.637802 116.62004 1.5389848
47.642776 116.38074 0
47.568039 116.62007 1.5395653
47.581055 116.35597 0
47.493584 116.6349 1.5405815
47.508423 116.36588 0
47.429993 116.61491 1.5405815
47.437317 116.37072 0
47.361729 116.60973 1.5410171
47.359871 116.39531 0
47.293457 116.60443 1.5414521
47.288658 116.39998 0
47.217278 116.62381 1.5426131
47.255424 116.39482 0
47.188644 116.60378 1.5423231
47.176224 116.4241 0
47.110809 116.62794 1.5436293
47.109695 116.41365 0
47.039261 116.63223 1.5443548
47.041573 116.40805 0
46.970879 116.62654 1.5447904
46.970215 116.41229 0
46.904091 116.6158 1.5450804
46.89399 116.43124 0
46.84375 116.58524 1.5447904
46.824165 116.43031 0
54.552063 92.840424 0.84757662
46.755947 116.42436 0
54.504238 92.868462 0.84873718
46.687714 116.41832 0
54.524773 92.689194 0.84380269
46.630943 116.3776 0
54.514648 92.603745 0.84162605
54.42849 92.631775 0
54.524632 92.344177 0.83465987
54.441929 92.477097 0
54.533386 92.204605 0.83088601
54.338268 92.671051 -0.84497052
54.45406 92.327438 0
54.539139 92.074966 0.82740319
54.333607 92.570755 -0.84235829
54.453201 92.21727 0
54.540199 91.960144 0.82435542
54.367622 92.357307 -0.83640772
54.481052 92.023369 0
54.549873 91.820763 0.82058203
54.475937 91.927582 -0.82407153
54.505997 91.839439 0
54.556526 91.691269 0.81709874
54.511215 91.71447 -0.81812096
54.528 91.665451 0
54.571888 91.537262 0.81288981
54.558815 91.467102 -0.81115484
54.535187 91.535843 0
54.567337 91.442307 0.8104226
54.59005 91.269005 -0.8056398
54.566437 91.337425 0
54.579952 91.298264 0.80650425
54.618343 91.080849 -0.80041534
54.577709 91.198143 0
54.580997 91.188644 0.80360144
54.659035 90.858421 -0.79417419
54.589302 91.058929 0
54.601067 91.025101 0.79910254
54.693394 90.655777 -0.7885142
54.599503 90.92469 0
54.590691 90.949944 0.79721588
54.73682 90.428741 -0.78212863
54.592796 90.839645 0
54.597672 90.825745 0.79387748
54.722145 90.3685 -0.7806769
54.607021 90.695686 0
54.59803 90.721237 0.79112029
54.733559 90.234772 -0.77704859
54.621571 90.551819 0
54.610756 90.582443 0.78734636
54.750648 90.136093 -0.77429134
54.655888 90.403854 0
54.639771 90.449394 0.78357303
54.757343 90.017174 -0.77109855
54.664066 90.279732 0
54.637394 90.35482 0.78110582
54.767807 89.888504 -0.7676152
54.67078 90.160583 0
54.643955 90.235809 0.77791303
54.766308 89.794159 -0.76514798
54.67952 90.036598 0
54.666553 90.072823 0.77341408
54.773808 89.6754 -0.7619552
54.69207 89.902863 0
54.659664 89.993042 0.77138186
54.783348 89.551788 -0.75861686
54.674904 89.852432 0
54.661762 89.88887 0.76862466
54.787857 89.442917 -0.7557146
54.698601 89.689438 0
54.662331 89.789619 0.76601243
54.792625 89.334084 -0.75281185
54.712013 89.555885 0
54.663132 89.690392 0.7633996
54.794075 89.235069 -0.75019962
54.720383 89.43708 0
54.681957 89.542412 0.75933629
54.802902 89.116577 -0.74700677
54.716503 89.352531 0
54.679695 89.453049 0.75701404
54.806625 89.012764 -0.74424899
54.725376 89.233826 0
54.690174 89.329597 0.75367624
54.808784 88.913879 -0.74163675
54.727318 89.134705 0
54.69735 89.215942 0.75062847
54.80756 88.824783 -0.73931456
54.738525 89.011215 0
54.688541 89.146202 0.74888676
54.819206 88.70163 -0.73597676
54.748199 88.892685 0
54.705235 89.008286 0.74511343
54.822067 88.602867 -0.73336399
54.745422 88.808327 0
54.714989 88.889908 0.74192011
54.826962 88.499298 -0.73060673
54.731876 88.753265 0
54.71225 88.805679 0.73974341
54.828445 88.405502 -0.72813952
54.740421 88.639732 0
54.715187 88.706886 0.73713118
54.83197 88.306885 -0.72552729
54.756577 88.506775 0
54.727524 88.583801 0.73379284
54.839405 88.198586 -0.72262448
54.750927 88.432312 0
54.727264 88.49482 0.73147058
54.830479 88.134056 -0.72102779
54.77132 88.289764 0
54.72905 88.401016 0.72900337
54.842056 88.016144 -0.71783501
54.779068 88.18132 0
54.742157 88.278122 0.72566557
54.84462 87.922554 -0.71536779
54.777756 88.09726 0
54.751831 88.164993 0.72261781
54.852989 87.814445 -0.71246499
54.804634 87.940338 0
54.746864 88.090744 0.72073114
54.859127 87.755577 -0.7108689
54.827553 87.837624 0
54.764038 88.002701 0.71826386
54.875362 87.628159 -0.70738554
54.817513 87.777962 0
54.781845 87.870323 0.71463555
54.874992 87.544434 -0.7052083
54.820763 87.684349 0
54.769905 87.815567 0.71332943
54.869148 87.475281 -0.70346719
54.82988 87.576241 0
54.769398 87.731743 0.7111522
54.874809 87.377083 -0.70085442
54.833572 87.482719 0
54.786076 87.604401 0.70766938
54.892052 87.249924 -0.6973716
54.827988 87.413467 0
54.789783 87.510994 0.70520216
54.886784 87.180862 -0.69562995
54.820656 87.349075 0
54.797512 87.407944 0.70244437
54.89502 87.07798 -0.69287217
54.834469 87.231461 0
54.788303 87.34848 0.70099324
54.880531 87.033157 -0.69185656
54.827484 87.16713 0
54.807922 87.216537 0.69736493
54.883408 86.944839 -0.68953437
54.855225 87.015778 0
54.800987 87.152283 0.69576824
54.894188 86.837265 -0.68663156
54.838993 86.975693 0
54.799961 87.073578 0.69373655
54.905212 86.729744 -0.68372875
54.851841 86.863129 0
54.797184 86.999725 0.69184989
54.906792 86.646416 -0.68155211
54.837791 86.81826 0
54.808128 86.892136 0.68894708
54.902744 86.577568 -0.6798104
54.847191 86.715439 0
54.805725 86.818352 0.68706042
57.893074 79.1035 -0.90793002
54.873524 86.571373 -0.67995542
54.862671 86.598206 0
54.805428 86.739784 0.68502873
57.87677 79.091316 -0.90764201
54.863838 86.516991 -0.67864931
54.852982 86.543747 0
54.824852 86.613083 0.68154544
57.831234 79.15097 -0.91167754
64 64 -0
54.851265 86.470016 0
54.824966 86.534599 0.67951375
57.81097 79.148308 -0.91196668
57.781197 79.221191 -0.45920959
57.788689 79.20285 0
54.827232 86.451332 0.67733651
57.798561 79.126457 -0.91110152
57.800259 79.122314 -0.45645234
57.774269 79.185715 0
54.821789 86.387352 0.67574042
57.786194 79.104599 -0.91023636
57.787922 79.100388 -0.45601681
64 64 0
54.794746 86.376244 0.67574042
57.777813 79.073174 -0.90879518
57.763733 79.107292 -0.45645234
64 64 0
54.791512 86.307465 0.67399871
57.74971 79.089539 -0.91023636
57.749454 79.090149 -0.45616236
57.729218 79.139008 0
64 64 0
64 64 -0
57.721558 79.10585 -0.91167754
57.737213 79.068184 -0.4557268
57.71093 79.131416 0
64 64 0
57.701309 79.103043 -0.91196668
57.701008 79.103767 -0.45703292
57.692654 79.12381 0
64 64 0
57.677082 79.109726 -0.91283071
57.670731 79.124901 -0.45790347
57.684425 79.092171 0
57.634708 79.210983 0.46050957
57.645691 79.107788 -0.91340786
57.63728 79.127785 -0.45833904
57.642963 79.114273 0
57.631329 79.141937 0.45876789
57.586678 79.196693 -0.46066126
57.608517 79.144943 0
57.671631 78.995384 0.454559
57.570343 79.184151 -0.46051624
54.937706 85.401337 0
57.590706 79.136063 0.4590579
57.531681 79.22419 -0.46196738
54.946453 85.308929 0
64 64 0
57.539783 79.154221 -0.46008071
54.943157 85.245323 0
64 64 0
54.942406 85.176125 -0.64323694
54.907261 85.258286 0
54.946583 85.166359 0.64294028
54.931164 85.131752 -0.64222139
54.920586 85.156403 0
54.902569 85.19838 0.6442464
54.922081 85.082596 -0.64106029
54.915611 85.097618 0
54.897511 85.139648 0.64279526
54.917217 85.023911 -0.63960916
54.914894 85.029289 0
54.894646 85.076157 0.64119858
54.914558 84.960464 -0.63801247
54.920536 84.946671 0
54.881584 85.036537 0.64032805
54.899601 84.925644 -0.63728696
54.913921 84.892715 0
54.895554 84.934952 0.63757026
54.92004 84.809853 -0.63409412
54.919899 84.810173 0
54.897282 84.862015 0.6356836
54.919914 84.741737 -0.63235247
54.919811 84.741974 0
54.905418 84.774849 0.63336188
54.911575 84.692688 -0.63119137
54.930336 84.649971 0
54.905399 84.706749 0.63162023
54.913818 84.619873 -0.62930471
54.92218 84.600891 0
54.909729 84.62915 0.62958801
54.912025 84.556587 -0.62770802
54.924652 84.52803 0
54.895313 84.594391 0.62886244
54.918797 84.47435 -0.62553132
54.93573 84.436165 0
54.902035 84.512131 0.62668574
54.913086 84.420609 -0.62422466
54.915272 84.415695 0
54.898392 84.453636 0.62523407
54.928665 84.319466 -0.62146741
54.907585 84.366684 0
54.913929 84.35247 0.62247688
54.923233 84.265808 -0.62016129
54.921284 84.270164 0
54.925453 84.260849 0.6200096
64 64 -0
54.926441 84.193207 -0.61827463
54.92239 84.202225 0
54.915894 84.21669 0.61899352
54.921268 84.139595 -0.61696851
54.91296 84.15802 0
54.919235 84.144112 0.61710685
54.890522 84.142799 -0.61740351
54.905769 84.109085 0
54.931301 84.052628 0.61463958
64 64 -0
64 64 0
54.932053 84.018753 0.61376905
64 64 -0
64 64 0
54.912174 83.998306 0.61347848
54.853424 84.063187 -0.61580741
54.84938 84.07206 0
54.905262 83.949486 0.61231738
54.803249 84.108841 -0.61754906
54.820808 84.07045 0
54.879005 83.943207 0.61246234
54.735626 84.192162 -0.62045133
54.711918 84.243835 0
54.792068 84.069145 0.61667126
54.693848 84.218719 -0.62161243
54.548191 84.535187 0
54.626587 84.364853 0.62610519
54.675964 84.193298 -0.6211769
54.521198 84.528488 0
54.486534 84.603554 0.63379687
54.664673 84.153732 -0.62030631
54.46796 84.578407 0
54.450726 84.615616 0.63452244
54.649086 84.123589 -0.61972576
54.41021 84.637665 0
54.425823 84.604065 0.63452244
54.635757 84.08873 -0.6190002
54.389671 84.616638 0
54.396538 84.601913 0.63481301
54.60709 84.086807 -0.61929017
54.349342 84.638 0
54.387062 84.557327 0.63379687
54.602688 84.033096 -0.61798406
54.324409 84.626328 0
64 64 0
54.582909 84.012337 -0.61769408
64 64 0
54.324135 84.562263 0.63466799
54.560951 83.996246 -0.61754906
54.287922 84.574654 0
54.288204 84.574051 0.63539356
54.527908 84.003601 -0.61812907
54.283112 84.520569 0
54.263351 84.562302 0.63539356
54.528267 83.940514 -0.61653298
54.29406 84.433586 0
54.247433 84.531746 0.63481301
54.506413 83.92437 -0.61638796
54.311909 84.332581 0
54.215923 84.534027 0.63524854
54.498035 83.880058 -0.61537182
54.314281 84.264503 0
54.215775 84.470604 0.63365191
54.478508 83.8592 -0.61508185
54.305557 84.219925 0
54.220249 84.397858 0.63176525
54.470291 83.814888 -0.61406571
54.326252 84.114388 0
54.224892 84.325142 0.62987852
54.47345 83.747192 -0.61232406
54.329086 84.046448 0
54.227436 84.257149 0.62813687
54.476761 83.679535 -0.61058241
54.325279 83.992561 0
54.225597 84.198555 0.62668574
54.462067 83.649307 -0.6100018
54.321587 83.938721 0
54.237511 84.111923 0.62436354
54.477005 83.558342 -0.60753459
54.336235 83.847458 0
54.249619 84.02536 0.62204129
54.473904 83.504799 -0.60622847
54.325958 83.807716 0
54.241394 83.980865 0.6210252
54.468636 83.45594 -0.60506737
54.331802 83.735252 0
54.246979 83.908394 0.61913848
54.488926 83.384865 -0.60303569
54.351974 83.663994 0
54.269283 83.832527 0.61696184
54.48616 83.331398 -0.60172957
54.348911 83.610275 0
54.265976 83.778793 0.61565572
54.474308 83.296593 -0.601004
54.352859 83.542618 0
54.271988 83.706444 0.61376905
54.47176 83.243141 -0.59969735
54.361595 83.46563 0
54.25972 83.671371 0.61304295
54.480873 83.166458 -0.59766567
54.349655 83.430664 0
54.266006 83.599091 0.61115623
54.490158 83.089828 -0.59563398
54.349388 83.372414 0
54.267815 83.536156 0.60956013
64 64 -0
54.474072 83.064377 -0.59519845
54.363213 83.28624 0
54.255829 83.501144 0.60883456
54.460358 83.034264 -0.5946179
54.356243 83.242004 0
54.243923 83.46611 0.60810846
54.439697 83.018089 -0.59447289
54.358707 83.179199 0
54.264751 83.366104 0.60535121
54.409702 83.020447 -0.59490842
54.375378 83.088524 0
54.262413 83.312561 0.60404509
54.337479 83.106232 -0.59795624
54.389904 83.002563 0
54.260193 83.259048 0.60273898
54.086369 83.54409 -0.61203408
54.362244 83.000214 0
54.29335 83.136032 0.59925568
53.88839 83.874832 -0.62277353
54.348732 82.970001 0
54.286736 83.091866 0.59823954
53.840767 83.908875 -0.62422466
54.332909 82.944427 0
54.301468 83.00605 0.59591728
53.745216 83.976738 -0.62712747
53.574089 84.310097 0
54.276924 82.940948 0.59461117
53.709194 83.987427 -0.62785304
53.47332 84.445557 0
53.402435 84.583229 0.6465686
53.630203 84.081184 -0.63119137
53.386536 84.553055 0
53.365654 84.593491 0.64729416
53.548595 84.179375 -0.63467413
53.373676 84.517113 0
53.333603 84.594482 0.64772975
53.437977 84.332764 -0.63989919
53.322495 84.555069 0
64 64 0
53.355789 84.430595 -0.64338249
53.302483 84.532913 0
53.293472 84.550201 0.64714915
53.321484 84.436142 -0.6439631
53.263214 84.547661 0
53.259022 84.555679 0.64772975
53.255791 84.501472 -0.64643031
53.235977 84.539276 0
53.231781 84.547287 0.64787471
53.262726 84.458168 -0.64526922
53.216312 84.5466 0
53.219368 84.540771 0.64787471
53.218651 84.481964 -0.64643031
53.196346 84.524338 0
53.184875 84.546127 0.64845526
53.184204 84.487305 -0.64701086
53.164265 84.525078 0
53.157635 84.537636 0.64860028
53.142441 84.506363 -0.64802641
53.117554 84.553368 0
53.130386 84.529129 0.64874583
53.117672 84.493225 -0.64802641
64 64 0
53.100719 84.525146 0.64903587
53.105129 84.45713 -0.64730084
53.077702 84.508629 0
53.066154 84.530312 0.64961642
53.058384 84.485207 -0.64860696
53.043121 84.513779 0
53.034008 84.530838 0.65005195
53.041004 84.458221 -0.64817142
53.008511 84.518883 0
53.011673 84.512985 0.6499064
52.994152 84.486176 -0.64947808
52.981262 84.510162 0
52.962296 84.545479 0.65135807
54.477921 81.67305 -0.5606572
52.949081 84.51059 0
52.937477 84.532127 0.65135807
54.434341 81.702675 -0.56196332
52.906982 84.529282 0
52.915142 84.514175 0.65121305
64 64 -0
52.882187 84.515862 0
52.86808 84.541885 0.65251917
64 64 -0
52.847473 84.520691 0
52.830864 84.551247 0.65324473
54.352821 81.699829 -0.5629794
54.337112 81.728653 0
52.81102 84.528603 0.65295422
54.348892 81.656235 -0.56196332
54.315697 81.716965 0
52.786221 84.515068 0.65295422
52.73135 84.556396 -0.65470254
54.321823 81.655037 0
52.753944 84.515175 0.65338975
52.734062 84.492668 -0.65310585
52.71833 84.521278 0
52.716648 84.524338 0.65411532
52.706791 84.483604 -0.65325147
52.688515 84.516754 0
52.679306 84.533463 0.65484142
52.664455 84.50177 -0.65426701
52.66877 84.493958 0
52.64193 84.542503 0.65556699
52.627083 84.510788 -0.65499312
52.633923 84.498459 0
52.609566 84.542389 0.65600199
52.612411 84.478867 -0.65441257
52.614216 84.475616 0
52.572117 84.551331 0.65672809
52.567425 84.501404 -0.65557367
52.564137 84.507301 0
52.542236 84.54657 0.65701813
52.527447 84.514778 -0.65644425
52.531742 84.507095 0
52.517418 84.532715 0.65701813
52.527748 84.485184 -0.65571868
52.519356 84.500168 0
52.492321 84.548439 0.65774363
52.490284 84.493958 -0.65644425
52.486946 84.499901 0
52.462406 84.543594 0.65803421
52.462982 84.484558 -0.65658921
52.449413 84.508644 0
52.437592 84.529633 0.65803421
52.420345 84.502281 -0.65760535
52.432323 84.481071 0
52.402569 84.533752 0.65861475
52.380219 84.515396 -0.65847588
52.402451 84.476151 0
52.380337 84.51519 0.6584692
52.345169 84.519417 -0.65905648
52.364864 84.484741 0
52.340149 84.528252 0.65934032
52.325523 84.496292 -0.65876645
52.327244 84.493279 0
52.299927 84.541237 0.66021091
52.300766 84.482178 -0.65876645
52.294743 84.492722 0
52.26738 84.540627 0.66064644
52.270866 84.477036 -0.65905648
52.26482 84.487587 0
52.237408 84.535446 0.66093642
52.235779 84.480873 -0.65963703
52.234886 84.48243 0
52.210007 84.525734 0.66108203
52.198074 84.489151 -0.6603626
52.202358 84.48172 0
52.180031 84.520477 0.66137201
52.16032 84.497391 -0.66108871
52.172405 84.476471 0
52.144848 84.524178 0.66195256
52.135563 84.48307 -0.66108871
52.139854 84.475662 0
52.120056 84.509842 0.66195256
52.100391 84.486679 -0.66166872
52.120346 84.452324 0
52.087452 84.508957 0.66238815
52.070408 84.481277 -0.66195923
52.08778 84.451454 0
52.044376 84.52597 0.66340369
52.037804 84.480316 -0.66239482
52.049953 84.459511 0
52.014336 84.520493 0.66369426
52.00256 84.48378 -0.66297537
52.00946 84.472 0
51.98167 84.519447 0.66412979
51.996243 84.437897 -0.66195923
51.961014 84.497879 0
51.954254 84.509392 0.66427481
58.753586 72.908012 -0.86175919
51.934639 84.486061 -0.66399091
51.912476 84.523697 0
51.911018 84.526169 0.66529089
58.750664 72.888397 -0.86047488
51.915176 84.462524 -0.66370094
51.892982 84.500107 0
51.878304 84.524963 0.66572589
58.750389 72.86438 -0.85876298
51.893105 84.443443 -0.66355592
51.85231 84.512321 0
51.850868 84.514763 0.6658709
58.734436 72.866867 -0.85961974
54.229946 80.452133 -0.53438818
51.835503 84.484222 0
51.828739 84.495605 0.66572589
58.7211 72.864906 -0.86004734
54.231346 80.404594 -0.53322709
51.821411 84.451614 0
51.817276 84.458565 0.66500038
58.715652 72.849709 -0.85919219
54.20887 80.397232 -0.5333721
51.812725 84.410065 0
51.792564 84.443825 0.66500038
58.728706 72.803665 -0.85533929
58.695316 72.859436 -0.28838947
51.796085 84.381943 0
58.62603 72.975143 0.29215613
58.710182 72.82251 -0.85748035
58.647205 72.927544 -0.29071173
58.603348 73.000687 0
58.663357 72.900604 0.28983447
58.720688 72.780907 -0.8540566
58.729313 72.766563 -0.57006902
58.649807 72.898804 -0.28998616
58.656845 72.8871 0
58.676704 72.854065 0.28852835
58.71273 72.770126 -0.85362905
58.700027 72.791206 -0.57208735
58.665897 72.847816 -0.28853449
58.672977 72.836067 0
58.674061 72.834274 0.28809279
58.715427 72.741753 -0.85148799
58.71349 72.744957 -0.569493
58.674023 72.810242 -0.28751892
58.683846 72.793991 0
58.644577 72.858948 0.28910837
58.723488 72.704636 -0.84849346
58.705616 72.734123 -0.56920385
58.652603 72.821579 -0.2880995
58.692116 72.756401 0
58.666195 72.799156 0.28736722
58.710312 72.702637 -0.848921
58.721931 72.683525 -0.56632149
58.668945 72.770691 -0.28664783
58.700455 72.718857 0
58.642075 72.814911 0.28809279
58.710487 72.678711 -0.8472091
58.700672 72.694809 -0.56747466
58.655651 72.768677 -0.28679281
58.689922 72.712448 0
58.655766 72.768494 0.28678668
58.713673 72.626503 -0.8433578
58.679676 72.681976 -0.56747466
58.658913 72.715866 -0.2854867
58.685207 72.672951 0
58.645454 72.737823 0.28620613
58.714005 72.602615 -0.84164596
58.693562 72.63588 -0.56488031
58.672867 72.669556 -0.28418058
58.710152 72.608879 0
58.681149 72.656082 0.28373888
58.703613 72.596222 -0.84164596
58.688564 72.620644 -0.56430316
58.670567 72.649857 -0.28374559
58.691563 72.615776 0
58.670692 72.649651 0.28373888
64 64 -0
58.706718 72.567978 -0.83950651
58.705334 72.570221 -0.5614208
58.671043 72.625725 -0.28316504
58.683887 72.604935 0
58.652058 72.656456 0.28417388
58.717999 72.526657 -0.83608282
58.711334 72.537422 -0.55969054
58.690735 72.570679 -0.28156835
58.687199 72.576385 0
58.690861 72.570473 0.28156164
64 64 -0
58.715832 72.507187 -0.83479846
58.706474 72.522247 -0.55911446
58.683121 72.559845 -0.28142336
58.679592 72.565521 0
58.672279 72.577301 0.2819972
58.735405 72.452866 -0.83009207
58.71806 72.480713 -0.55680811
58.697506 72.513718 -0.28011724
58.696758 72.514915 0
58.683899 72.535568 0.28083611
58.741516 72.420364 -0.82752347
58.721512 72.452393 -0.55536693
58.687222 72.507301 -0.28011724
58.694748 72.495255 0
58.670837 72.533539 0.28098109
58.73407 72.409653 -0.82709587
58.711304 72.446014 -0.55536693
64 64 -0
58.698296 72.466782 0
64 64 0
58.718456 72.411972 -0.82795101
58.70385 72.435234 -0.55507892
64 64 -0
64 64 0
64 64 0
58.708294 72.405586 -0.82795101
64 64 -0
64 64 -0
64 64 0
64 64 0
64 64 -0
64 64 -0
64 64 -0
64 64 0
64 64 0
60.907948 68.88533 -0.79756719
64 64 -0
64 64 -0
64 64 -0
58.624031 72.493835 0
64 64 0
60.845898 68.97007 -0.97046793
60.880539 68.915482 -0.80310446
64 64 -0
58.657604 72.418266 -0.55565494
58.647964 72.433456 -0.27895612
58.613773 72.487335 0
58.567341 72.560501 0.28315833
60.872051 68.922279 -0.96150565
60.888336 68.89666 -0.80033582
64 64 -0
58.641422 72.432503 -0.55680811
58.640083 72.434608 -0.2791011
58.589104 72.514839 0
58.570534 72.544052 0.28272277
60.890011 68.880981 -0.95417178
60.847374 68.947899 -0.80933326
64 64 -0
58.63958 72.412933 -0.55594295
58.613148 72.454414 -0.27997169
58.581623 72.503891 0
58.554623 72.546265 0.28301334
60.924038 68.814735 -0.94194651
60.857597 68.918724 -0.80518162
58.622143 72.417831 -0.83265907
58.618279 72.423882 -0.55709612
58.608524 72.439148 -0.27968168
58.568542 72.50174 0
58.549904 72.530914 0.28272277
60.880898 68.869278 -0.95335442
60.846252 68.92337 -0.80656463
58.595367 72.437256 -0.83522606
58.602516 72.426094 -0.55767328
58.58152 72.458878 -0.28055224
58.552662 72.503922 0
58.533985 72.533081 0.28301334
60.901726 68.823921 -0.94520634
60.7915 68.995537 -0.81902218
58.604588 72.400497 -0.83223152
58.581158 72.436981 -0.55882645
58.568485 72.456711 -0.28069779
58.550831 72.484192 0
58.50964 72.548325 0.28373888
60.890553 68.828476 -0.94683468
60.614326 69.257408 -0.86262637
58.586113 72.406906 -0.83351415
58.551369 72.460854 -0.56084365
58.55827 72.450134 -0.28069779
58.526485 72.499496 0
58.507759 72.528572 0.28330332
60.847176 68.882866 -0.95824581
60.572598 69.308105 -0.87162381
58.58152 72.391739 -0.83265907
58.549561 72.441238 -0.55997962
58.54525 72.447922 -0.28084278
58.513397 72.497246 0
58.49464 72.526291 0.28344834
60.868145 68.837547 -0.95009458
60.547096 69.33345 -0.87646961
58.563011 72.398117 -0.83394337
58.542183 72.430298 -0.55969054
58.532223 72.445679 -0.2809878
58.503136 72.490608 0
58.473045 72.537086 0.28402889
60.824615 68.891815 -0.96150565
60.540657 69.329269 -0.87646961
58.538895 72.413071 -0.83608282
58.543259 72.406357 -0.55853844
58.496559 72.478294 -0.28229392
58.478714 72.505783 0
58.459908 72.53476 0.28417388
60.85376 68.834122 -0.95091188
60.526005 69.337708 -0.87854677
58.531532 72.402168 -0.83565521
58.535934 72.395409 -0.55824929
58.472145 72.493408 -0.28301945
58.462769 72.507828 0
58.438259 72.545479 0.28475446
60.815514 68.879974 -0.96068835
60.525047 69.325096 -0.87716115
58.518578 72.399849 -0.83608282
58.528618 72.384468 -0.55796129
58.476086 72.464966 -0.28229392
58.458176 72.492416 0
58.42794 72.53875 0.28475446
60.801498 68.888542 -0.96313399
60.518616 69.320892 -0.87716115
58.497189 72.410408 -0.83779466
58.509991 72.390839 -0.55882645
58.437405 72.501785 -0.28374559
58.439365 72.498787 0
58.417625 72.532013 0.28475446
60.871502 68.768959 -0.94031811
60.514938 69.312492 -0.87646961
58.498295 72.386581 -0.83608282
58.499855 72.384201 -0.55882645
58.412884 72.516777 -0.28447112
58.420544 72.505104 0
58.401611 72.533958 0.285045
60.835869 68.810593 -0.94928038
60.511276 69.304092 -0.87577814
58.490986 72.375641 -0.83565521
58.478359 72.394836 -0.55997962
58.416874 72.488319 -0.28374559
58.427425 72.472275 0
58.388451 72.531525 0.28519002
60.802841 68.848038 -0.95743161
60.50211 69.304054 -0.87646961
58.472397 72.381821 -0.8369379
58.462528 72.39679 -0.56055564
58.403763 72.485901 -0.28389058
58.400005 72.491592 0
58.378147 72.524742 0.28519002
60.818798 68.811188 -0.95091188
60.470798 69.337486 -0.88269842
58.44812 72.396545 -0.83907735
58.452385 72.390091 -0.56055564
58.37632 72.505135 -0.28476113
58.392616 72.480484 0
58.362114 72.526619 0.28548056
60.769295 68.873245 -0.96394819
60.486534 69.299767 -0.87716115
58.44648 72.377007 -0.83779466
58.433678 72.396324 -0.5614208
58.366051 72.498329 -0.28476113
58.373745 72.486725 0
58.348946 72.524132 0.28562558
60.733307 68.914627 -0.97291362
60.494015 69.274628 -0.87370098
58.427841 72.38311 -0.83907735
58.417812 72.398193 -0.56199682
58.352909 72.495842 -0.28490615
58.360615 72.484253 0
58.33865 72.517296 0.28562558
60.784935 68.824295 -0.95580012
58.42625 72.363564 -0.83779466
58.407669 72.391449 -0.56199682
58.348408 72.48037 -0.28461614
58.335938 72.499084 0
58.319725 72.523407 0.28606057
60.795582 68.795753 -0.95091188
58.404739 72.373901 -0.83950651
58.403275 72.376091 -0.5614208
58.326614 72.490822 -0.28519669
58.331451 72.483582 0
58.30365 72.525192 0.28635111
60.806301 68.767227 -0.94602054
60.405106 69.366089 -0.89100438
58.394627 72.367134 -0.83950651
58.387405 72.377907 -0.56199682
58.34528 72.440788 -0.28374559
58.321205 72.47673 0
58.281784 72.535568 0.28693166
60.811569 68.746956 -0.94276065
60.387436 69.378403 -0.89377302
60.250343 69.582504 -0.74488312
58.38166 72.364609 -0.83993411
58.368633 72.384003 -0.56286198
58.343781 72.421005 -0.28331003
58.290657 72.500092 0
58.268578 72.532967 0.28707668
60.789387 68.773743 -0.94846618
60.426189 69.313766 -0.88338989
60.275326 69.538078 -0.73925537
58.373745 72.365471 -0.84036165
58.357788 72.389198 -0.56343913
60.783512 68.782478 -0.16096345
58.285522 72.496643 0
58.269218 72.520882 0.28678668
60.783623 68.769859 -0.94846618
60.32262 69.453514 -0.72855997
58.355026 72.371437 -0.84164596
58.344765 72.386658 -0.56372714
60.78064 68.774284 -0.16081844
58.269436 72.498367 0
58.25893 72.513954 0.28678668
60.791702 68.745499 -0.94439214
60.364418 69.377502 -0.71899152
58.34779 72.360367 -0.84121841
58.32885 72.388382 -0.56430316
60.763229 68.787613 -0.16139899
58.262085 72.487137 0
58.242828 72.51561 0.28707668
60.747143 68.798897 -0.95580012
60.434898 69.259544 -0.70379525
58.314644 72.387527 -0.84464216
58.307106 72.398651 -0.56545633
60.763271 68.775101 -0.161109
58.248917 72.484497 0
58.226707 72.517258 0.28736722
60.744125 68.790878 -0.95498592
60.431412 69.251015 -0.70323074
58.324718 72.350922 -0.84164596
58.302773 72.383217 -0.56488031
60.76627 68.758286 -0.16067344
58.238667 72.477539 0
58.207664 72.523163 0.28780225
60.704937 68.83596 -0.96476549
60.450821 69.208908 -0.6981653
58.305958 72.356789 -0.84293026
58.280994 72.393425 -0.56603348
60.754677 68.762955 -0.16096345
58.21085 72.496376 0
58.197372 72.516159 0.28780225
60.713043 68.811554 -0.96068835
60.478321 69.155151 -0.86124337
60.424461 69.233994 -0.70210606
58.290077 72.358376 -0.84378541
58.270859 72.386505 -0.56603348
60.772366 68.724716 -0.15980288
58.218197 72.463593 0
58.178288 72.522018 0.28823778
60.642986 68.901382 -0.9794333
60.486267 69.130203 -0.85778326
60.426758 69.217087 -0.70041686
58.25967 72.381126 -0.84678155
58.254887 72.388107 -0.5666095
60.763725 68.725098 -0.15994789
58.193272 72.478073 0
58.165062 72.519257 0.2883828
60.651054 68.876953 -0.97535926
60.511318 69.080444 -0.85016882
60.43771 69.187637 -0.69704062
58.264076 72.353027 -0.84464216
58.247681 72.3769 -0.56632149
60.769783 68.704048 -0.15936732
58.177132 72.479637 0
58.145943 72.525063 0.28881836
60.642365 68.876968 -0.97617346
60.56493 68.989441 -0.83563405
60.419918 69.200073 -0.69929212
58.25108 72.350311 -0.84506971
58.22876 72.382729 -0.56718665
60.761158 68.704422 -0.15951233
58.163944 72.476883 0
58.138592 72.513702 0.28867334
60.630863 68.881042 -0.9778018
60.595955 68.93161 -0.82663661
60.428066 69.174835 -0.69647825
58.229328 72.36026 -0.84678155
58.215702 72.380005 -0.56747466
60.746616 68.713341 -0.15994789
58.144833 72.482674 0
58.12241 72.51516 0.28896335
60.664341 68.820068 -0.96639389
60.621407 68.882103 -0.81902218
60.36977 69.245728 -0.70660913
58.204624 72.37439 -0.848921
58.202641 72.377258 -0.56776267
60.71431 68.747864 -0.161254
58.140514 72.467026 0
58.106205 72.516609 0.28925392
60.695152 68.763237 -0.95580012
60.61837 68.873901 -0.81833071
60.308403 69.320656 -0.71730232
58.203293 72.354721 -0.8476367
58.17778 72.391495 -0.56920385
60.70266 68.752419 -0.161544
58.121384 72.472771 0
58.095917 72.509476 0.28925392
60.748672 68.674026 -0.93868661
60.623943 68.853333 -0.81556207
58.181473 72.364571 -0.84934855
58.161732 72.392952 -0.56978101
60.699883 68.744171 -0.16139899
58.102242 72.47847 0
58.079712 72.510864 0.2895439
60.774124 68.625504 -0.92972434
60.632431 68.828682 -0.8121019
58.171371 72.357536 -0.84934855
58.154549 72.381653 -0.569493
60.68523 68.752968 -0.16183455
58.089016 72.475616 0
58.06348 72.512238 0.28983447
60.788368 68.593246 -0.9240188
60.609352 68.849274 -0.81625354
64 64 -0
58.14362 72.37574 -0.85191715
58.13258 72.391525 -0.57064509
60.688427 68.736176 -0.16139899
58.066849 72.485535 0
58.047249 72.513565 0.29012448
60.816872 68.540787 -0.91423923
60.568932 68.89447 -0.82455951
64 64 -0
58.127617 72.37706 -0.8527723
58.12838 72.375969 -0.57006902
60.649891 68.778992 -0.16299567
58.050632 72.486877 0
58.030994 72.514893 0.29041502
60.808548 68.540977 -0.91505343
60.499554 68.980629 -0.8397857
64 64 -0
58.126358 72.357346 -0.85148799
58.106365 72.385796 -0.57122219
58.026554 72.499352 -0.29013115
58.034389 72.488205 0
58.017723 72.511917 0.29056004
60.840073 68.484589 -0.90445966
60.502201 68.964104 -0.83771122
64 64 -0
58.107388 72.362839 -0.8527723
58.096237 72.37867 -0.57122219
58.031254 72.470894 -0.28940561
58.024139 72.480988 0
58.013435 72.496178 0.29026946
60.83466 68.480766 -0.90445966
60.484627 68.976265 -0.84047985
64 64 -0
58.112099 72.334747 -0.85063285
58.092091 72.363068 -0.57064509
58.018024 72.467918 -0.2895506
57.998882 72.495018 0
57.988174 72.510178 0.2909956
60.872093 68.416443 -0.89223748
60.469925 68.984283 -0.84255439
58.045658 72.407227 -0.85876298
58.052086 72.398148 -0.57352853
58.013802 72.452209 -0.2892606
57.991627 72.483513 0
57.977894 72.502907 0.2909956
60.832428 68.461014 -0.90201396
60.446468 69.00457 -0.84670866
60.475739 68.963348 -0.50742036
58.035961 72.399384 -0.57410455
58.003593 72.444969 -0.2892606
57.975357 72.484726 0
57.967625 72.495621 0.2909956
60.821301 68.46524 -0.90364546
60.460796 68.971657 -0.84186286
60.398285 69.059471 -0.51769161
58.037815 72.375313 -0.57295138
57.963257 72.480042 -0.29071173
57.962097 72.481682 0
57.942299 72.509491 0.29172114
60.818604 68.463318 -0.90364546
60.451962 68.977699 -0.84324855
60.39225 69.06147 -0.51811916
58.017735 72.392784 -0.57439369
57.964176 72.467926 -0.29042116
57.956974 72.478027 0
57.928116 72.518509 0.29215613
60.862068 68.391106 -0.88979185
60.45179 68.965233 -0.84186286
60.445839 68.973564 -0.50955981
58.001587 72.393959 -0.57496971
57.953949 72.460625 -0.29042116
57.931602 72.49189 0
57.917828 72.511169 0.29215613
60.876919 68.359177 -0.88408631
60.47794 68.916077 -0.83424842
60.457767 68.944237 -0.50699282
57.994461 72.382507 -0.5746817
57.946754 72.449097 -0.29027617
57.918308 72.4888 0
57.898468 72.516495 0.29259169
60.891834 68.327309 -0.87838387
60.539318 68.818092 -0.81833071
60.43383 68.964958 -0.50955981
57.993393 72.362633 -0.57381654
57.939575 72.437553 -0.29013115
57.898956 72.49411 0
57.891209 72.504898 0.2924467
60.881386 68.319786 -0.87838387
60.64222 68.65107 -0.79133838
60.391785 68.997963 -0.51384032
57.948978 72.381645 -0.57612288
57.916164 72.427094 -0.29027617
57.872345 72.487793 0
57.849377 72.519608 0.29346281
60.916748 68.259949 -0.8669728
60.663074 68.610435 -0.78510958
60.56654 68.743813 -0.64863575
60.337582 69.060143 -0.52068776
57.947956 72.361755 -0.57525772
57.915131 72.407104 -0.28984061
57.859047 72.484596 0
57.836044 72.516373 0.2936078
60.958042 68.192215 -0.85393649
60.663406 68.598267 -0.78372395
60.56081 68.739655 -0.64863575
60.361629 69.014153 -0.51640725
57.931774 72.362816 -0.57583487
57.901917 72.403961 -0.28998616
57.842678 72.485603 0
57.828808 72.504723 0.29346281
60.973339 68.160553 -0.84823096
60.669659 68.578003 -0.78095531
60.573029 68.710831 -0.64525735
60.298187 69.088646 -0.52453905
57.918633 72.359657 -0.57612288
57.873428 72.421799 -0.29085672
57.838562 72.469727 0
57.818535 72.497253 0.29346281
60.912979 68.232765 -0.86371297
60.667084 68.569923 -0.78026378
60.579315 68.690262 -0.64300585
60.267838 69.117348 -0.5279628
57.896347 72.369019 -0.57727605
57.851009 72.431183 -0.29143727
57.825268 72.466476 0
57.805214 72.493973 0.2936078
60.980804 68.12928 -0.84333962
60.655636 68.574005 -0.78164947
60.561653 68.702538 -0.64525735
60.264694 69.108681 -0.52753359
57.870975 72.382515 -0.57871723
57.825493 72.444717 -0.29216284
57.802753 72.475815 0
57.779621 72.507454 0.29433337
60.940746 68.17347 -0.85311919
60.694611 68.509254 -0.77126634
60.543957 68.714775 -0.64750892
60.225136 69.149719 -0.53224164
57.848618 72.391792 -0.5798704
57.82143 72.428879 -0.29187283
57.792515 72.468323 0
57.775497 72.491547 0.29404283
60.903503 68.213593 -0.86208457
60.674309 68.525467 -0.77472651
60.56234 68.677834 -0.64300585
60.234112 69.124474 -0.53010225
57.832348 72.3927 -0.58044755
57.795868 72.442337 -0.2925984
57.779209 72.465012 0
57.749844 72.504967 0.29476893
60.910145 68.193924 -0.85882473
60.671818 68.51741 -0.77403498
60.5597 68.669594 -0.64244348
60.237064 69.107513 -0.52881789
60.390278 68.899551 -0.33915928
64 64 -0
57.756638 72.474243 0
57.7519 72.480675 0.29418838
60.899212 68.198135 -0.86045307
60.702133 68.464951 -0.76572907
60.563122 68.65316 -0.64075428
60.246143 69.082314 -0.5266785
60.402809 68.870209 -0.33742896
64 64 -0
57.749489 72.462517 0
57.729309 72.489838 0.29476893
60.926491 68.150696 -0.8514908
60.678833 68.485153 -0.76988071
60.566574 68.636749 -0.63906509
60.258343 69.053009 -0.52410984
60.396927 68.86586 -0.33742896
57.722015 72.478256 -0.29463005
57.729973 72.467506 0
57.709785 72.494774 0.29520392
60.956833 68.09935 -0.84171122
60.685368 68.465034 -0.7671147
60.567028 68.624443 -0.63794041
60.285892 69.003151 -0.51940346
60.403381 68.844887 -0.33627579
57.699383 72.487358 -0.29521063
57.722847 72.45575 0
57.696419 72.491348 0.29534948
60.93713 68.115494 -0.84578526
60.727905 68.396622 -0.7560401
60.570549 68.608063 -0.63625121
60.298248 68.973938 -0.51683486
60.382092 68.861282 -0.33771697
57.732567 72.421379 -0.29317895
57.700203 72.464859 0
57.683064 72.487892 0.2954945
60.97649 68.052376 -0.83356315
60.680592 68.448959 -0.76572907
60.571053 68.595772 -0.63512653
60.313725 68.940674 -0.51384032
60.34219 68.902519 -0.34088847
57.716183 72.422119 -0.29346895
57.680653 72.469749 0
57.660381 72.496918 0.29607505
60.936077 68.096199 -0.84333962
60.756355 68.336479 -0.74704272
60.55637 68.603844 -0.63681573
60.295456 68.95266 -0.51555216
60.277405 68.976791 -0.34636518
57.696671 72.427017 -0.29390451
57.664181 72.470451 0
57.643902 72.497566 0.29636505
60.937057 68.084595 -0.84171122
60.784233 68.288391 -0.73942822
60.569107 68.575272 -0.63343734
60.317192 68.911217 -0.51170087
60.258984 68.988846 -0.34751835
57.68338 72.423546 -0.2940495
57.65395 72.462784 0
57.627396 72.498199 0.2966556
60.964802 68.037422 -0.83274585
64 64 -0
60.578846 68.550819 -0.63062346
60.329777 68.882133 -0.50913227
60.221867 69.025673 -0.35040185
57.660713 72.432526 -0.29463005
57.64373 72.455116 0
57.623383 72.482178 0.29636505
60.899937 68.118523 -0.8498593
64 64 -0
60.545544 68.589348 -0.63625121
60.345348 68.855309 -0.50656527
60.22506 69.015121 -0.3498247
57.661865 72.420395 -0.29434007
57.626102 72.467903 0
57.605759 72.494934 0.2969456
60.996193 67.980621 -0.82215208
64 64 -0
60.506325 68.629791 -0.64244348
60.333305 68.859077 -0.50742036
60.222115 69.006424 -0.34953669
57.648567 72.41687 -0.29448506
57.609612 72.468498 0
57.592373 72.491348 0.29709059
60.994366 67.973053 -0.82133788
64 64 -0
60.543652 68.56884 -0.63456416
60.364609 68.805511 -0.50228477
60.219185 68.997734 -0.34924868
57.625862 72.425774 -0.29506561
57.586823 72.477379 0
57.572708 72.496033 0.29752615
60.926842 68.052124 -0.83845139
64 64 -0
60.541214 68.5606 -0.63399971
60.352592 68.809303 -0.50314152
60.210026 68.997284 -0.34953669
57.609409 72.426338 -0.29535562
57.582867 72.461334 0
57.55616 72.496552 0.29781672
60.987762 67.961845 -0.82052368
64 64 -0
60.544922 68.544289 -0.63231266
60.353004 68.796707 -0.50228477
60.178944 69.025642 -0.35184303
57.608658 72.406212 -0.29492062
57.5695 72.457718 0
57.542755 72.492889 0.29796171
60.947018 68.005379 -0.83030325
64 64 -0
60.542522 68.536057 -0.63174814
60.334763 68.808632 -0.50399661
60.185417 69.004562 -0.35068986
57.58276 72.419144 -0.29564619
57.559288 72.449936 0
57.532497 72.485085 0.29796171
60.936184 68.009537 -0.83193165
64 64 -0
60.52161 68.552078 -0.63456416
60.341423 68.78788 -0.50228477
60.179375 68.999954 -0.35068986
57.569439 72.415512 -0.29579118
57.545921 72.446281 0
57.519096 72.481384 0.29810673
60.949371 67.982292 -0.82704341
60.734249 68.263115 -0.74081391
60.513023 68.551903 -0.63512653
60.33876 68.779388 -0.50185722
60.179619 68.987129 -0.35011384
57.552948 72.415993 -0.29608175
57.519897 72.459129 0
57.502529 72.481812 0.29839727
60.956604 67.962921 -0.82378358
64 64 -0
60.498238 68.559784 -0.63681573
60.311096 68.803467 -0.50485337
60.167301 68.990707 -0.35068986
57.536457 72.416428 -0.29637173
57.506504 72.455437 0
57.492283 72.473953 0.29839727
60.933731 67.982735 -0.82867181
60.659683 68.338699 -0.75534862
60.502033 68.543465 -0.63512653
60.327221 68.770523 -0.50185722
57.548481 72.379799 -0.58938378
57.529461 72.404503 -0.29622674
57.493118 72.451706 0
57.482048 72.46608 0.29839727
60.998379 67.889038 -0.80992991
60.734154 68.231377 -0.73735112
60.499649 68.535217 -0.63456416
60.305779 68.7864 -0.50399661
57.532043 72.380173 -0.5899598
57.522484 72.392563 -0.29608175
57.492455 72.431473 0
51.359726 80.377319 0.57777613
60.966461 67.920586 -0.81726384
60.6922 68.275047 -0.74565703
60.475517 68.555092 -0.63794041
60.32198 68.753525 -0.50100207
57.534584 72.355988 -0.58880663
57.502815 72.397049 -0.29651675
57.495014 72.407135 0
51.365387 80.329147 0.57661504
60.982937 67.889572 -0.81155831
64 64 -0
60.498047 68.514694 -0.63287497
60.313095 68.753128 -0.50142968
57.51181 72.364525 -0.5899598
51.565285 80.030739 -0.56660777
51.45573 80.171974 0
51.367966 80.285126 0.5755989
60.929688 67.948364 -0.82459772
60.743481 68.18782 -0.73181379
60.483231 68.522499 -0.63456416
60.29475 68.764885 -0.50314152
54.751881 75.892899 -0.83960831
51.549122 80.011589 -0.56646222
51.474541 80.107498 0
51.370621 80.241142 0.57458335
60.967461 67.890076 -0.8131898
64 64 -0
60.449654 68.554314 -0.6396296
60.270061 68.784691 -0.50570852
54.766136 75.845001 -0.83701396
51.536167 79.988342 -0.56617224
51.464676 80.080048 0
51.376564 80.193077 0.57342219
60.95668 67.894196 -0.81481814
64 64 -0
60.494221 68.485954 -0.63062346
60.229504 68.824677 -0.51041657
54.742271 75.846069 -0.83787912
51.523262 79.965073 -0.56588167
51.467697 80.036179 0
51.382607 80.145058 0.5722611
60.909306 67.944984 -0.82622612
64 64 -0
60.43866 68.545715 -0.6396296
60.204685 68.84436 -0.51298356
54.753487 75.802299 -0.83557278
53.83712 76.971962 -0.4602257
51.454742 80.01284 0
51.385548 80.101158 0.57124501
60.950329 67.882942 -0.81400394
64 64 -0
60.426895 68.549393 -0.64075428
60.18298 68.859955 -0.51512295
54.745632 75.782974 -0.83499563
53.815025 76.96785 -0.46051624
51.477207 79.944443 0
51.385353 80.061386 0.57037443
60.97316 67.844307 -0.80667007
64 64 -0
60.443398 68.517136 -0.63681573
60.183456 68.847282 -0.51426786
54.74099 75.759605 -0.8341316
53.841156 76.902458 -0.45862958
