# .PCD v0.7 - Point Cloud Data file format
VERSION 0.7
FIELDS x y z
SIZE 4 4 4
TYPE F F F
COUNT 1 1 1
WIDTH 1598
HEIGHT 1
VIEWPOINT 0 0 0 1 0 0 0
POINTS 1598
DATA ascii
58.605415 86.47007 0.64537793
62.324745 70.940979 -0.98499209
61.916943 72.630608 -0.98341864
61.342239 75.011742 -0.94426435
60.226501 79.634506 -0.8963396
59.912056 80.937332 -0.48661014
57.80378 89.672409 0
58.575832 86.473625 0.64566791
62.31636 70.93895 -0.98499209
61.914902 72.593513 -0.97947794
61.325302 75.023499 -0.94554871
60.210049 79.619888 -0.89576358
59.885468 80.957634 -0.48733568
57.7789 89.639618 0
58.547451 86.472122 0.64581352
62.303219 70.956413 -0.98776072
61.911743 72.561371 -0.9761017
61.309547 75.030243 -0.94640547
60.188728 79.625343 -0.8963396
59.860054 80.972839 -0.48791626
57.762726 89.571404 0
58.512917 86.495804 0.64668405
62.292427 70.964096 -0.98914373
61.903824 72.548965 -0.97497487
61.291336 75.046906 -0.94811565
60.178471 79.585571 -0.8943224
59.825932 81.023354 -0.48951292
57.742989 89.518356 0
58.482025 86.504303 0.64711964
62.550125 69.88237 -0.9988234
62.285213 70.957153 -0.9884522
61.889847 72.561234 -0.97666407
61.296417 74.968864 -0.94169742
60.158405 79.58596 -0.8946104
59.735725 81.30085 -0.49764016
57.715897 89.495613 0
58.452351 86.507698 0.64740962
62.548962 69.856621 -0.99474937
62.279224 70.945328 -0.98706657
61.867283 72.607994 -0.98229182
61.275761 74.995483 -0.94426435
60.139576 79.581306 -0.8946104
59.661083 81.512573 -0.50388074
57.691353 89.462746 0
58.420158 86.521156 0.64799017
62.273258 70.933517 -0.98568356
61.858112 72.600487 -0.98172945
61.259991 75.002159 -0.94512111
60.127003 79.551537 -0.89316922
59.631134 81.542625 -0.50489688
57.670654 89.414696 0
58.395462 86.504318 0.64770019
62.262447 70.941154 -0.98706657
61.851425 72.583099 -0.98004025
61.251686 74.97892 -0.94340926
60.100677 79.576942 -0.89489841
59.630135 81.456673 -0.50257462
57.653854 89.351486 0
58.364491 86.512642 0.64813519
62.520508 69.880081 -0.9996376
62.260181 70.914719 -0.9836064
61.839813 72.585434 -0.98060477
61.237171 74.98056 -0.94383681
60.08691 79.552155 -0.89374524
59.625526 81.385864 -0.50068796
57.628304 89.323608 0
58.334755 86.515907 0.64842576
62.256004 70.913673 -0.9836064
61.834625 72.584129 -0.98060477
61.228024 74.988861 -0.94469357
60.082573 79.529724 -0.89259207
59.63409 81.307632 -0.49851075
57.620644 89.289482 0
58.309711 86.557823 0.64973187
62.266144 70.838615 -0.97322601
61.828003 72.566727 -0.97891557
61.204659 75.025291 -0.94811565
60.066353 79.514961 -0.89201605
59.642555 81.186493 -0.49517295
57.599045 89.246429 0
58.285015 86.540848 0.6494413
62.235584 70.924026 -0.98568356
61.813889 72.578873 -0.98060477
61.198944 74.992065 -0.94554871
60.045055 79.52021 -0.89259207
59.642323 81.100639 -0.49285072
57.592964 89.14286 0
58.250084 86.564156 0.65031242
62.52631 69.754074 -0.97926736
62.23344 70.897591 -0.98222345
61.809826 72.551613 -0.97779089
61.184391 74.993645 -0.94597626
60.02887 79.505409 -0.89201605
59.631981 81.055084 -0.49168959
59.660976 80.941864 0
58.222824 86.55719 0.65031242
62.49102 69.862381 -0.9980092
62.227612 70.885727 -0.98083776
61.807098 72.519424 -0.9744125
61.168549 75.000183 -0.94683301
60.00885 79.505608 -0.89230406
59.606194 81.069931 -0.49227014
59.63662 80.951721 0
58.186504 86.585411 0.65132797
62.483936 69.860558 -0.9980092
62.210495 70.917587 -0.98568356
61.789165 72.546295 -0.97779089
61.164261 74.96196 -0.94383681
59.994007 79.485741 -0.8914389
59.585571 81.064606 -0.49227014
57.752132 88.152016 0
58.16312 86.563286 0.65089297
62.479343 69.849159 -0.99638087
62.199615 70.925117 -0.98706657
61.783955 72.523941 -0.97553933
61.14843 74.968475 -0.94469357
59.976597 79.475891 -0.89115089
59.567566 81.04921 -0.49198017
57.732124 88.109184 0
58.126713 86.591415 0.65190852
62.19759 70.898674 -0.9836064
61.78265 72.486839 -0.97159863
61.139072 74.950111 -0.94340926
59.957901 79.471016 -0.89115089
59.539089 81.074005 -0.49285072
57.713524 88.061302 0
58.098103 86.58934 0.65205407
62.191803 70.886795 -0.98222345
61.755623 72.54805 -0.97891557
61.131062 74.926781 -0.94169742
59.939209 79.466118 -0.89115089
59.515823 81.078644 -0.49314073
57.680489 88.068802 0
58.065533 86.602303 0.65263462
62.477066 69.771912 -0.9841556
62.180923 70.894295 -0.9836064
61.747887 72.535507 -0.97779089
61.119167 74.91835 -0.94126981
59.924484 79.44619 -0.89028573
59.48856 81.098351 -0.49386683
57.656723 88.041016 0
58.032921 86.615211 0.65321517
62.475163 69.750954 -0.9808957
62.181591 70.858154 -0.97876328
61.745392 72.503304 -0.9744125
61.107296 74.909882 -0.94084066
59.90715 79.436264 -0.88999772
59.45192 81.153168 -0.49560851
57.605 88.118858 0
57.996281 86.643135 0.65423077
62.465668 69.758667 -0.9825272
62.175892 70.846252 -0.97737765
61.735119 72.500572 -0.9744125
61.086182 74.936157 -0.94340926
59.8885 79.431305 -0.88999772
59.383034 81.328423 -0.50083297
57.586582 88.070877 0
57.966248 86.64592 0.65452129
62.17411 70.819809 -0.97391748
61.723534 72.502731 -0.97497487
61.083595 74.892952 -0.93998551
59.871193 79.421333 -0.88970971
59.351349 81.362991 -0.50199407
64 64 0
57.93486 86.653656 0.65495628
62.429924 69.83609 -0.99638087
62.173695 70.788521 -0.96976322
61.7225 72.465637 -0.97103626
61.062431 74.919159 -0.94255251
59.852562 79.416336 -0.88970971
59.323624 81.382446 -0.50271964
57.517616 88.09552 0
57.907494 86.646309 0.65495628
62.164181 70.791168 -0.97045738
61.702995 72.497208 -0.97497487
61.065315 74.85614 -0.93741852
59.844738 79.371361 -0.88740337
59.272789 81.487144 -0.50591242
64 64 0
57.87064 86.674057 0.65597242
62.161236 70.769569 -0.96768868
61.700718 72.465012 -0.97159863
61.041439 74.892212 -0.94084066
59.826168 79.366333 -0.88740337
59.217609 81.606796 -0.5095408
64 64 0
57.845966 86.656616 0.65568244
62.149097 70.781853 -0.96976322
61.685139 72.481834 -0.97385013
61.039089 74.849022 -0.93741852
59.807606 79.361275 -0.88740337
59.19223 81.616051 -0.50997633
64 64 0
57.811756 86.674225 0.65640795
62.421345 69.75692 -0.9841556
62.154171 70.731232 -0.96284288
61.693707 72.410431 -0.96597087
61.017838 74.875137 -0.93998551
59.795883 79.331261 -0.88596219
59.165451 81.63028 -0.51055688
57.391602 88.09903 0
57.776119 86.696793 0.65727854
62.124714 70.806396 -0.97391748
61.661953 72.486008 -0.97497487
61.011517 74.846779 -0.93784612
59.771866 79.346115 -0.88711536
59.151054 81.59938 -0.50983131
57.356956 88.111099 0
57.747322 86.69426 0.65742356
62.414032 69.729271 -0.98008156
62.140583 70.717087 -0.96145993
61.667969 72.4244 -0.96822023
61.006634 74.813461 -0.93527746
59.761612 79.311073 -0.88538504
59.142269 81.548431 -0.50852519
57.33477 88.077972 0
57.714359 86.706718 0.65800411
62.379295 69.827362 -0.99719501
62.160702 70.613327 -0.94692516
61.653706 72.436272 -0.96990943
60.977062 74.869194 -0.94041306
59.743114 79.305939 -0.88538504
59.146137 81.452415 -0.50591242
57.298706 88.094971 0
57.681355 86.719139 0.65858465
62.374451 69.831139 -0.9980092
62.154015 70.621872 -0.94830817
61.647247 72.439743 -0.97047174
60.978764 74.8377 -0.93784612
59.74081 79.278458 -0.88394386
59.181644 81.284286 -0.50112295
57.286945 88.080902 0
57.65786 86.750366 0.65960079
62.384735 69.767288 -0.98741543
62.14872 70.609985 -0.94692516
61.631569 72.456467 -0.97272331
60.967056 74.829102 -0.93741852
59.718166 79.288246 -0.88480902
59.166363 81.258453 -0.50054294
57.256451 88.077782 0
57.627575 86.752686 0.65989077
62.381786 69.751053 -0.98496979
62.121708 70.675354 -0.95661414
61.635113 72.404694 -0.96709555
60.949802 74.84024 -0.93870121
59.702503 79.273094 -0.88423187
59.153961 81.22258 -0.49967185
57.227364 88.069618 0
57.59446 86.764977 0.66047132
62.354668 69.82045 -0.99719501
62.099998 70.721352 -0.96353441
61.61528 72.436066 -0.97103626
60.939499 74.826675 -0.93784612
59.679829 79.282829 -0.88509703
59.12326 81.251717 -0.50068796
57.191204 88.086456 0
57.559883 86.782242 0.66119742
62.361141 69.770897 -0.98904383
62.091877 70.719048 -0.96353441
61.614807 72.398949 -0.96709555
60.930626 74.808151 -0.93656176
59.658535 79.28756 -0.88567418
59.096737 81.265808 -0.50126851
57.162106 88.078209 0
57.52668 86.794434 0.66177797
62.348743 69.787926 -0.99230367
62.094772 70.678139 -0.95799708
61.600479 72.410728 -0.96878475
60.916164 74.809364 -0.93698937
59.644325 79.267372 -0.88480902
59.085861 81.224884 -0.50025243
57.128731 88.084946 0
57.499142 86.786598 0.66177797
62.340385 69.790695 -0.99312097
62.108818 70.598679 -0.94692516
61.604321 72.358963 -0.96315479
60.903103 74.805634 -0.93698937
59.637283 79.222321 -0.88250268
59.086525 81.144012 -0.49807572
57.096771 88.086624 0
57.467323 86.793701 0.66221303
62.102238 70.591553 -0.94623101
61.580158 72.404907 -0.96878475
60.890049 74.80188 -0.93698937
59.607445 79.256805 -0.88480902
59.073006 81.113083 -0.49734962
57.070549 88.068275 0
57.428284 86.825745 0.66337413
62.340134 69.739174 -0.98496979
62.085907 70.618187 -0.95038533
61.57848 72.372673 -0.96540636
60.879852 74.788261 -0.93613422
59.591888 79.241539 -0.88423187
59.062435 81.072182 -0.49633405
57.025562 88.114891 0
57.394932 86.837753 0.66395468
62.327682 69.756149 -0.98822963
62.069515 70.644768 -0.95453697
61.561279 72.394135 -0.96822023
60.875416 74.75489 -0.93356562
59.576359 79.226273 -0.88365585
59.043262 81.061203 -0.49618849
56.98772 88.136429 0
57.364441 86.839745 0.66424525
62.308266 69.796829 -0.99556351
62.058674 70.652069 -0.9559226
61.558254 72.366798 -0.96540636
60.852352 74.785614 -0.93656176
59.563759 79.20105 -0.88250268
59.012459 81.090118 -0.49720463
56.892944 88.352776 0
57.333939 86.841682 0.66453522
62.052048 70.644913 -0.95523113
61.546711 72.368729 -0.96597087
60.855209 74.7276 -0.93185371
59.543941 79.200638 -0.88279068
58.991814 81.084084 -0.49720463
56.753716 88.71875 0
57.303421 86.843575 0.66482526
62.29147 69.802216 -0.99719501
62.048275 70.628105 -0.95315397
61.549526 72.321877 -0.96090329
60.840797 74.728737 -0.93228292
59.527039 79.190292 -0.88250268
58.950626 81.147804 -0.49923629
56.713562 88.744926 0
57.27142 86.850426 0.66526079
62.341942 69.605804 -0.96378225
62.053074 70.582443 -0.94692516
61.538025 72.323792 -0.96146774
60.813274 74.774132 -0.93656176
59.508686 79.184875 -0.88250268
58.937279 81.116776 -0.49851075
56.671856 88.776039 0
57.23497 86.872192 0.66613191
62.29575 69.736473 -0.98660123
62.036552 70.60894 -0.95107681
61.527969 72.320816 -0.96146774
60.807568 74.745674 -0.93442237
59.494762 79.164551 -0.88163751
58.919556 81.100693 -0.49822074
56.634514 88.792107 0
57.20438 86.873955 0.66642189
62.032871 70.592133 -0.94899964
61.510654 72.342163 -0.96428168
60.794586 74.741806 -0.93442237
59.482361 79.139275 -0.88048434
58.900383 81.089569 -0.49807572
56.612003 88.758255 0
57.173771 86.875694 0.66671246
62.270538 69.770218 -0.99312097
62.047951 70.512871 -0.93792772
61.512249 72.300209 -0.95977855
60.784561 74.728081 -0.93356562
59.467037 79.123901 -0.87990832
58.876755 81.093338 -0.49836573
56.567154 88.799164 0
57.141663 86.882355 0.66714746
62.277821 69.720779 -0.98496979
62.009712 70.611397 -0.95246249
61.487576 72.345848 -0.96540636
60.770115 74.729118 -0.93399483
59.448769 79.118416 -0.87990832
58.848618 81.112015 -0.4990913
56.525192 88.830032 0
57.112518 86.879036 0.66729301
62.256599 69.766022 -0.99312097
62.01915 70.551353 -0.94415653
61.484844 72.318489 -0.96259248
60.758644 74.720276 -0.93356562
59.427513 79.122795 -0.88048434
58.797863 81.205269 -0.50199407
56.49218 88.830956 0
57.083374 86.875671 0.66743803
62.269745 69.697685 -0.9817099
61.990826 70.616158 -0.95384544
61.474796 72.315445 -0.96259248
60.759117 74.67215 -0.92971432
59.422768 79.072716 -0.87788999
58.781609 81.184044 -0.50155854
56.457649 88.836792 0
57.061779 86.847404 0.66685748
62.235462 69.785431 -0.99719501
62.006256 70.536942 -0.9427709
61.463268 72.317245 -0.96315479
60.738739 74.692772 -0.93185371
59.3955 79.09687 -0.87962031
58.763878 81.167793 -0.50126851
56.41853 88.857544 0
57.041756 86.814148 0.66613191
62.248745 69.717117 -0.98578393
61.995415 70.544128 -0.94415653
61.463634 72.280174 -0.95921624
60.736343 74.654472 -0.92885917
59.380299 79.081398 -0.87904316
58.735527 81.186295 -0.50199407
56.383923 88.863297 0
56.373428 88.89756 0.72723216
62.237476 69.729172 -0.98822963
62.000786 70.498543 -0.93792772
61.461102 72.252823 -0.95640236
60.715923 74.675056 -0.93099862
59.366638 79.060982 -0.87817913
58.710178 81.194832 -0.50242966
56.337055 88.908791 0
56.340294 88.89827 0.72752267
62.213043 69.783714 -0.9980092
61.957394 70.61116 -0.95453697
61.433136 72.307991 -0.96315479
60.706055 74.661278 -0.93014354
59.349972 79.050415 -0.87788999
58.700146 81.153664 -0.50141352
56.306965 88.899513 0
56.304077 88.908859 0.72810328
62.202564 69.780464 -0.9980092
61.9618 70.554756 -0.94692516
61.418083 72.303329 -0.96315479
60.679119 74.679794 -0.93228292
59.324238 79.037033 -0.87760198
58.656723 81.183731 -0.50257462
56.243301 88.945168 0
56.251228 88.919678 0.72882879
61.949398 70.566643 -0.94899964
61.417137 72.271103 -0.95977855
60.6754 74.646362 -0.92971432
59.301445 79.046188 -0.87846714
58.666943 81.078049 -0.49967185
56.20541 88.960617 0
56.211834 88.940048 0.72969937
62.221138 69.672348 -0.98008156
61.956474 70.516296 -0.94207937
61.414745 72.243736 -0.95696467
60.660999 74.647247 -0.93014354
59.281719 79.045433 -0.87875515
58.612103 81.180672 -0.50286466
56.164352 88.985947 0
56.180149 88.935577 0.72984439
62.209831 69.684341 -0.9825272
61.94408 70.528183 -0.94415653
61.400211 72.255135 -0.95865172
60.648136 74.643211 -0.93014354
59.266647 79.029861 -0.87817913
58.572617 81.233635 -0.50460631
56.135727 88.971504 0
56.135971 88.970734 0.73115104
62.21489 69.64447 -0.97600752
61.911987 70.602242 -0.95523113
61.391769 72.247147 -0.95808935
60.643024 74.614662 -0.92800242
59.243816 79.03891 -0.87904316
58.551796 81.227066 -0.50460631
56.09301 89.001663 0
56.10424 88.966164 0.73129606
62.184135 69.717674 -0.98904383
61.934387 70.504066 -0.94138789
61.386417 72.229477 -0.95640236
60.633305 74.600822 -0.92714733
59.228775 79.0233 -0.87846714
58.518398 81.260094 -0.50576741
56.059654 89.002029 0
56.069359 88.971466 0.73173159
62.17873 69.71077 -0.98822963
61.935677 70.472878 -0.93723357
61.370304 72.245659 -0.95865172
60.614258 74.61631 -0.92885917
59.20277 79.04216 -0.87990832
58.473862 81.327728 -0.50794464
56.021542 89.017204 0
56.028141 88.996513 0.73274714
62.164291 69.732094 -0.99230367
61.892658 70.580284 -0.95315397
61.358788 72.24733 -0.95921624
60.601433 74.612213 -0.92885917
59.192486 79.011726 -0.87846714
58.43708 81.370522 -0.50939578
55.970684 89.071976 0
56.543159 87.284401 0.68282199
62.190659 69.626358 -0.97437602
61.910824 70.496536 -0.94138789
61.347271 72.248962 -0.95977855
60.59333 74.59343 -0.92757487
59.177521 78.996048 -0.87788999
58.432003 81.314323 -0.50794464
56.541103 87.19429 0
56.497532 87.329781 0.68441808
62.150444 69.727646 -0.99230367
61.899895 70.503548 -0.9427709
61.345112 72.221573 -0.95696467
60.578957 74.594185 -0.92800242
59.156223 79.000069 -0.87846714
58.409489 81.312523 -0.50808966
56.501884 87.21994 0
56.474136 87.305878 0.68398309
61.876556 70.548744 -0.9496938
61.335182 72.218361 -0.95696467
60.561405 74.604698 -0.92928678
59.139694 78.989288 -0.87817913
58.386974 81.310699 -0.50823468
56.481861 87.186111 0
56.447586 87.291809 0.68383753
62.168747 69.624458 -0.97519016
61.891949 70.474602 -0.93931073
61.322109 72.224792 -0.95808935
60.550182 74.595657 -0.92885917
59.121586 78.983406 -0.87817913
58.359627 81.323669 -0.50881523
56.482857 87.087914 0
56.424271 87.267853 0.68340254
62.152733 69.650436 -0.98008156
61.877892 70.491127 -0.94207937
61.313751 72.216721 -0.95752704
60.534195 74.601234 -0.92971432
59.103485 78.977501 -0.87817913
58.341923 81.306969 -0.50852519
55.77084 89.171417 0
56.39455 87.263618 0.68354756
62.145905 69.648201 -0.98008156
61.868484 70.493324 -0.9427709
61.314919 72.179672 -0.95358628
60.522987 74.592163 -0.92928678
59.087009 78.966644 -0.87788999
58.311295 81.329735 -0.50939578
55.746925 89.141678 0
56.369682 87.244545 0.68325752
62.11742 69.711678 -0.99148947
61.857494 70.500282 -0.94415653
61.311401 72.157112 -0.95133477
60.510193 74.587959 -0.92928678
59.077026 78.936134 -0.87644881
58.282227 81.347527 -0.51012135
55.710037 89.151459 0
56.374138 87.136597 0.68035471
62.102757 69.732857 -0.99556351
61.854374 70.483391 -0.94207937
61.298351 72.163513 -0.9524616
60.503853 74.56424 -0.92757487
59.057358 78.935081 -0.87673682
58.269432 81.315941 -0.50939578
55.673111 89.161194 0
55.67025 89.16983 0.74043941
62.158176 69.542938 -0.96296805
61.8592 70.442703 -0.93654209
61.282078 72.179535 -0.95471317
60.482998 74.584358 -0.92971432
59.039314 78.9291 -0.87673682
58.397633 80.860229 -0.49618849
55.647633 89.136307 0
55.648037 89.135086 0.73971385
62.135838 69.587593 -0.97111613
61.856182 70.425827 -0.93446493
61.273804 72.171432 -0.9541508
60.479958 74.550888 -0.92714733
59.022915 78.91819 -0.87644881
58.466068 80.587265 -0.48835182
55.622208 89.111382 0
55.607807 89.154549 0.74058443
62.111816 69.636894 -0.98008156
61.83567 70.461296 -0.9400022
61.262321 72.172943 -0.95471317
60.46558 74.551498 -0.92757487
59.001602 78.921982 -0.87702596
58.480694 80.477089 -0.48530403
58.154243 81.451653 0
55.56752 89.17395 0.74145496
62.07349 69.728317 -0.99638087
61.837456 70.430153 -0.93585056
61.254066 72.164818 -0.9541508
60.446289 74.566681 -0.92928678
58.983578 78.915939 -0.87702596
58.483986 80.401436 -0.48327178
58.177956 81.311386 0
55.533791 89.173599 0.74174553
62.114017 69.585472 -0.97193033
61.824871 70.441795 -0.93792772
61.23933 72.175926 -0.95583785
60.443375 74.533203 -0.92671978
58.968872 78.900055 -0.87644881
58.484116 80.335693 -0.48153067
58.137062 81.363518 0
55.491745 89.197807 0.74276108
62.078697 69.667465 -0.98660123
61.823532 70.420158 -0.93515909
61.226185 72.18222 -0.95696467
60.433949 74.519165 -0.92586303
58.962498 78.859665 -0.87443048
58.499416 80.225662 -0.47848287
58.141151 81.282471 0
55.452957 89.212128 0.74348718
62.122818 69.515396 -0.96052235
61.810932 70.431763 -0.93723357
61.209751 72.198105 -0.95921624
60.416279 74.529434 -0.92714733
58.939545 78.868263 -0.87529564
58.491539 80.184563 -0.47746676
58.118599 81.280304 0
55.410786 89.236206 0.74450278
62.087387 69.597313 -0.97519016
61.765846 70.538315 -0.95315397
61.203136 72.185097 -0.95808935
60.401897 74.529945 -0.92757487
58.929943 78.837662 -0.87385446
64 64 -0
58.096035 81.278122 0
55.378613 89.230743 0.74464834
62.100018 69.5494 -0.96704209
61.797649 70.432541 -0.93792772
61.208065 72.154572 -0.95471317
60.412167 74.47921 -0.92329603
58.92601 78.819916 -0.8729893
64 64 -0
58.092342 81.254852 0
55.351593 89.259933 0.74566388
62.05957 69.645264 -0.9841556
61.798038 70.406136 -0.93446493
61.193256 72.165611 -0.95640236
60.387829 74.508842 -0.92629057
58.903061 78.828453 -0.87385446
64 64 -0
58.079964 81.223083 0
55.307564 89.28878 0.74682498
62.067261 69.600861 -0.97682166
61.785385 70.417709 -0.93654209
61.175106 72.186234 -0.95921624
60.386852 74.470505 -0.92329603
58.881775 78.832054 -0.87443048
58.475689 80.008842 -0.47296786
58.043869 81.260208 0
55.271927 89.292999 0.74726057
62.03299 69.677925 -0.99067533
61.769424 70.438728 -0.9400022
61.171871 72.163605 -0.95696467
60.370846 74.47583 -0.92415112
58.879097 78.781868 -0.87183613
58.463154 79.982513 -0.47238731
58.038357 81.208725 0
55.22776 89.321724 0.74842167
62.055355 69.591515 -0.97600752
61.761646 70.436028 -0.9400022
61.163677 72.155388 -0.95640236
60.359875 74.466591 -0.92372358
58.85614 78.790337 -0.87270129
58.448971 79.961082 -0.47195175
58.009014 81.226105 0
55.192055 89.325813 0.74885666
62.055119 69.570488 -0.97274762
61.755524 70.428581 -0.93931073
61.163879 72.123154 -0.95302397
60.348919 74.457344 -0.92329603
58.846794 78.759697 -0.87126011
58.4314 79.949463 -0.47180673
58.415394 79.9953 0
55.152889 89.339699 0.74958277
62.069641 69.5075 -0.96215385
61.759377 70.392715 -0.93446493
61.155746 72.114929 -0.9524616
60.346481 74.423843 -0.92072743
58.849499 78.694878 -0.86780059
58.422447 79.913284 -0.47093561
58.435673 79.875557 0
55.117126 89.343689 0.75001776
62.026897 69.607735 -0.98008156
61.739994 70.423141 -0.93931073
61.129078 72.159416 -0.95808935
60.333889 74.419418 -0.92072743
58.963943 78.312927 -0.84560347
58.40667 79.896744 -0.47064564
58.425129 79.844284 0
55.070984 89.37706 0.75132388
62.030003 69.577377 -0.97519016
61.71051 70.481903 -0.94830817
61.131065 72.122414 -0.9541508
60.321301 74.414986 -0.92072743
59.055187 77.99955 -0.82744187
58.39439 79.870369 -0.47006506
58.414654 79.812996 0
55.03167 89.390762 0.75205004
62.003441 69.630898 -0.98496979
61.742924 70.365639 -0.9316963
61.126347 72.104568 -0.9524616
60.301857 74.429886 -0.92243928
59.090134 77.847313 -0.81879365
58.382164 79.843994 -0.46948451
58.400772 79.791519 0
54.995792 89.394592 0.75248504
61.990009 69.64711 -0.98822963
61.699902 70.462166 -0.94623101
61.12167 72.086723 -0.9507724
60.292694 74.415749 -0.92158419
59.073402 77.84137 -0.81879365
58.366516 79.827393 -0.46919397
58.376457 79.799454 0
54.949432 89.42775 0.75379115
62.058025 69.435226 -0.95156008
61.685345 70.478287 -0.94899964
61.10677 72.097603 -0.9524616
60.285297 74.396751 -0.92029983
59.063644 77.815918 -0.81764048
58.343895 79.830368 -0.46948451
58.359119 79.78775 0
54.909966 89.441277 0.75451726
62.006405 69.558487 -0.97356182
61.704613 70.399933 -0.93792772
61.096989 72.094101 -0.9524616
60.272736 74.39225 -0.92029983
59.052197 77.795334 -0.81677532
58.314247 79.852867 -0.47035506
57.860359 81.118385 0
54.866955 89.464508 0.7555328
62.004715 69.542122 -0.97111613
61.71558 70.345222 -0.93031329
61.080326 72.109711 -0.95471317
60.265404 74.373245 -0.91901553
59.042542 77.769875 -0.81562215
58.291573 79.855774 -0.47064564
57.827335 81.145233 0
54.823868 89.487686 0.75654894
62.006416 69.516464 -0.96704209
61.695976 70.375496 -0.93515909
61.077435 72.087059 -0.9524616
60.247635 74.383217 -0.92029983
59.029419 77.75415 -0.81504613
58.283016 79.819527 -0.46977451
57.797779 81.162239 0
54.787781 89.491241 0.75698447
61.939068 69.681343 -0.99638087
61.652344 70.471748 -0.9496938
61.059006 72.107407 -0.95527548
60.240345 74.364189 -0.91901553
59.021622 77.723831 -0.81360495
58.242641 79.871231 -0.47151619
57.782372 81.140045 0
54.742805 89.51918 0.75814557
61.651394 70.45005 -0.94692516
61.064857 72.060875 -0.95021009
60.226063 74.364479 -0.91944474
59.012123 77.698364 -0.81245178
58.212795 79.89357 -0.47238731
57.752758 81.15699 0
54.711979 89.507973 0.75814557
61.955894 69.592766 -0.9817099
61.676327 70.357666 -0.93377346
61.035927 72.109825 -0.95640236
60.220592 74.340622 -0.91773289
58.997353 77.687454 -0.81216264
58.172188 79.945145 -0.47412896
57.740971 81.124969 0
54.668682 89.530884 0.75916117
61.962757 69.553162 -0.97519016
61.673836 70.340714 -0.9316963
61.036636 72.077606 -0.95302397
60.208099 74.336044 -0.91773289
58.98616 77.66684 -0.81129861
58.142189 79.967354 -0.47499955
57.709522 81.146729 0
54.63068 89.539108 0.75974172
61.949215 69.569252 -0.97845006
61.678307 70.304955 -0.92685312
61.030388 72.064491 -0.95189929
60.197392 74.32663 -0.91730368
58.98753 77.612221 -0.80841511
58.117512 79.974899 -0.47543508
57.674419 81.178185 0
54.587254 89.561913 0.7607578
61.973331 69.483322 -0.96378225
61.646339 70.368027 -0.93654209
61.010078 72.089485 -0.95527548
60.190254 74.307587 -0.91602099
58.974667 77.596458 -0.8078391
58.096413 79.972649 -0.4755801
57.648262 81.185165 0
54.547367 89.57489 0.76148337
61.95467 69.513313 -0.96948779
61.657837 70.313446 -0.92893028
61.003838 72.076347 -0.9541508
60.167091 74.331848 -0.91858798
58.963642 77.575821 -0.80697393
58.071693 79.980125 -0.47601566
57.629311 81.1726 0
54.511047 89.578064 0.76191896
61.927311 69.566429 -0.97926736
61.620449 70.390541 -0.94069636
60.997631 72.063187 -0.95302397
60.15461 74.327209 -0.91858798
58.941826 77.584274 -0.8078391
58.072338 79.919373 -0.47441897
57.59222 81.208786 0
54.463829 89.610413 0.76322508
61.927509 69.545395 -0.97600752
61.584633 70.462845 -0.95176834
60.966541 72.116676 -0.95977855
60.142132 74.322556 -0.91858798
58.927223 77.573311 -0.80755109
58.071297 79.863525 -0.47296786
57.57872 81.181526 0
54.420162 89.632935 0.76424062
61.957092 69.456184 -0.96052235
61.578964 70.466095 -0.95246249
60.975891 72.076767 -0.95527548
60.128696 74.339462 -0.92029983
58.937168 77.52179 -0.80466759
58.050785 79.889137 -0.47383842
57.561039 81.197144 0
54.390099 89.666077 0.76540172
61.912251 69.555504 -0.97845006
61.627632 70.312866 -0.93031329
60.964348 72.077866 -0.95583785
60.116207 74.334778 -0.92029983
58.928112 77.496292 -0.80351442
58.03159 79.881935 -0.47383842
57.540264 81.189354 0
54.349945 89.678787 0.76612782
61.896812 69.576111 -0.9825272
61.611156 70.333466 -0.93377346
60.96714 72.040916 -0.95189929
60.116405 74.29644 -0.91730368
58.913631 77.485321 -0.80322641
58.003235 79.899017 -0.47456399
57.482761 81.278931 0
54.307926 89.696274 0.76699841
61.951332 69.411758 -0.95400262
61.594624 70.354034 -0.93723357
60.944836 72.070503 -0.95583785
60.105782 74.286942 -0.91687614
58.908325 77.45015 -0.80149722
57.947231 79.988968 -0.47746676
57.452675 81.29538 0
54.271362 89.699127 0.76743394
61.953568 69.386177 -0.94992858
61.590508 70.341751 -0.93585056
60.933277 72.071571 -0.95640236
60.097 74.272644 -0.91602099
58.884727 77.463326 -0.80265039
57.914993 80.015656 -0.47848287
57.391117 81.394493 0
54.227402 89.721344 0.76844954
61.843155 69.656197 -0.9980092
61.597149 70.301323 -0.93031329
60.936203 72.034615 -0.9524616
60.086418 74.263123 -0.91559345
58.873993 77.442627 -0.80178523
57.891945 80.01799 -0.47877288
57.334866 81.478905 0
54.196331 89.709518 0.76844954
61.862823 69.584335 -0.98578393
61.598503 70.274994 -0.92685312
60.899258 72.102089 -0.96090329
60.063011 74.287155 -0.91816044
58.874393 77.392952 -0.79919088
57.900452 79.937813 -0.47659621
57.270966 81.582626 0
54.155979 89.721939 0.76917565
61.868481 69.549454 -0.98008156
61.583725 70.290825 -0.92962182
60.925903 72.003471 -0.94964772
60.052425 74.277596 -0.91773289
58.850796 77.406067 -0.80034405
57.918468 79.833405 -0.47369343
57.244125 81.589066 0
53.491394 91.35939 0.81852025
61.915112 69.408516 -0.95563412
61.570717 70.301926 -0.9316963
60.910759 72.013962 -0.95133477
60.047394 74.253662 -0.91602099
58.855072 77.346733 -0.79717255
57.884384 79.864838 -0.47485453
57.191051 81.663452 0
53.473297 91.307877 0.81735915
61.862209 69.525848 -0.97682166
61.559479 70.308357 -0.93308192
60.912075 71.981796 -0.94795853
60.038719 74.239288 -0.91516423
58.842678 77.330864 -0.79659653
57.897095 79.77504 -0.47238731
57.171589 81.65036 0
53.438435 91.29998 0.81750417
61.823334 69.606201 -0.99148947
61.56094 70.282021 -0.92962182
60.876686 72.044373 -0.95583785
60.028206 74.229713 -0.91473669
58.828449 77.319786 -0.79630738
57.910015 79.685303 -0.46992007
57.170994 81.588722 0
53.411095 91.272675 0.81706917
61.881165 69.437767 -0.96215385
61.564281 70.251007 -0.92546749
60.890953 71.979042 -0.9485209
60.019573 74.215347 -0.9138816
58.816113 77.303902 -0.79573137
57.891068 79.677933 -0.46992007
57.149746 81.58046 0
53.389473 91.230804 0.81619805
61.80439 69.614738 -0.99393517
61.525669 70.327499 -0.93723357
60.879463 71.980011 -0.94908321
60.014709 74.191406 -0.91216969
58.805695 77.283173 -0.7948662
57.856987 79.709259 -0.4710812
57.107655 81.625496 0
53.360359 91.20829 0.81590801
61.884285 69.391205 -0.95481682
61.549183 70.245102 -0.92546749
60.860535 71.999901 -0.95189929
59.983646 74.234367 -0.91644853
58.799095 77.252808 -0.79342502
57.822826 79.740509 -0.47224173
57.099674 81.583229 0
53.338882 91.166382 0.81503689
61.854221 69.448448 -0.96541375
61.528767 70.274826 -0.93031329
60.863911 71.962997 -0.94795853
59.98069 74.205627 -0.91430914
58.786873 77.2369 -0.792849
57.798096 79.747543 -0.47267729
57.059357 81.623322 0
53.321301 91.114792 0.81387579
61.830128 69.47081 -0.97030193
61.454414 70.418083 -0.95246249
60.840931 71.964836 -0.94908321
59.954147 74.200653 -0.91473669
58.756813 77.219437 -0.79255986
57.750481 79.75666 -0.47340286
56.964981 81.737114 0
53.274963 91.040611 0.81242472
61.830833 69.449814 -0.96704209
61.504185 70.270485 -0.93100476
60.825668 71.975182 -0.9507724
59.938023 74.205307 -0.91559345
58.752319 77.184265 -0.79083067
57.760269 79.676689 -0.47122619
56.920456 81.786636 0
53.248066 91.013138 0.81198913
61.842583 69.401291 -0.95889401
61.444496 70.397934 -0.95038533
60.819801 71.961906 -0.94964772
59.937126 74.171768 -0.91302484
58.740234 77.168297 -0.79025352
57.714348 79.736694 -0.47325787
56.870014 81.850555 0
55.83503 84.441734 0.61475503
61.850769 69.361977 -0.95237428
61.505836 70.222519 -0.92477602
60.842323 71.877876 -0.94007921
59.930569 74.152557 -0.91174048
58.722397 77.166748 -0.79054266
57.699203 79.719444 -0.47296786
64 64 0
55.806473 84.44149 0.61504507
61.796333 69.478607 -0.97356182
61.475853 70.27536 -0.93308192
60.825222 71.892914 -0.94233078
59.912556 74.161926 -0.91302484
58.700703 77.174744 -0.79140669
57.635612 79.822701 -0.47630566
56.844376 81.789818 0
55.799232 84.388184 0.61373895
61.813766 69.416351 -0.96296805
61.492683 70.21183 -0.92408448
60.819496 71.879639 -0.94120389
59.9291 74.085579 -0.90660655
58.682846 77.173141 -0.79169583
57.645672 79.742729 -0.47412896
56.844311 81.728081 0
55.770706 84.387909 0.61402947
61.786816 69.464088 -0.97193033
61.415485 70.380859 -0.9496938
60.821419 71.847542 -0.93782771
59.90728 74.104439 -0.90874594
58.655285 77.195465 -0.79342502
57.628609 79.730209 -0.47398341
55.847881 84.126617 0
55.761688 84.339417 0.61286837
61.77277 69.479729 -0.97519016
61.415337 70.359138 -0.94692516
60.844467 71.763664 -0.92825919
59.88348 74.128014 -0.91131294
58.637398 77.193787 -0.79371303
57.591999 79.765823 -0.47528952
55.851009 84.04924 0
55.746899 84.305382 0.6121428
61.834698 69.318153 -0.94666874
61.447445 70.269272 -0.93377346
60.853195 71.728806 -0.92431843
59.881229 74.116028 -0.91045785
58.631378 77.18576 -0.79342502
57.580509 79.766777 -0.47543508
55.848709 84.02021 0
55.742474 84.281136 0.61156225
61.770321 69.457382 -0.97193033
61.46833 70.196526 -0.92339301
60.855385 71.696777 -0.92094225
59.869011 74.111038 -0.91045785
58.603714 77.207985 -0.79515421
57.561462 79.75901 -0.47543508
55.842239 83.966988 0
55.729771 84.242271 0.61069113
61.80685 69.349495 -0.95318848
61.434204 70.258453 -0.93308192
60.873077 71.627136 -0.91306078
59.856796 74.106041 -0.91045785
58.583832 77.211037 -0.79573137
57.538486 79.760826 -0.47572508
55.827991 83.933037 0
55.715172 84.208221 0.60996556
61.783463 69.387985 -0.96052235
61.445728 70.208954 -0.92616165
60.898663 71.538773 -0.9029299
59.836773 74.120026 -0.91216969
58.552128 77.24276 -0.79803771
57.523399 79.743401 -0.47543508
55.825699 83.870193 0
55.698669 84.178978 0.60938501
61.782616 69.37159 -0.95807672
61.421001 70.247597 -0.93239045
60.887619 71.539711 -0.90349227
59.842186 74.072258 -0.90831679
58.536129 77.23616 -0.79803771
57.488518 79.773994 -0.47659621
55.80566 83.850693 0
55.670322 84.178543 0.60967559
61.789364 69.336952 -0.95237428
61.367378 70.355713 -0.94899964
60.932953 71.404503 -0.88773364
59.822159 74.086197 -0.91002864
58.514206 77.243874 -0.79890174
57.483383 79.732498 -0.4755801
55.797615 83.802307 0
55.66584 84.120445 0.60822392
61.746876 69.42099 -0.96785629
61.423241 70.199654 -0.92616165
60.939613 71.363251 -0.88323057
59.811943 74.076408 -0.90960109
58.496216 77.242027 -0.79919088
57.460396 79.734207 -0.4758701
58.062912 78.284554 0
55.659481 84.067177 0.6069178
61.791695 69.29509 -0.94585454
61.417686 70.191887 -0.92546749
60.926811 71.368919 -0.88435525
59.807674 74.052383 -0.90788919
58.472256 77.254463 -0.80034405
57.427383 79.759872 -0.47688621
58.047661 78.272568 0
55.631237 84.066681 0.60720837
61.747131 69.383621 -0.96215385
61.410206 70.188766 -0.92546749
60.955177 71.276146 -0.87366205
59.791565 74.056793 -0.90874594
58.444267 77.276398 -0.80207324
57.390293 79.795059 -0.47819233
58.038456 78.246155 0
55.625057 84.013397 0.60590166
61.727238 69.412788 -0.96785629
61.354172 70.301285 -0.9427709
60.940491 71.286499 -0.8753491
59.785381 74.037498 -0.90746164
58.432232 77.260147 -0.80149722
57.371212 79.787064 -0.47819233
58.029305 78.219749 0
55.61496 83.969734 0.60488611
61.736053 69.373596 -0.96133655
61.367981 70.247231 -0.93515909
60.927738 71.292175 -0.87647593
59.755318 74.074974 -0.91131294
58.400154 77.291527 -0.80380243
57.350124 79.783829 -0.47833732
58.020214 78.193336 0
55.59285 83.954803 0.6047411
61.694912 69.45282 -0.97600752
61.366299 70.230179 -0.93308192
60.92289 71.279083 -0.8753491
59.761135 74.027283 -0.90746164
58.386108 77.279991 -0.80351442
57.327007 79.785362 -0.47862789
64 64 0
55.584934 83.906342 0.60358
61.70956 69.399963 -0.96704209
61.370525 70.199287 -0.92893028
60.933937 71.228592 -0.86972135
59.732986 74.059967 -0.91088539
58.35997 77.297005 -0.8049556
57.301849 79.791641 -0.47906345
57.97171 78.212372 0
55.564949 83.886581 0.60328943
61.687553 69.433586 -0.97356182
61.363033 70.196106 -0.92893028
60.933163 71.206177 -0.86746979
59.744961 73.998116 -0.9057498
58.321621 77.342545 -0.80812711
57.280739 79.788315 -0.47920844
57.962692 78.185921 0
55.559242 83.833344 0.60198331
61.688751 69.412598 -0.97030193
61.322056 70.271355 -0.94069636
60.922466 71.20713 -0.86803216
59.708687 74.049622 -0.91088539
58.315659 77.31189 -0.80668592
57.253502 79.799301 -0.47978899
57.994606 78.063751 0
55.531197 83.832695 0.60227388
61.726982 69.305313 -0.95156008
61.359928 70.162033 -0.92477602
60.891743 71.254799 -0.87422442
59.710701 74.011391 -0.90788919
58.277176 77.357307 -0.8098563
57.21191 79.843674 -0.48138511
57.969418 78.075623 0
55.523613 83.784233 0.60111278
61.706917 69.334335 -0.95726252
61.346539 70.172668 -0.92685312
60.889004 71.237022 -0.87253523
59.698608 74.006203 -0.90788919
58.265121 77.340881 -0.80928028
57.176353 79.873657 -0.48254624
57.954475 78.06353 0
55.495613 83.783516 0.60140276
61.704384 69.322495 -0.95563412
61.356964 70.127998 -0.92062438
60.876232 71.242599 -0.87366205
59.688553 73.996292 -0.90746164
58.228523 77.381439 -0.81216264
57.138657 79.90834 -0.48385236
57.949852 78.027542 0
55.482002 83.749367 0.60067719
61.674397 69.374153 -0.96541375
61.359524 70.101784 -0.91716421
60.893715 71.1782 -0.86634511
59.690754 73.958084 -0.9044655
58.210297 77.379211 -0.81245178
57.102928 79.938194 -0.48501346
57.934971 78.015457 0
55.470524 83.710449 0.59980667
61.669876 69.366791 -0.96459639
61.276222 70.273468 -0.94346505
60.868855 71.211731 -0.87084818
59.674629 73.962296 -0.90532225
58.198261 77.362709 -0.81187463
57.073326 79.953682 -0.48573902
57.940845 77.955589 0
55.457069 83.676285 0.59908056
61.669312 69.350395 -0.96215385
61.314735 70.164368 -0.92754465
60.868259 71.189308 -0.86859667
59.660545 73.961769 -0.9057498
58.171791 77.379395 -0.81331581
57.062359 79.926239 -0.48515847
57.909435 77.981667 0
55.439522 83.651672 0.59864557
61.678684 69.311333 -0.95563412
61.321354 70.128937 -0.92269886
60.873825 71.152916 -0.86465591
59.642342 73.970634 -0.9070341
58.145271 77.396042 -0.81475699
57.051437 79.898819 -0.48457846
57.905056 77.945671 0
55.438679 83.588928 0.59704888
61.654404 69.349266 -0.96296805
61.32201 70.107307 -0.91993022
60.846817 71.191017 -0.86972135
59.652981 73.913635 -0.90232605
58.120781 77.407906 -0.81591016
57.88784 77.939133 -0.42507434
57.896561 77.91925 0
55.423363 83.559525 0.59646833
61.641972 69.360008 -0.96541375
61.306553 70.122444 -0.92269886
60.852459 71.154633 -0.86578059
59.645134 73.898987 -0.90147096
58.092083 77.429214 -0.81764048
57.818695 78.050644 -0.42870215
57.890236 77.888031 0
55.412285 83.520615 0.59559774
61.670624 69.286209 -0.95237428
61.325104 70.07032 -0.91508704
60.846081 71.157394 -0.86634511
59.635017 73.905739 -0.90232605
58.077709 77.43985 -0.81850564
57.818581 78.027901 -0.42812213
57.900734 77.841469 0
55.402596 83.510658 0.59545219
61.660244 69.292419 -0.95400262
61.30154 70.103798 -0.92062438
60.820999 71.190765 -0.87084818
59.608521 73.933334 -0.90532225
58.055206 77.446861 -0.81936967
57.801636 78.020416 -0.42812213
57.881908 77.838852 0
55.370621 83.519264 0.59603274
61.67189 69.248924 -0.94666874
61.28603 70.118881 -0.92339301
60.83292 71.14045 -0.86521828
59.598598 73.923332 -0.90489465
58.036858 77.444412 -0.81965882
57.788918 78.00341 -0.42783156
57.869408 77.821938 0
55.378643 83.437576 0.5938561
61.625355 69.336433 -0.96296805
61.303116 70.060585 -0.91508704
60.818092 71.150551 -0.86690748
59.584526 73.922691 -0.90532225
58.001694 77.479721 -0.82225317
57.750877 78.043365 -0.4292827
57.848484 77.82402 0
55.359394 83.417641 0.59356552
61.645103 69.274887 -0.95237428
61.23035 70.203918 -0.93723357
60.819813 71.123505 -0.86409354
59.583004 73.893913 -0.9031828
57.985409 77.472466 -0.82225317
57.74662 78.007339 -0.42841214
57.848751 77.778572 0
55.346527 83.383469 0.59283996
61.62661 69.299095 -0.95726252
61.253613 70.131889 -0.92685312
60.804981 71.13356 -0.86578059
59.573158 73.883865 -0.90275359
57.950108 77.507675 -0.82484752
57.729702 77.999779 -0.42841214
57.823605 77.790115 0
55.333733 83.349289 0.59211439
61.648571 69.233109 -0.94585454
61.277058 70.059914 -0.91647005
60.792194 71.138969 -0.86690748
59.559105 73.883209 -0.9031828
57.935905 77.495644 -0.82455951
57.72131 77.973228 -0.42783156
57.813339 77.76841 0
55.331657 83.291405 0.59066331
61.634125 69.248291 -0.94911444
61.228497 70.148102 -0.93031329
60.791924 71.116562 -0.86465591
59.540844 73.891861 -0.9044655
57.91111 77.507149 -0.82571155
57.70443 77.96563 -0.42783156
57.81382 77.722969 0
55.301949 83.29512 0.59109831
61.637966 69.222908 -0.9450404
61.262421 70.053314 -0.91647005
60.781235 71.117302 -0.86521828
59.535236 73.872452 -0.9031828
57.890526 77.509216 -0.8262887
57.681133 77.972221 -0.42826712
57.795101 77.720215 0
55.289349 83.260925 0.59037274
61.621449 69.242554 -0.94911444
61.257179 70.045441 -0.91577858
60.770542 71.118034 -0.86578059
59.523312 73.86705 -0.9031828
57.863522 77.525375 -0.82772988
57.662109 77.969307 -0.42841214
57.802177 77.660583 0
55.255348 83.27404 0.59109831
61.594639 69.28466 -0.95726252
61.241562 70.060387 -0.91854721
60.753521 71.132629 -0.86803216
59.526283 73.828918 -0.9001866
57.836472 77.541489 -0.82917106
57.625862 78.004204 -0.42971826
57.772743 77.681503 0
55.272964 83.173607 0.58834106
61.580044 69.299736 -0.96052235
61.240494 70.04335 -0.91647005
60.761784 71.091736 -0.86353123
59.505878 73.842186 -0.9018985
57.802925 77.571678 -0.8314774
57.615425 77.982307 -0.4292827
57.764862 77.655029 0
55.23901 83.186676 0.58906662
61.581875 69.278831 -0.95726252
61.21439 70.081062 -0.92269886
60.755341 71.083183 -0.86296672
59.487572 73.850754 -0.9031828
57.771446 77.597107 -0.83349574
57.563904 78.050179 -0.43160492
57.765709 77.609627 0
55.207176 83.194977 0.58964717
61.610588 69.199554 -0.94340891
61.215424 70.059456 -0.91993022
60.742535 71.088501 -0.86409354
59.490681 73.812637 -0.9001866
57.735584 77.631866 -0.83609009
57.538254 78.061279 -0.43218547
57.740578 77.621002 0
55.205688 83.137131 0.58819604
61.571194 69.268486 -0.95644832
61.187096 70.101662 -0.92685312
60.746742 71.056862 -0.86071515
59.472378 73.821167 -0.90147096
57.70179 77.661873 -0.83839643
57.547375 77.996826 -0.43044379
57.752449 77.551987 0
55.186924 83.117035 0.58790547
61.560684 69.274513 -0.95807672
61.223953 70.002625 -0.91231841
60.721153 71.089828 -0.86521828
59.44759 73.843643 -0.90403789
57.659233 77.710594 -0.84185594
57.50647 78.040909 -0.43204048
57.747002 77.520813 0
55.185642 83.059219 0.58645439
61.53767 69.307434 -0.96459639
61.174469 70.090302 -0.92616165
60.69548 71.122734 -0.86972135
59.450825 73.805527 -0.90104175
57.616547 77.759232 -0.84531546
57.46764 78.080185 -0.43349159
57.732857 77.50853 0
55.167 83.039116 0.58616382
61.547943 69.2686 -0.95807672
61.184048 70.050491 -0.92062438
60.710457 71.068069 -0.86353123
59.43898 73.800026 -0.90104175
57.610844 77.728043 -0.84387314
56.29726 80.550476 -0.50983131
57.69458 77.548126 0
55.146191 83.02372 0.5860188
61.533215 69.283554 -0.96133655
61.18948 70.019798 -0.91647005
60.714821 71.036453 -0.86015284
59.43148 73.78521 -0.9001866
57.611771 77.682816 -0.8415668
56.257484 80.583527 -0.51113743
57.70023 77.49334 0
55.125404 83.008301 0.58587384
61.560371 69.208961 -0.94830024
61.197098 69.984604 -0.91162694
60.704166 71.037079 -0.86071515
59.404415 73.812233 -0.9031828
57.586464 77.693825 -0.84271997
56.246269 80.555336 -0.51055688
57.694977 77.462135 0
55.133308 82.931671 0.58384156
61.535164 69.246269 -0.95563412
61.17067 70.022079 -0.91785574
60.687023 71.051491 -0.86296672
59.414398 73.760201 -0.8989023
57.57872 77.667336 -0.8415668
56.219639 80.560074 -0.51099247
57.652153 77.51104 0
55.094967 82.953873 0.5848577
61.547791 69.203049 -0.94830024
61.154839 70.036812 -0.92062438
60.684998 71.033707 -0.86127967
59.393852 73.773224 -0.9006142
57.557796 77.668938 -0.84214395
56.199635 80.550659 -0.51099247
57.65802 77.456284 0
55.052135 82.985397 0.58616382
61.514038 69.258179 -0.95889401
61.134682 70.060577 -0.92477602
60.680851 71.020493 -0.86015284
59.39521 73.739815 -0.89804721
57.536869 77.670486 -0.84271997
56.190754 80.517715 -0.51026636
64 64 0
55.015869 83.002777 0.58703494
61.511929 69.246223 -0.95726252
61.155312 69.998177 -0.91577858
60.67672 71.007309 -0.85902816
59.376842 73.748161 -0.89933151
57.520355 77.662666 -0.84271997
56.16412 80.522354 -0.51070189
57.638905 77.412697 0
55.021862 82.930862 0.58514827
61.508759 69.24472 -0.95726252
61.168907 69.960197 -0.91024125
60.663765 71.023659 -0.86127967
59.359943 73.768555 -0.90147096
57.5121 77.658752 -0.84271997
56.138527 80.550484 -0.51171803
57.646431 77.375954 0
54.916782 83.122589 0.59124386
61.498169 69.250641 -0.95889401
61.148754 69.983963 -0.91439557
60.653099 71.024208 -0.86184204
59.361397 73.735123 -0.8989023
57.508949 77.622894 -0.84099078
56.114071 80.550346 -0.51200801
57.634754 77.358856 0
54.938393 83.017769 0.58834106
61.513145 69.203003 -0.95074278
61.158836 69.944298 -0.9088583
60.649002 71.010979 -0.86071515
59.336349 73.757309 -0.90147096
57.476875 77.647713 -0.84300911
56.107521 80.51268 -0.51113743
57.611881 77.36525 0
54.94455 82.945854 0.58645439
61.489765 69.235657 -0.95726252
61.129967 69.986092 -0.91577858
60.647118 70.993187 -0.85902816
59.335659 73.728523 -0.89933151
57.480515 77.597847 -0.84041476
56.089817 80.498451 -0.51099247
57.582241 77.385674 0
54.896957 82.986435 0.58805048
61.526291 69.143524 -0.94096321
61.120564 69.987137 -0.91647005
60.63427 70.998283 -0.86015284
59.339485 73.690491 -0.8963353
57.450642 77.61792 -0.84214395
57.110462 78.325249 -0.44394109
57.57058 77.368538 0
54.903301 82.914543 0.58616382
61.496449 69.189514 -0.94992858
61.111145 69.98819 -0.91716421
60.636852 70.971329 -0.85733896
59.3144 73.712585 -0.8989023
57.452171 77.572723 -0.83983761
57.077347 78.349678 -0.4449572
57.549911 77.370125 0
54.891739 82.880135 0.58543825
61.513866 69.137527 -0.94096321
61.127956 69.935005 -0.90954977
60.628433 70.967262 -0.85733896
59.316082 73.679199 -0.8963353
57.429016 77.578773 -0.84070277
57.053223 78.355347 -0.44539276
57.517887 77.395126 0
64 64 0
61.492802 69.149284 -0.94422305
61.115818 69.923538 -0.9088583
60.607159 70.968224 -0.85846364
59.281471 73.690926 -0.89847475
57.409813 77.534943 -0.83897245
57.032204 78.310471 -0.44452164
57.476421 77.39814 0
64 64 0
61.514782 69.088516 -0.93362927
61.108662 69.920052 -0.9088583
60.589821 70.982384 -0.86071515
59.263 73.699066 -0.89975905
57.397999 77.517677 -0.83839643
57.030876 78.269363 -0.44350609
57.469372 77.371536 0
64 64 0
61.478184 69.147667 -0.9450404
61.103725 69.912033 -0.90816414
60.585854 70.969139 -0.85959047
59.273876 73.647217 -0.89547855
57.377121 77.518974 -0.83897245
57.004494 78.279602 -0.44408664
57.437191 77.396362 0
64 64 0
61.476334 69.135735 -0.94340891
61.06781 69.967087 -0.91716421
60.572956 70.974121 -0.86071515
59.246372 73.673759 -0.89847475
57.379044 77.473824 -0.83666611
57.017048 78.210495 -0.44219941
57.411827 77.407104 0
54.697807 82.930206 0.58906662
61.46357 69.145981 -0.94585454
61.056168 69.972534 -0.91854721
60.566776 70.965424 -0.86015284
59.246033 73.644989 -0.8963353
57.362766 77.465813 -0.83666611
56.933254 78.337219 -0.4464083
57.39563 77.399139 0
54.594532 83.082092 0.59414607
61.444214 69.169495 -0.95074278
61.088978 69.888016 -0.9060896
60.562862 70.952164 -0.85902816
59.257141 73.593201 -0.89205486
57.351082 77.448517 -0.83609009
56.858356 78.445129 -0.45003664
57.351765 77.447136 0
54.633663 82.944939 0.59022772
61.431377 69.179695 -0.95318848
61.079639 69.888985 -0.90678114
60.561241 70.934349 -0.85733896
59.22274 73.633469 -0.8963353
57.339428 77.431213 -0.83551407
56.822437 78.47374 -0.45119777
57.370209 77.369148 0
64 64 0
61.433926 69.158882 -0.94992858
61.056881 69.916901 -0.91162694
60.561916 70.911987 -0.8550874
59.199673 73.650673 -0.89847475
57.327816 77.413879 -0.83493692
56.76561 78.544151 -0.45366502
57.32856 77.412392 0
64 64 0
61.44976 69.111557 -0.94178051
61.065414 69.881912 -0.90678114
60.535419 70.944206 -0.85959047
59.194893 73.631073 -0.89719045
57.313923 77.401184 -0.83464891
56.729481 78.572601 -0.45482612
57.29842 77.432259 0
64 64 0
61.419258 69.157082 -0.95074278
61.058311 69.878357 -0.90678114
60.538399 70.917297 -0.8567766
59.176365 73.639046 -0.89847475
57.302368 77.383835 -0.83407176
56.704899 78.577759 -0.45526168
57.242599 77.503273 0
64 64 0
61.408588 69.162804 -0.95237428
61.044456 69.88826 -0.9088583
60.53233 70.908554 -0.85621208
59.178535 73.605682 -0.89590776
57.295483 77.357239 -0.83291858
56.673306 78.596786 -0.45613223
57.237961 77.471848 0
64 64 0
61.444588 69.075775 -0.93688917
61.05991 69.839859 -0.90193534
60.521694 70.908913 -0.8567766
59.160011 73.613594 -0.89719045
57.281673 77.344513 -0.83263057
56.68605 78.527588 -0.45424557
57.209984 77.486908 0
64 64 0
61.418407 69.112396 -0.94422305
61.023457 69.894524 -0.91093278
60.520222 70.89109 -0.8550874
59.157658 73.589409 -0.89547855
57.260887 77.345627 -0.83320773
56.668503 78.518738 -0.45424557
57.160851 77.543732 0
64 64 0
61.394363 69.144547 -0.95074278
60.995926 69.931221 -0.91716421
60.50042 70.909538 -0.85790128
59.150707 73.574402 -0.89462346
57.261127 77.305168 -0.83118939
56.646267 78.51915 -0.45453611
57.132725 77.558685 0
64 64 0
61.408295 69.101738 -0.94340891
61.016029 69.873909 -0.9088583
60.503578 70.88266 -0.8550874
59.141468 73.563957 -0.89419591
57.235683 77.315468 -0.83234257
56.633438 78.500977 -0.45424557
57.135208 77.513252 0
64 64 0
61.372963 69.155853 -0.95400262
61.018047 69.852417 -0.9060896
60.495266 70.878426 -0.8550874
59.127586 73.562653 -0.89462346
57.259521 77.228928 -0.82744187
56.608841 78.505966 -0.45468113
57.092899 77.555954 0
64 64 0
61.378834 69.136658 -0.95074278
61.019077 69.84166 -0.90470397
60.48418 70.889893 -0.8567766
59.121811 73.559708 -0.89462346
57.244476 77.238686 -0.82830703
56.640236 78.422806 -0.45221388
57.091801 77.53788 0
64 64 0
61.390648 69.098282 -0.94422305
60.991447 69.87825 -0.91093278
60.482803 70.872063 -0.8550874
59.11026 73.553802 -0.89462346
57.214348 77.258133 -0.83003622
56.610977 78.437027 -0.45293945
57.044621 77.589752 0
64 64 0
61.366428 69.130302 -0.95074278
60.988926 69.865692 -0.90954977
60.474503 70.867813 -0.8550874
59.091686 73.5616 -0.89590776
57.217232 77.213104 -0.82772988
56.614895 78.386482 -0.45163333
57.03059 77.576698 0
64 64 0
61.353439 69.140305 -0.95318848
61.011696 69.804062 -0.90055233
60.475513 70.845474 -0.85283589
59.082493 73.551079 -0.89547855
57.198906 77.209496 -0.82801789
56.571358 78.42836 -0.45322946
56.992748 77.609909 0
64 64 0
61.35857 69.11515 -0.94911444
60.970161 69.86731 -0.91093278
60.457916 70.859268 -0.8550874
59.082733 73.522331 -0.89333916
57.190063 77.187492 -0.82715386
56.580151 78.368599 -0.45163333
56.971527 77.610687 0
64 64 0
61.370579 69.076836 -0.94259471
60.979218 69.832466 -0.9060896
60.444962 70.863998 -0.85621208
59.085392 73.489037 -0.89077216
57.174133 77.179253 -0.82715386
56.529339 78.424217 -0.45366502
56.938328 77.634544 0
64 64 0
61.389515 69.025398 -0.93362927
60.983738 69.806557 -0.90262949
60.436668 70.859703 -0.85621208
