# .PCD v0.7 - Point Cloud Data file format
VERSION 0.7
FIELDS x y z
SIZE 4 4 4
TYPE F F F
COUNT 1 1 1
WIDTH 1921
HEIGHT 1
VIEWPOINT 0 0 0 1 0 0 0
POINTS 1921
DATA ascii
64 64 -0
64 64 -0
64 64 -0
64 64 -0
64 64 -0
79.974411 69.740242 0
87.562492 72.466942 0.69925159
64 64 -0
64 64 -0
64 64 -0
64 64 -0
64 64 -0
79.987053 69.766602 0
87.694008 72.546539 0.70346051
64 64 -0
64 64 -0
64 64 -0
64 64 -0
64 64 -0
79.984978 69.787697 0
87.796036 72.615852 0.70679832
64 64 -0
64 64 -0
64 64 -0
64 64 -0
64 64 -0
79.992638 69.812332 0
87.805145 72.651703 0.70737886
64 64 -0
64 64 -0
64 64 -0
64 64 -0
64 64 -0
79.973663 69.849174 0
87.837852 72.728859 0.70897549
64 64 -0
64 64 -0
64 64 -0
64 64 -0
64 64 -0
79.971466 69.87027 0
87.807777 72.750488 0.70839494
64 64 -0
64 64 -0
64 64 -0
64 64 -0
64 64 -0
80.003426 69.903976 0
87.894699 72.815224 0.71129775
64 64 -0
64 64 -0
64 64 -0
64 64 -0
64 64 -0
79.971878 69.914268 0
87.840157 72.827843 0.7099911
64 64 -0
64 64 -0
64 64 -0
64 64 -0
64 64 -0
79.998878 69.946259 0
87.858711 72.867508 0.71086222
64 64 -0
64 64 -0
64 64 -0
64 64 -0
64 64 -0
80.006294 69.971039 0
87.88205 72.909035 0.71187776
64 64 -0
64 64 -0
64 64 -0
64 64 -0
64 64 -0
80.042953 70.006805 0
87.842072 72.926956 0.71100718
64 64 -0
64 64 -0
64 64 -0
64 64 -0
64 64 -0
80.050285 70.031677 0
87.841011 72.959419 0.71129775
64 64 -0
64 64 -0
64 64 -0
64 64 -0
64 64 -0
80.042984 70.051064 0
87.844742 72.993713 0.71173275
64 64 -0
64 64 -0
64 64 -0
64 64 -0
64 64 -0
80.05027 70.075974 0
87.81929 73.017006 0.71129775
64 64 -0
64 64 -0
64 64 -0
64 64 -0
64 64 -0
80.02832 70.089821 0
87.808372 73.045784 0.71129775
64 64 -0
64 64 -0
64 64 -0
64 64 -0
64 64 -0
80.025826 70.111038 0
87.831406 73.087502 0.71231329
64 64 -0
64 64 -0
64 64 -0
64 64 -0
64 64 -0
80.036705 70.126289 0
87.82106 73.100044 0.71216834
64 64 -0
64 64 -0
64 64 -0
64 64 -0
64 64 -0
80.073029 70.16243 0
87.834305 73.138123 0.71289384
64 64 -0
64 64 -0
64 64 -0
64 64 -0
64 64 -0
80.05101 70.176247 0
87.818398 73.165047 0.71274889
64 64 -0
64 64 -0
64 64 -0
64 64 -0
64 64 -0
80.072655 70.206879 0
87.836388 73.205048 0.71361941
64 64 -0
64 64 -0
64 64 -0
64 64 -0
64 64 -0
80.07486 70.230064 0
87.796181 73.22258 0.71274889
64 64 -0
64 64 -0
64 64 -0
64 64 -0
64 64 -0
80.086723 70.257027 0
87.814072 73.262627 0.71361941
64 64 -0
64 64 -0
64 64 -0
64 64 -0
64 64 -0
80.069443 70.272675 0
87.798027 73.289505 0.71347445
64 64 -0
64 64 -0
64 64 -0
64 64 -0
80.066696 70.293983 0
87.801308 73.323944 0.71390998
64 64 -0
64 64 -0
64 64 -0
64 64 -0
64 64 -0
80.083298 70.322914 0
87.799683 73.356491 0.71419996
64 64 -0
64 64 -0
64 64 -0
64 64 -0
80.056297 70.334709 0
87.79319 73.387154 0.71434498
64 64 -0
64 64 -0
64 64 -0
64 64 -0
80.063133 70.359848 0
87.762527 73.408249 0.71376497
64 64 -0
64 64 -0
64 64 -0
64 64 -0
80.045776 70.375412 0
87.770439 73.444626 0.71434498
64 64 -0
64 64 -0
64 64 -0
64 64 -0
80.062225 70.404427 0
87.768677 73.477188 0.71463555
64 64 -0
64 64 -0
64 64 -0
64 64 -0
80.083466 70.435432 0
87.781326 73.515556 0.71536112
64 64 -0
64 64 -0
64 64 -0
64 64 -0
80.075676 70.454857 0
87.784286 73.550095 0.71579665
64 64 -0
64 64 -0
64 64 -0
64 64 -0
80.082352 70.480118 0
87.796822 73.588531 0.71652222
64 64 -0
64 64 -0
64 64 -0
64 64 -0
80.07933 70.501495 0
87.785217 73.617279 0.71652222
64 64 -0
64 64 -0
64 64 -0
64 64 -0
80.071465 70.52092 0
87.788033 73.651878 0.71695775
64 64 -0
64 64 -0
64 64 -0
64 64 -0
80.068405 70.542297 0
87.790779 73.686485 0.7173928
64 64 -0
64 64 -0
64 64 -0
64 64 -0
80.065308 70.563675 0
87.779053 73.715225 0.7173928
64 64 -0
64 64 -0
64 64 -0
64 64 -0
80.075775 70.579292 0
87.763573 73.725662 0.71710277
64 64 -0
64 64 -0
64 64 -0
64 64 -0
80.087074 70.606621 0
87.79026 73.770157 0.71826386
64 64 -0
64 64 -0
64 64 -0
64 64 -0
80.050209 70.614159 0
87.836098 73.822662 0.72000557
64 64 -0
64 64 -0
64 64 -0
64 64 -0
80.066254 70.643494 0
87.785789 73.835564 0.71884447
64 64 -0
64 64 -0
64 64 -0
79.98394 70.63208 -0.48330191
80.072639 70.668884 0
87.783478 73.868279 0.71913445
64 64 -0
64 64 -0
64 64 -0
64 64 -0
80.074173 70.692299 0
87.785934 73.903 0.71956998
64 64 -0
64 64 -0
64 64 -0
64 64 -0
80.066071 70.711716 0
87.778748 73.933739 0.719715
64 64 -0
64 64 -0
64 64 -0
64 64 -0
80.062767 70.733139 0
87.781113 73.968491 0.72015059
64 64 -0
64 64 -0
64 64 -0
64 64 -0
80.073814 70.76062 0
87.773834 73.999229 0.72029555
64 64 -0
64 64 -0
64 64 -0
64 64 -0
80.070419 70.782059 0
87.752167 74.023911 0.72000557
64 64 -0
64 64 -0
64 64 -0
64 64 -0
80.076584 70.807556 0
87.763962 74.062737 0.72073114
64 64 -0
64 64 -0
64 64 -0
64 64 -0
80.077934 70.831047 0
87.799606 74.111763 0.72218221
64 64 -0
64 64 -0
64 64 -0
64 64 -0
80.060081 70.846382 0
87.773041 74.134399 0.72174722
64 64 -0
64 64 -0
64 64 -0
64 64 -0
80.075745 70.876022 0
87.770325 74.167206 0.72203726
64 64 -0
64 64 -0
64 64 -0
64 64 -0
80.076981 70.899544 0
87.829666 74.226662 0.72421449
64 64 -0
64 64 -0
64 64 -0
64 64 -0
80.068626 70.918968 0
87.783875 74.241058 0.72319835
64 64 -0
64 64 -0
64 64 -0
64 64 -0
80.079369 70.946632 0
87.800095 74.28215 0.72406888
64 64 -0
64 64 -0
64 64 -0
64 64 -0
80.066193 70.963989 0
87.787651 74.310905 0.72406888
64 64 -0
64 64 -0
64 64 -0
64 64 -0
80.05777 70.983398 0
87.794243 74.347931 0.72464949
64 64 -0
64 64 -0
64 64 -0
80.123077 71.034981 -0.49128416
80.063629 71.009041 0
87.796013 74.382912 0.72508502
64 64 -0
64 64 -0
64 64 -0
64 64 -0
80.064163 71.020828 0
87.78022 74.393127 0.72479504
64 64 -0
64 64 -0
64 64 -0
64 64 -0
80.069969 71.046509 0
87.800949 74.436455 0.72581059
64 64 -0
64 64 -0
64 64 -0
64 64 -0
80.066208 71.068008 0
87.812103 74.47567 0.72653615
64 64 -0
64 64 -0
64 64 -0
80.083664 71.0989 -0.49099359
80.076698 71.095825 0
64 64 0
64 64 -0
64 64 -0
64 64 -0
80.174866 71.162514 -0.49404138
80.072868 71.117355 0
64 64 0
64 64 -0
64 64 -0
64 64 -0
80.009476 71.112427 -0.48925191
80.059509 71.134659 0
64 64 0
64 64 -0
64 64 -0
64 64 -0
80.21447 71.226974 -0.49578306
80.050873 71.154053 0
87.751709 74.586411 0.72624612
64 64 -0
64 64 -0
64 64 -0
80.077644 71.189285 -0.49186471
80.046967 71.175568 0
87.757874 74.623581 0.72682673
64 64 -0
64 64 -0
64 64 -0
64 64 -0
80.047768 71.199211 0
87.763992 74.660789 0.72740728
64 64 -0
64 64 -0
64 64 -0
80.164474 71.27504 -0.49505749
80.067551 71.231415 0
87.751091 74.689499 0.72740728
64 64 -0
64 64 -0
64 64 -0
80.131989 71.283875 -0.49433196
80.049301 71.246536 0
87.74762 74.722458 0.72769725
64 64 -0
64 64 -0
64 64 -0
80.180573 71.352936 -0.49636361
80.102829 71.317604 0
87.750031 74.792725 0.72856838
64 64 -0
64 64 -0
64 64 -0
80.029823 71.307808 -0.4920097
80.075027 71.328423 0
87.76062 74.832191 0.72929394
64 64 -0
64 64 -0
64 64 -0
80.134407 71.379051 -0.49549305
80.056686 71.343506 0
87.766418 74.869537 0.72987449
64 64 -0
64 64 -0
64 64 -0
80.120743 71.39637 -0.4953475
80.095123 71.384613 0
87.748543 74.89608 0.72972947
64 64 -0
64 64 -0
64 64 -0
80.088196 71.404976 -0.49462193
80.048355 71.386642 0
87.76368 74.937805 0.73060006
64 64 -0
64 64 -0
64 64 -0
80.201904 71.481049 -0.49839529
80.07251 71.421303 0
76.266899 69.664108 0.37734869
64 64 -0
64 64 -0
64 64 -0
80.107979 71.461311 -0.49578306
80.049355 71.434151 0
76.212906 69.657089 0.37589759
64 64 -0
64 64 -0
64 64 -0
80.047104 71.456673 -0.49418637
80.045074 71.455734 0
76.229614 69.682785 0.37662312
64 64 -0
64 64 -0
64 64 -0
64 64 -0
80.054726 71.472015 0
76.221474 69.687988 0.37647814
64 64 -0
64 64 -0
64 64 -0
76.789276 69.971054 -0.394191
80.073975 71.504616 0
76.20517 69.698349 0.37618756
64 64 -0
64 64 -0
64 64 -0
76.598503 69.900536 -0.38853043
80.060188 71.521828 0
76.170044 69.699867 0.37531701
64 64 -0
64 64 -0
64 64 -0
76.581963 69.911339 -0.38824043
80.069931 71.550079 0
76.172546 69.718987 0.37560701
64 64 -0
64 64 -0
64 64 -0
76.560707 69.919891 -0.38780487
80.079628 71.578369 0
76.156235 69.729263 0.37531701
64 64 -0
64 64 -0
64 64 -0
76.468987 69.895088 -0.38519263
80.051636 71.58889 0
76.130508 69.735062 0.37473646
64 64 -0
76.518196 69.936874 -0.38693431
80.028343 71.601593 0
76.109482 69.743034 0.3743009
76.427315 69.91217 -0.76696306
76.586082 69.987701 -0.38925597
76.381378 69.89032 0
76.102531 69.75766 0.3743009
76.522865 69.976196 -0.77330494
76.499115 69.964859 -0.38678876
76.355461 69.896309 0
76.090881 69.770042 0.37415591
76.440979 69.955582 -0.76869226
76.402847 69.937332 -0.38403153
76.306076 69.891006 0
76.065147 69.775673 0.37357533
76.340515 69.925827 -0.7629264
76.405022 69.95681 -0.38432151
76.284866 69.899109 0
76.058159 69.790245 0.37357533
76.282089 69.916046 -0.75975603
76.360382 69.953758 -0.38316095
76.235535 69.893623 0
76.046478 69.802559 0.37343034
76.209717 69.899376 -0.75571936
76.376564 69.979988 -0.38388652
76.233101 69.910675 0
76.006699 69.801285 0.37241423
76.216545 69.920891 -0.75658453
76.336594 69.979073 -0.38287041
76.211891 69.91864 0
76.018387 69.824852 0.37299478
76.162872 69.91304 -0.75370216
76.310661 69.984886 -0.38228986
76.186012 69.924286 0
75.955254 69.812103 0.3712531
76.155716 69.927727 -0.75370216
76.270721 69.98381 -0.38127372
76.174171 69.936729 0
75.878166 69.792381 0.36907643
76.139244 69.937859 -0.75312501
76.249489 69.991791 -0.38083872
76.134254 69.935425 0
75.633087 69.690277 0.36167476
76.12278 69.947975 -0.75254899
76.251564 70.011162 -0.38112873
76.145767 69.959251 0
75.570221 69.676865 0.35993308
76.087723 69.948906 -0.75081867
76.262939 70.035141 -0.38170928
76.124542 69.967026 0
75.558693 69.688545 0.35978806
76.080528 69.963509 -0.75081867
76.237 70.040749 -0.38112873
76.107994 69.977066 0
75.551811 69.702507 0.35978806
76.073318 69.978104 -0.75081867
76.21106 70.04631 -0.38054818
76.114746 69.998611 0
75.568192 69.727989 0.36051363
64 64 -0
76.253975 70.076775 -0.38199985
76.092484 69.996689 0
75.620598 69.76268 0.36225531
76.016151 69.976936 -0.74793631
76.232658 70.084633 -0.38156429
76.117836 70.027519 0
75.669464 69.804497 0.36399698
76.018173 69.996071 -0.74851233
64 64 -0
76.110542 70.042152 0
75.685692 69.830185 0.36472252
75.997055 70.003647 -0.7476483
76.231865 70.121155 -0.38199985
76.098587 70.054459 0
75.74369 69.876862 0.3667542
64 64 -0
76.215164 70.131264 -0.38170928
76.105225 70.07608 0
75.755157 69.900368 0.36733475
64 64 -0
76.212387 70.148354 -0.3818543
76.05603 70.069641 0
75.757301 69.919243 0.36762476
75.984436 70.051758 -0.74822432
76.172485 70.146713 -0.38083872
76.062614 70.091232 0
75.787247 69.952179 0.36878589
75.949432 70.052216 -0.74649513
76.141876 70.149681 -0.38011318
76.069183 70.112862 0
75.840317 69.996941 0.37067255
75.974388 70.083038 -0.74851233
76.148323 70.171402 -0.38054818
76.07106 70.132149 0
75.925728 70.058319 0.37357533
75.925552 70.07637 -0.74591798
76.131607 70.181358 -0.38025817
76.059006 70.144371 0
75.932297 70.079803 0.37401089
75.932022 70.097839 -0.74678314
64 64 -0
64 64 0
64 64 0
75.938461 70.119331 -0.7476483
76.088875 70.196434 -0.37938705
76.071922 70.187744 0
64 64 0
75.949455 70.143219 -0.74880147
76.06752 70.203911 -0.37895206
76.073685 70.207085 0
75.933281 70.134895 0.37473646
64 64 -0
75.932823 70.152901 -0.74822432
76.064636 70.220871 -0.37909704
76.047676 70.212128 0
75.921242 70.146935 0.37459147
64 64 -0
75.934578 70.172073 -0.74880147
76.034035 70.223511 -0.37837151
76.054031 70.233856 0
75.923035 70.166107 0.37488145
64 64 -0
75.940872 70.193626 -0.7496655
76.026505 70.238045 -0.37837151
76.032623 70.241219 0
75.920181 70.182899 0.37502646
64 64 -0
75.93338 70.208054 -0.7496655
76.046608 70.26696 -0.37924206
76.025078 70.255753 0
75.912704 70.197296 0.37502646
64 64 -0
75.925873 70.222466 -0.7496655
76.043633 70.283913 -0.37938705
76.035965 70.279915 0
75.905205 70.211685 0.37502646
75.932098 70.244072 -0.75053066
76.040649 70.300873 -0.37953261
76.009926 70.284798 0
75.920731 70.238121 0.37575257
75.929123 70.260887 -0.75081867
76.046814 70.322655 -0.3799676
76.020752 70.308983 0
75.89016 70.24044 0.37502646
75.907829 70.268074 -0.74995464
76.039169 70.337212 -0.3799676
76.013123 70.323502 0
75.878014 70.25238 0.37488145
75.92234 70.284912 -0.75110781
76.049133 70.351753 -0.38040316
76.000099 70.325905 0
75.874237 70.259552 0.37488145
75.937599 70.311401 -0.75254899
76.0047 70.346878 -0.37924206
76.010857 70.350136 0
75.866661 70.273895 0.37488145
75.88884 70.304016 -0.74995464
76.024574 70.375992 -0.38011318
76.003174 70.364639 0
75.836121 70.276062 0.37415591
75.88121 70.318375 -0.74995464
76.026031 70.395386 -0.38040316
75.995476 70.379143 0
75.823944 70.287918 0.37401089
75.887253 70.340027 -0.75081867
76.018295 70.409912 -0.38040316
75.983154 70.391174 0
75.816338 70.3022 0.37401089
64 64 -0
75.884155 70.356827 -0.75110781
76.024292 70.431786 -0.38083872
75.993782 70.415466 0
75.822464 70.323837 0.37444645
64 64 -0
75.885574 70.376068 -0.75168383
76.007347 70.441399 -0.38054818
75.990601 70.432411 0
75.814819 70.338112 0.37444645
75.89608 70.40023 -0.752837
75.99955 70.455902 -0.38054818
75.996574 70.4543 0
75.811722 70.354843 0.37459147
75.883789 70.412148 -0.75254899
76.014603 70.482727 -0.38127372
75.993347 70.47126 0
75.817741 70.376511 0.37502646
75.903328 70.441269 -0.75427818
76.015915 70.502197 -0.38156429
76.012993 70.50061 0
75.819183 70.395737 0.37531701
75.922821 70.470459 -0.75600851
75.998901 70.511749 -0.38127372
76.028 70.527534 0
75.811447 70.410011 0.37531701
75.960419 70.509583 -0.75889087
76.022987 70.543633 -0.38228986
76.038391 70.552017 0
75.853905 70.451607 0.3769137
75.970711 70.533943 -0.76004404
76.019623 70.560638 -0.38243484
76.057869 70.581512 0
75.873459 70.480865 0.37778425
76.036499 70.607658 -0.76523274
76.044754 70.612183 -0.38374153
76.092117 70.638191 0
75.921539 70.54454 0.37981594
76.023979 70.619705 -0.76494473
76.073158 70.646774 -0.38490209
76.102325 70.662834 0
75.931831 70.56897 0.38039649
76.034088 70.644226 -0.7660979
76.083313 70.671402 -0.38548264
76.103371 70.68248 0
75.928429 70.585892 0.38054147
76.02153 70.656258 -0.76580989
76.05706 70.675934 -0.38490209
76.104408 70.702148 0
75.938644 70.610367 0.38112205
76.036087 70.683334 -0.76725107
76.08989 70.713211 -0.38620874
76.119049 70.729401 0
75.962463 70.642448 0.38213816
76.018951 70.692833 -0.76667392
76.099907 70.737915 -0.38678876
76.124557 70.75164 0
75.981659 70.672066 0.38300872
76.037964 70.722488 -0.76840425
76.128059 70.772804 -0.38794985
76.130005 70.773888 0
75.969055 70.684006 0.3828637
76.025322 70.734505 -0.76811624
76.138 70.797607 -0.38853043
76.130905 70.793633 0
75.997246 70.718781 0.38402483
76.039284 70.751877 -0.76926827
76.161102 70.820198 -0.38940156
76.122261 70.798416 0
75.965996 70.710777 0.38315427
76.040146 70.7715 -0.76984543
76.175491 70.847626 -0.39012709
76.132187 70.823265 0
87.381088 77.149765 0.7491768
76.049973 70.796204 -0.7709986
76.185318 70.872543 -0.39070767
76.10125 70.825127 0
87.365189 77.178009 0.7491768
76.028244 70.803116 -0.77013344
76.190582 70.894936 -0.3911432
80.097809 73.104851 0
87.349243 77.20623 0.7491768
76.033516 70.82531 -0.7709986
80.114769 73.14016 -0.5174076
80.082253 73.121719 0
87.342316 77.239563 0.74946731
76.011765 70.832169 -0.77013344
80.108246 73.162201 -0.51755315
80.080276 73.146294 0
87.344376 77.278038 0.75004792
75.999016 70.844116 -0.76984543
80.101669 73.184235 -0.51769817
80.07373 73.168297 0
87.341843 77.31395 0.75048292
76.004211 70.866318 -0.77071059
80.090561 73.203682 -0.51769817
80.080711 73.198044 0
87.343781 77.35247 0.75106347
75.991402 70.878235 -0.77042145
80.106468 73.238625 -0.51856869
80.083138 73.225243 0
87.341156 77.388428 0.751499
75.96067 70.879829 -0.76898026
80.104309 73.263268 -0.51885927
80.062943 73.239471 0
87.333984 77.421806 0.75178957
75.97924 70.90979 -0.77071059
80.102104 73.28791 -0.51914924
80.078827 73.274483 0
87.317749 77.449989 0.75178957
75.966393 70.921661 -0.77042145
80.113358 73.320366 -0.51987481
80.067612 73.293907 0
87.346458 77.504173 0.7532407
75.958023 70.936111 -0.77042145
80.111084 73.345047 -0.52016538
80.060867 73.315926 0
87.339104 77.537582 0.75353068
75.985405 70.971359 -0.77272779
80.104263 73.367119 -0.5203104
80.063103 73.343178 0
87.331726 77.570999 0.75382125
75.954636 70.972809 -0.77128661
80.092934 73.386574 -0.5203104
80.065277 73.370438 0
87.319794 77.601799 0.75396627
75.973 71.00293 -0.77301693
80.068123 73.398132 -0.51987481
80.085396 73.408241 0
87.334747 77.648338 0.75498235
75.968987 71.020004 -0.77330494
80.088135 73.435951 -0.52089095
80.051575 73.414505 0
87.331673 77.684402 0.75541735
75.982788 71.047569 -0.77474612
80.094643 73.465919 -0.5214715
80.067093 73.449722 0
87.328568 77.72049 0.75585294
76.005455 71.080444 -0.77676445
80.07872 73.482727 -0.52132648
80.087051 73.48764 0
87.316444 77.751305 0.7559979
79.28717 73.04081 -0.98980063
80.080658 73.510071 -0.52176148
80.057663 73.496475 0
87.317703 77.790054 0.75657851
79.307388 73.077744 -0.99181896
80.095985 73.54541 -0.5226326
80.073029 73.531792 0
87.314438 77.826172 0.75701404
79.296402 73.096237 -0.99181896
80.075493 73.559532 -0.52234203
80.065979 73.553879 0
87.320045 77.867607 0.7577396
79.290909 73.105476 -0.99181896
80.083115 73.577225 -0.52277762
80.073608 73.571564 0
87.333984 77.894989 0.75846517
79.25769 73.110687 -0.99037778
80.084923 73.604645 -0.52321315
80.062035 73.590973 0
87.321655 77.925842 0.75861073
79.242241 73.126465 -0.99008977
80.091141 73.63475 -0.5237937
80.086159 73.631767 0
87.322639 77.964691 0.75919127
79.235626 73.14753 -0.99037778
80.083939 73.65686 -0.52393872
80.065598 73.645844 0
87.319107 78.000885 0.75962627
79.220139 73.163269 -0.99008977
80.072258 73.676285 -0.52393872
80.0896 73.686729 0
87.324432 78.04245 0.76035184
79.204613 73.17897 -0.98980063
80.073906 73.703758 -0.52437431
80.082336 73.708847 0
87.320793 78.078682 0.76078737
79.206795 73.205376 -0.99066579
80.084396 73.736626 -0.52509981
80.079491 73.733658 0
87.312668 78.112236 0.76107794
79.191238 73.221062 -0.99037778
80.090385 73.766846 -0.52568042
80.076622 73.758492 0
87.300034 78.143089 0.76122296
79.162415 73.228653 -0.98922461
80.091896 73.794388 -0.52611595
80.064819 73.777908 0
87.318443 78.192848 0.76238406
79.164505 73.255051 -0.99008977
80.093346 73.821938 -0.52655095
80.061874 73.802727 0
87.30571 78.223717 0.76252908
79.162125 73.278763 -0.99066579
80.081467 73.841377 -0.52655095
80.072212 73.835709 0
87.319542 78.270859 0.76354516
79.159729 73.302498 -0.99124295
80.091705 73.87439 -0.52727652
80.064758 73.857857 0
87.319992 78.309898 0.7641257
79.11763 73.301826 -0.98922461
80.079765 73.893822 -0.52727652
80.066124 73.885437 0
87.311531 78.343506 0.76441574
79.088768 73.309219 -0.98807144
80.067795 73.913246 -0.52727652
80.067459 73.91304 0
87.316292 78.385307 0.76514131
79.103897 73.343773 -0.98980063
80.064651 73.938126 -0.52756709
80.073181 73.943405 0
87.303314 78.416199 0.76528627
79.092598 73.362015 -0.98980063
80.070297 73.968491 -0.52814764
80.052315 73.957336 0
87.321205 78.466263 0.76644742
79.085678 73.38298 -0.99008977
80.084709 74.004364 -0.52901816
80.06678 73.99321 0
87.290482 78.486206 0.76601243
79.083099 73.406677 -0.99066579
80.090248 74.03479 -0.52959877
80.059113 74.015366 0
87.295006 78.528084 0.76673794
79.062958 73.419411 -0.99008977
80.07811 74.054222 -0.52959877
80.055832 74.040291 0
87.295059 78.567245 0.76731855
79.069099 73.448601 -0.99124295
80.065948 74.073647 -0.52959877
80.061325 74.07074 0
87.312668 78.617462 0.76847965
79.04586 73.446701 -0.99008977
80.095078 74.105453 -0.53075987
80.059647 74.083206 0
87.308228 78.634308 0.76862466
79.038811 73.467628 -0.99037778
80.069656 74.116592 -0.53032428
80.069466 74.11647 0
87.308121 78.673538 0.76920521
79.001106 73.469215 -0.98864746
80.079407 74.149872 -0.53105044
80.066025 74.141434 0
87.303558 78.710014 0.76964074
79.002769 73.495636 -0.98951262
80.067123 74.169296 -0.53105044
80.058167 74.163628 0
87.320877 78.760384 0.77080131
78.982559 73.508224 -0.9889366
80.07238 74.199844 -0.53163099
80.07663 74.202538 0
87.311813 78.794128 0.77109188
78.988518 73.53743 -0.99008977
80.060043 74.219254 -0.53163099
80.090645 74.238724 0
87.302681 78.827858 0.77138186
78.985695 73.561089 -0.99066579
80.073959 74.255417 -0.53250152
80.065094 74.249763 0
87.297897 78.864395 0.77181745
78.978485 73.58197 -0.9909538
80.083443 74.288834 -0.53322709
80.052696 74.269165 0
87.284286 78.895332 0.7719624
78.945129 73.586105 -0.98951262
80.066628 74.305458 -0.53308207
80.06218 74.302605 0
87.30127 78.9459 0.77312356
78.950935 73.615349 -0.99066579
80.089134 74.347351 -0.53424323
80.06723 74.333267 0
87.287575 78.97686 0.77326912
78.943649 73.636208 -0.9909538
80.063515 74.35833 -0.53380764
80.063492 74.358322 0
87.308769 79.030334 0.77457523
78.914619 73.643021 -0.98980063
80.068443 74.389023 -0.53438818
80.064064 74.386192 0
87.303665 79.066948 0.77501023
78.911652 73.666672 -0.99037778
80.06459 74.414078 -0.53467822
80.06897 74.416916 0
87.302887 79.1064 0.77559078
77.172119 72.584274 -0.87621951
80.056793 74.464218 -0.53525877
80.069923 74.472778 0
87.301147 79.185371 0.77675188
77.209373 72.63131 -0.87939101
80.044136 74.483612 -0.53525877
80.065964 74.497879 0
87.274094 79.207832 0.7764619
77.16864 72.627419 -0.87737268
80.070595 74.528633 -0.53656542
80.053268 74.517281 0
87.281769 79.253029 0.77733243
77.123619 72.620605 -0.87506634
80.040482 74.536629 -0.53598487
80.057953 74.548103 0
87.27636 79.289711 0.77776802
78.880051 73.800125 -0.99297214
80.062447 74.578857 -0.53714544
80.053894 74.573227 0
87.283897 79.334969 0.77863854
78.868202 73.8181 -0.99297214
80.062668 74.606857 -0.53758103
80.049789 74.598351 0
87.278366 79.371689 0.77907413
78.888145 73.844193 -0.99470133
80.056259 74.616554 -0.53758103
80.060745 74.619522 0
87.27774 79.391472 0.77936411
78.923676 73.893616 -0.99787283
80.043411 74.635948 -0.53758103
80.065254 74.650429 0
87.280792 79.433952 0.78009021
80.043541 74.663963 -0.53801656
80.052376 74.66983 0
87.279442 79.473579 0.78067082
80.052261 74.697746 -0.53874213
80.065453 74.706535 0
87.278023 79.513229 0.78125137
80.030693 74.711365 -0.53845209
80.061165 74.731728 0
87.289497 79.561546 0.78226691
80.043633 74.748077 -0.53932267
80.056824 74.756912 0
87.313858 79.618607 0.78371859
80.043579 74.776154 -0.53975821
80.056786 74.785019 0
87.320847 79.664146 0.78458917
80.021919 74.789719 -0.53946769
80.069656 74.821861 0
87.327759 79.709724 0.7854597
80.039024 74.82943 -0.54048377
80.056564 74.84127 0
87.489647 79.860031 0.79155529
80.043137 74.860451 -0.54106432
80.052063 74.866493 0
87.827652 80.130196 0.80360144
80.0214 74.873985 -0.54077381
80.060455 74.900497 0
88.203728 80.427467 0.81695372
80.025436 74.905029 -0.54135436
80.047272 74.919891 0
87.913193 80.272522 0.80781037
80.029419 74.936104 -0.54193491
80.068466 74.962738 0
87.661697 80.14325 0.79997307
80.01619 74.955467 -0.54193491
80.059494 74.985085 0
87.286171 79.928307 0.78792691
80.015808 74.983627 -0.54237044
80.054802 75.010376 0
87.202629 79.912354 0.78575027
80.053909 75.038307 -0.54411215
80.054344 75.038605 0
87.123444 79.899162 0.78371859
80.023445 75.045898 -0.5435316
80.045288 75.060959 0
87.09565 79.921181 0.78342801
80.040016 75.085938 -0.54454768
80.053322 75.095131 0
87.063568 79.940208 0.78299248
76.799782 72.869347 -0.8678593
80.013794 75.096428 -0.54411215
80.031342 75.108589 0
87.061371 79.979904 0.78357303
76.81031 72.899574 -0.86930162
80.043045 75.145416 -0.54556322
80.052101 75.151703 0
87.148743 80.081886 0.78720134
76.817657 72.916168 -0.87016565
80.014977 75.140266 -0.54483771
80.049644 75.164383 0
87.241417 80.167091 0.7906847
76.819611 72.940529 -0.87103081
80.022812 75.174469 -0.54556322
80.048935 75.192688 0
87.353989 80.287308 0.7951836
76.766411 72.926376 -0.86814845
79.992264 75.181915 -0.54498267
80.061005 75.22998 0
87.36837 80.33934 0.79634476
76.764084 72.947723 -0.86872447
79.974487 75.19825 -0.54483771
80.051682 75.252357 0
87.369881 80.382477 0.79707032
76.525642 72.803169 -0.42757112
80.038071 75.271744 0
87.341576 80.404732 0.79678029
76.712814 72.957687 -0.86670613
76.493759 72.803329 -0.42684558
80.045715 75.306107 0
87.351456 80.453873 0.79779583
76.710442 72.979012 -0.86728328
76.461891 72.803429 -0.42612001
80.032043 75.325485 0
87.352798 80.49707 0.798522
76.724899 73.012299 -0.86901248
76.463959 72.827484 -0.42655501
80.043839 75.362907 0
87.307388 80.507248 0.79765087
76.697136 73.015686 -0.8678593
76.465996 72.85157 -0.42699057
80.025841 75.379257 0
87.295914 80.541428 0.79794139
76.698875 73.040024 -0.86872447
80.028366 75.41021 -0.54948217
80.046005 75.42276 0
90.679634 82.992592 0.91462743
76.637421 73.019302 -0.86526495
80.014565 75.429565 -0.54948217
80.040665 75.448196 0
90.656662 83.024811 0.91462743
76.613899 73.025543 -0.86440092
76.645142 73.047897 -0.43424726
80.039513 75.476646 0
90.642105 83.063049 0.91491741
76.577759 73.022682 -0.8626706
76.659531 73.081337 -0.43511784
80.051018 75.514229 0
90.631721 83.104324 0.915353
76.562653 73.034859 -0.86238259
76.665421 73.108765 -0.43569839
80.053993 75.545776 0
90.612839 83.139519 0.91549796
78.544724 74.487015 -0.99931401
76.645981 73.117989 -0.43540838
80.056915 75.577339 0
90.577057 83.162552 0.91506296
78.523666 74.498528 -0.99873799
76.643372 73.139343 -0.43569839
80.038689 75.593674 0
90.507545 83.161156 0.91346627
76.534004 73.083366 -0.8626706
76.63652 73.157661 -0.43584338
80.020462 75.609993 0
90.391808 83.126091 0.91027349
78.485687 74.524475 -0.99787283
76.659088 73.197365 -0.43700451
80.01062 75.632401 0
90.318222 83.121307 0.90853184
78.443687 74.520645 -0.9958545
76.656372 73.218781 -0.43729505
80.013382 75.663994 0
90.127075 83.030701 0.90272623
78.422623 74.53199 -0.99527848
76.682991 73.261642 -0.43860117
79.995079 75.680267 0
89.894234 82.909042 0.89547014
76.395256 73.063019 -0.85575157
76.727737 73.306114 -0.44034284
79.937599 75.653061 0
89.874405 82.918533 0.89517957
76.388481 73.081055 -0.85604072
76.758392 73.352203 -0.44179398
79.944511 75.687706 0
89.906013 82.989731 0.89706624
76.398338 73.111328 -0.8574819
76.797333 73.404541 -0.44353563
79.947136 75.719284 0
90.06311 83.153336 0.90330684
76.395645 73.132431 -0.85805792
76.844528 73.46315 -0.44556731
79.932968 75.738541 0
90.282608 83.363594 0.91172463
76.392929 73.153557 -0.85863507
76.891617 73.521896 -0.44759953
79.939713 75.773254 0
90.338623 83.45401 0.91448241
76.386009 73.1716 -0.85892308
76.926025 73.571472 -0.44919565
79.933838 75.798698 0
90.369385 83.526016 0.91636908
76.379074 73.189644 -0.85921109
80.043892 75.910233 -0.55804497
79.932114 75.827255 0
90.395844 83.595039 0.91811079
76.376266 73.210777 -0.85978824
80.016975 75.920303 -0.55760938
79.926155 75.852707 0
90.401321 83.648628 0.91912633
76.352684 73.216438 -0.85892308
80.019226 75.952072 -0.55818999
79.928505 75.884392 0
90.45253 83.73645 0.92173856
76.341537 73.231361 -0.85892308
77.587036 74.162979 -0.47386798
79.939148 75.92234 0
90.474442 83.802643 0.92333525
76.334511 73.249367 -0.85921109
77.587227 74.188744 -0.47430354
79.928894 75.94471 0
90.517021 83.884499 0.92565745
76.302658 73.248718 -0.85776991
77.603989 74.22702 -0.47531965
79.935249 75.979584 0
90.538658 83.950867 0.9272536
76.283218 73.257362 -0.85719389
77.620659 74.265335 -0.4763352
79.924911 76.001961 0
90.535294 83.998566 0.92797971
76.272018 73.272194 -0.85719389
80.033798 76.114426 -0.56123775
79.935326 76.040024 0
90.581596 84.083878 0.93044692
76.252556 73.280762 -0.85661674
79.998436 76.118103 -0.56051219
79.929054 76.065552 0
90.553154 84.112831 0.93030137
76.253693 73.304947 -0.8574819
80.008606 76.156273 -0.56138277
79.926903 76.094238 0
90.446068 84.082054 0.92739916
76.246552 73.322876 -0.85776991
79.998039 76.178757 -0.56152773
79.924706 76.122932 0
90.372162 84.076218 0.92565745
76.228096 73.355591 -0.85805792
76.233429 73.359665 -0.43018335
79.928436 76.186684 0
90.038803 83.922012 0.91564351
76.20858 73.364067 -0.8574819
76.209732 73.364952 -0.42974782
79.934341 76.221756 0
89.95285 83.906021 0.91346627
76.215233 73.380898 -0.85834706
76.212326 73.378662 -0.43003836
79.943474 76.244064 0
89.932587 83.915375 0.9131763
76.191589 73.386177 -0.8574819
76.184509 73.38073 -0.42945781
79.94928 76.27919 0
89.982613 84.003754 0.91578853
76.180237 73.400902 -0.8574819
76.185516 73.404976 -0.42989337
79.938553 76.301628 0
90.151772 84.184357 0.92260969
76.21386 73.450424 -0.86065227
76.161804 73.410149 -0.42945781
79.952492 76.343178 0
90.361626 84.397202 0.93088192
76.255585 73.506401 -0.86440092
76.15863 73.431198 -0.42974782
79.929337 76.356056 0
90.710625 84.718887 0.94408917
76.248169 73.524376 -0.86468893
76.130836 73.433136 -0.42916781
79.914391 76.375298 0
91.251694 85.191376 0.96411759
76.285606 73.577332 -0.86814845
76.127617 73.45417 -0.42945781
79.924065 76.413727 0
91.213768 85.214699 0.96368206
76.253632 73.576233 -0.86670613
76.132561 73.481621 -0.43003836
79.925461 76.445778 0
125.08707 111.73965 2.1652293
76.237984 73.587845 -0.86641812
76.121094 73.496277 -0.43003836
79.93499 76.484268 0
124.88206 111.69805 2.1600044
76.218262 73.596245 -0.8658421
76.117783 73.517326 -0.43032837
79.932175 76.513161 0
124.73448 111.70097 2.1568117
76.174141 73.585403 -0.86353576
76.159348 73.573753 -0.43221503
79.94976 76.558159 0
124.5584 111.68109 2.1526027
79.998413 76.627808 -0.56922001
79.946815 76.58709 0
124.48034 111.73813 2.1518772
80.011658 76.669701 -0.57023555
79.943848 76.616043 0
124.20255 111.63704 2.1440399
76.066376 73.571609 -0.85834706
79.984138 76.679352 -0.56980056
79.953049 76.654694 0
124.05945 111.64194 2.1409922
76.042648 73.576515 -0.8574819
79.985077 76.711601 -0.5703811
79.941833 76.677216 0
123.80255 111.55598 2.1338811
76.027031 73.587837 -0.85719389
79.977821 76.737381 -0.57067114
79.942787 76.709442 0
123.61501 111.52455 2.1292365
76.011383 73.599129 -0.85690475
76.105858 73.674629 -0.43279558
79.94368 76.741699 0
123.50882 111.55762 2.1274948
76.065781 73.666512 -0.43178004
79.936386 76.767456 0
123.26477 111.48003 2.1208193
76.033836 73.664818 -0.43105447
79.93718 76.799736 0
123.08174 111.45073 2.1163199
75.997856 73.65979 -0.43018335
79.950089 76.841843 0
122.89079 111.41454 2.1115303
75.970001 73.661224 -0.4296028
79.938606 76.864365 0
122.74854 111.41711 2.1084826
75.972252 73.674995 -0.42989337
79.951073 76.89035 0
122.52991 111.29909 2.1016614
75.964584 73.692719 -0.43003836
79.95166 76.922722 0
122.37985 111.29454 2.0983236
75.973038 73.723549 -0.43076393
79.952194 76.955109 0
122.23795 111.29625 2.0952759
75.989487 73.760979 -0.43178004
79.940567 76.977661 0
122.07598 111.28128 2.0915024
75.99379 73.788605 -0.43236059
79.936974 77.00679 0
121.85374 111.21671 2.085552
77.786064 75.279129 -0.99268413
75.994011 73.81295 -0.43279558
79.945404 77.045807 0
121.79665 111.28658 2.085552
77.180496 74.810287 -0.95001906
75.994202 73.837326 -0.43323115
79.937691 77.071671 0
121.62695 111.2641 2.0814879
77.183403 74.839348 -0.95117223
75.978302 73.848518 -0.43308616
79.950012 77.114044 0
121.46143 111.24458 2.0775697
77.377853 75.026344 -0.96616232
75.926292 73.829933 -0.43163502
79.9422 77.139938 0
121.38826 111.30077 2.0769892
77.719421 75.335739 -0.99181896
75.890366 73.824471 -0.43076393
79.946365 77.175766 0
121.17883 111.24429 2.0714741
77.725632 75.368805 -0.99326015
75.846466 73.812309 -0.4296028
79.946472 77.208305 0
121.04967 111.25368 2.068862
77.699959 75.375473 -0.99239612
75.794624 73.793427 -0.4281517
79.950516 77.244186 0
120.8566 111.20971 2.0639274
77.666313 75.375465 -0.9909538
75.786774 73.810989 -0.42829669
79.950508 77.276764 0
120.68369 111.18196 2.0597184
77.676392 75.411865 -0.99268413
75.790871 73.838547 -0.42887723
79.946442 77.306038 0
120.5229 111.16386 2.0559452
77.761787 75.511353 -0.99989116
75.862679 73.922798 -0.43192503
79.930359 77.325294 0
120.35426 111.13876 2.0518813
77.743896 75.524635 -0.99960202
75.918373 73.993889 -0.43439227
79.930199 77.35791 0
120.25346 111.17009 2.0502851
75.954025 74.048409 -0.43613395
79.93396 77.39389 0
120.1288 111.18118 2.0478179
75.933922 74.056145 -0.43584338
79.937668 77.429901 0
119.98431 111.17529 2.0446246
75.917801 74.067207 -0.43569839
79.937332 77.462585 0
119.7923 111.12889 2.03969
75.678749 73.889481 -0.85286921
75.917526 74.091675 -0.43613395
79.932968 77.491928 0
119.6322 111.10896 2.0359168
75.696442 73.916603 -0.8545984
75.923325 74.108963 -0.43656951
79.940697 77.515015 0
119.49275 111.04847 2.0318534
75.652931 73.903938 -0.85229319
75.911102 74.12336 -0.43656951
79.940224 77.547752 0
119.41605 111.09865 2.0311272
75.898857 74.137749 -0.43656951
79.93969 77.580505 0
119.27208 111.09143 2.0279346
75.886597 74.152115 -0.43656951
79.939095 77.613274 0
87.788475 84.317276 0.87370002
75.878265 74.169846 -0.4367145
79.930534 77.63929 0
87.767853 84.34938 0.87384504
77.610703 75.681641 -0.99960202
75.873856 74.190956 -0.43700451
79.937752 77.678871 0
87.723534 84.361168 0.87311947
77.60051 75.701462 -0.99989116
75.85759 74.201912 -0.43685949
79.929092 77.704903 0
87.687103 84.379662 0.87268448
75.490723 73.910446 -0.84566218
75.841324 74.212837 -0.4367145
79.940117 77.74794 0
64 64 0
75.506134 73.948013 -0.84768051
75.789658 74.193146 -0.43526283
79.939247 77.780807 0
109.05827 102.95663 1.6635081
75.494102 73.961906 -0.84768051
75.683098 74.125702 -0.43178004
79.942245 77.817101 0
109.05045 103.0451 1.6649598
75.501579 73.992752 -0.84912169
75.561005 74.04438 -0.42771614
79.937332 77.846596 0
117.83359 110.77145 1.9916515
75.544106 74.054199 -0.85315722
75.525352 74.037872 -0.42684558
79.936272 77.879501 0
117.75745 110.8194 1.990926
75.59819 74.125977 -0.85805792
75.493645 74.034698 -0.42612001
79.931259 77.909027 0
108.88121 103.18422 1.6639436
75.644341 74.191086 -0.86238259
75.516708 74.079384 -0.42742613
79.922279 77.935127 0
108.82601 103.23158 1.6636536
75.562027 74.143745 -0.85719389
75.524048 74.110428 -0.4281517
79.924988 77.971512 0
108.75513 103.26514 1.6627825
75.518692 74.130379 -0.85488755
75.527435 74.138069 -0.42873225
79.923729 78.004494 0
108.69205 103.30547 1.662202
75.54911 74.181915 -0.85805792
75.53466 74.169174 -0.42945781
79.922409 78.037491 0
108.62892 103.34569 1.6616215
76.389511 74.949455 -0.92147893
75.541832 74.200302 -0.43018335
79.928833 78.0774 0
108.56968 103.38927 1.6611863
76.4692 75.046745 -0.92839795
75.548943 74.231476 -0.43090892
79.935196 78.117348 0
108.4987 103.42241 1.6603153
76.513863 75.113335 -0.93272263
75.563774 74.269577 -0.43192503
79.929787 78.146957 0
108.40831 103.4382 1.6587192
76.636566 75.263336 -0.94338804
75.556786 74.300896 -0.43236059
79.935211 78.203506 0
109.64407 104.68387 1.7076283
76.723236 75.368202 -0.95088309
75.555946 74.325233 -0.43279558
79.925804 78.229698 0
109.53676 104.68707 1.7054516
76.705635 75.380119 -0.95059508
75.53186 74.328796 -0.43236059
79.924103 78.262817 0
109.44111 104.70045 1.7037098
76.722672 75.423111 -0.95290142
75.511627 74.33577 -0.43207005
79.926224 78.299431 0
77.019493 75.689613 0.48866522
76.916481 75.625343 -0.96846867
75.526176 74.374016 -0.43308616
79.924408 78.332596 0
76.997627 75.69838 0.48837468
77.12133 75.83844 -0.98489994
75.505905 74.380966 -0.43279558
79.93412 78.376221 0
64 64 0
77.195259 75.934097 -0.99153095
75.504921 74.405319 -0.43323115
79.924461 78.402458 0
76.969322 75.729752 0.48837468
77.203819 75.970871 -0.99326015
75.500046 74.426201 -0.43352172
79.934044 78.446159 0
76.951294 75.741928 0.48822966
77.181694 75.979866 -0.99268413
75.483589 74.436584 -0.43337616
79.920425 78.468903 0
76.883255 75.708641 0.48619801
77.17485 76.002747 -0.99326015
75.505554 74.481964 -0.43468282
79.914467 78.498634 0
76.87294 75.727699 0.486343
77.202362 76.057037 -0.99643165
75.51973 74.520378 -0.43569839
79.920006 78.538918 0
76.893295 75.77478 0.48764911
77.225929 76.107903 -0.99931401
75.533844 74.558853 -0.4367145
79.917778 78.572205 0
76.882881 75.793854 0.4877941
75.490448 74.544678 -0.43555337
79.907822 78.598457 0
64 64 0
75.496819 74.576141 -0.43627894
79.909325 78.635284 0
64 64 0
75.503128 74.607635 -0.43700451
79.906937 78.66861 0
76.794205 75.798203 0.48605245
75.509384 74.63916 -0.43773004
79.915955 78.712555 0
76.772308 75.806602 0.48576245
75.549889 74.702522 -0.43976229
79.943985 78.774231 0
76.74279 75.807899 0.48518187
75.894852 75.048912 -0.45340458
79.990944 78.853706 0
107.67179 104.56595 1.6646692
76.368294 75.516556 -0.47198129
79.98822 78.887199 0
77.07933 76.178627 0.49911472
76.377174 75.55278 -0.47285241
79.993042 78.927811 0
77.098793 76.226334 0.50042081
75.125587 74.409744 -0.84912169
76.385963 75.58902 -0.47372296
77.033386 76.194786 0
77.072617 76.231499 0.49998528
75.115524 74.412926 -0.84883368
76.360001 75.578743 -0.47299743
77.044998 76.220444 0
77.034889 76.210968 0.49882415
75.080307 74.405098 -0.84710336
76.364944 75.61145 -0.47372296
77.030228 76.236198 0
77.01255 76.219604 0.49853414
76.350899 75.626389 -0.47372296
77.007858 76.244804 0
76.982643 76.221069 0.49795359
76.344414 75.648438 -0.47401354
76.936264 76.206924 0
76.952744 76.222481 0.49737304
76.31144 75.645477 -0.4732874
76.868576 76.172478 0
76.930412 76.230972 0.49708247
76.872887 76.206062 -0.98864746
76.289825 75.653206 -0.47299743
76.800987 76.137886 0
76.90432 76.23587 0.49664748
76.771904 76.139648 -0.98201758
76.279495 75.671623 -0.47314242
76.748581 76.117477 0
76.870682 76.233536 0.49592137
76.517548 75.926712 -0.96356797
76.303017 75.722305 -0.47459409
76.703796 76.104164 0
76.837082 76.231163 0.49519581
76.196388 75.648857 -0.93992853
76.333931 75.78022 -0.4763352
76.670326 76.101524 0
76.78096 76.207191 0.49359968
76.283195 75.760178 -0.94771272
76.428543 75.899338 -0.48054412
76.621864 76.084427 0
76.754944 76.211838 0.49316412
76.713081 76.201241 -0.98201758
76.534134 76.029503 -0.48518857
76.6035 76.096069 0
76.72892 76.216446 0.49272859
76.75425 76.270393 -0.98634225
76.673141 76.19236 -0.49113914
76.633888 76.154594 0
76.702927 76.221016 0.49229357
76.746857 76.292969 -0.98691827
76.725723 76.272591 -0.49375138
76.619194 76.169853 0
76.673187 76.221924 0.49171302
76.754303 76.329926 -0.98864746
76.718353 76.295174 -0.49404138
76.615707 76.195946 0
76.624786 76.204727 0.4904069
76.746826 76.352539 -0.98922461
76.740814 76.34671 -0.49549305
76.604698 76.214798 0
76.587631 76.198265 0.48953578
76.746735 76.382347 -0.99037778
76.75943 76.394684 -0.49679917
76.571266 76.211891 0
76.561699 76.202599 0.48910022
64 64 -0
76.763062 76.428215 -0.49752474
76.556503 76.227074 0
76.543221 76.214142 0.48895523
76.716774 76.413116 -0.99037778
76.755463 76.450882 -0.49781474
76.50074 76.20224 0
76.524742 76.225662 0.48881024
76.698074 76.424858 -0.99008977
64 64 -0
76.482269 76.213699 0
76.48024 76.211716 0.48764911
76.686737 76.44381 -0.99037778
76.714218 76.470764 -0.49737972
76.434067 76.195969 0
76.469185 76.230423 0.4877941
76.668144 76.440598 -0.98951262
76.717796 76.489349 -0.49781474
76.408112 76.185234 0
76.454384 76.230675 0.48750412
76.642036 76.445 -0.98864746
76.69899 76.501068 -0.49766973
76.389679 76.196571 0
76.432182 76.238419 0.48721355
76.623314 76.456635 -0.98835945
76.731964 76.56385 -0.49955639
76.393448 76.229813 0
64 64 0
76.586197 76.450058 -0.98663026
76.761108 76.623085 -0.50129807
76.378662 76.244774 0
64 64 0
76.545425 76.439758 -0.98461193
76.767982 76.660446 -0.50216866
76.374954 76.270721 0
76.391441 76.287071 0.48735911
76.523056 76.447624 -0.98403591
76.741631 76.664879 -0.50173366
64 64 0
76.409752 76.335007 0.48866522
76.493347 76.448143 -0.98288274
76.715271 76.669258 -0.50129807
76.393188 76.348351 0
76.409569 76.364662 0.4892458
76.467316 76.452255 -0.98201758
76.688919 76.673592 -0.50086254
76.389313 76.374352 0
76.401962 76.386986 0.48953578
76.430328 76.445358 -0.98028839
76.666252 76.681572 -0.5005725
76.374352 76.389313 0
76.39801 76.412994 0.48997134
76.397018 76.442039 -0.97884607
76.643578 76.689499 -0.50028199
76.370399 76.415321 0
76.394005 76.439018 0.4904069
76.385635 76.460686 -0.97913522
76.606262 76.682655 -0.4994114
76.370064 76.445023 0
76.40094 76.476089 0.49127746
76.363274 76.468292 -0.97855806
76.583618 76.690506 -0.4991214
76.358681 76.463654 0
76.389511 76.494751 0.49142247
76.326378 76.461159 -0.97682887
76.557304 76.694611 -0.49868584
76.369225 76.504471 0
76.385376 76.520798 0.49185801
76.278618 76.442909 -0.97423452
76.498154 76.66539 -0.49694419
76.376053 76.541649 0
76.399445 76.565353 0.49301913
76.25631 76.450356 -0.97365737
76.482841 76.680481 -0.49694419
76.375488 76.571426 0
76.402473 76.598839 0.4937447
76.194138 76.417183 -0.96990985
76.456581 76.684425 -0.49650863
76.393112 76.619789 0
76.394516 76.621223 0.49403471
76.197227 76.450378 -0.97135103
76.423065 76.680908 -0.49578306
76.381493 76.638474 0
76.401085 76.65847 0.4949058
76.149635 76.431816 -0.96875668
76.393204 76.681046 -0.49520251
76.377129 76.664597 0
76.396683 76.684601 0.49534136
76.127388 76.439087 -0.96818066
76.370628 76.688576 -0.49491251
76.36908 76.686989 0
76.377708 76.695839 0.49519581
76.123161 76.464844 -0.96904469
76.351654 76.699776 -0.49476695
76.350113 76.698196 0
76.376854 76.725685 0.49577636
76.115303 76.486916 -0.96962184
76.336296 76.714691 -0.49476695
76.356499 76.735519 0
76.350616 76.729454 0.49534136
76.118561 76.505379 -0.970487
76.328613 76.722145 -0.49476695
76.35244 76.746727 0
76.335686 76.729439 0.49505082
76.09906 76.545792 -0.97135103
76.287018 76.740685 -0.49433196
64 64 0
76.337357 76.792877 0.49635693
76.098244 76.57531 -0.9725042
76.304039 76.78923 -0.49563807
76.270058 76.753906 0
76.339897 76.8265 0.49708247
76.097366 76.604851 -0.97365737
76.274185 76.789085 -0.49505749
76.279869 76.795013 0
76.33519 76.852654 0.49751803
76.096436 76.634407 -0.97481054
76.283882 76.830185 -0.4960736
76.278801 76.824875 0
76.323242 76.8713 0.49766305
76.109741 76.67894 -0.97711688
76.286316 76.863808 -0.49679917
76.266884 76.843468 0
76.332809 76.912491 0.49867916
76.108688 76.708542 -0.97827005
76.26001 76.867355 -0.49636361
76.258545 76.865822 0
76.3172 76.927383 0.49867916
76.100449 76.730652 -0.97884607
76.287415 76.927361 -0.49810529
76.257332 76.895714 0
76.305145 76.946014 0.49882415
76.106415 76.767799 -0.9805764
76.289658 76.961052 -0.49883085
76.248901 76.91806 0
76.325256 76.998596 0.50027585
76.108749 76.801201 -0.98201758
76.29541 76.998535 -0.49970141
76.244019 76.944199 0
76.3274 77.032349 0.50100142
76.107475 76.830872 -0.98317075
76.265442 76.998276 -0.4991214
76.242653 76.974129 0
76.311646 77.047241 0.50100142
76.099045 76.85302 -0.98374677
76.256844 77.020653 -0.4994114
76.241241 77.004074 0
76.335037 77.103722 0.50259751
76.097672 76.882713 -0.98489994
76.266006 77.061974 -0.50042754
76.239769 77.034035 0
76.336998 77.137566 0.50332361
76.099792 76.916206 -0.98634225
76.260864 77.08815 -0.50086254
76.238251 77.064003 0
76.342422 77.175209 0.5041942
76.077103 76.923256 -0.9857651
76.252144 77.110558 -0.50115305
76.226006 77.082581 0
76.340691 77.205307 0.50477475
76.082642 76.960533 -0.98749429
76.257553 77.148155 -0.50202364
76.21373 77.101151 0
76.342438 77.239212 0.50550032
76.091629 77.00164 -0.98951262
76.252274 77.174377 -0.50245917
76.212074 77.131142 0
76.329971 77.257912 0.50564528
76.07943 77.020035 -0.98980063
76.257553 77.212021 -0.50332975
76.21389 77.164963 0
76.342216 77.303284 0.50680643
76.077744 77.049805 -0.9909538
76.241577 77.226822 -0.50332975
76.201508 77.183533 0
76.340256 77.333443 0.50738698
76.094437 77.083694 -0.99297214
76.240646 77.241852 -0.50362033
76.235939 77.236763 0
76.356888 77.367607 0.50840306
76.089142 77.109711 -0.9938373
76.245766 77.279549 -0.50449085
76.212891 77.243896 0
76.35482 77.397812 0.50898361
76.087303 77.139534 -0.99499047
76.222687 77.286697 -0.50420088
76.207451 77.270142 0
76.356216 77.431854 0.50970918
76.081902 77.16555 -0.9958545
76.241753 77.339737 -0.50565201
76.205475 77.300201 0
76.354034 77.46209 0.51028973
76.072983 77.187782 -0.99643165
76.243164 77.37368 -0.50637752
76.210487 77.337982 0
76.355301 77.49617 0.5110153
76.095398 77.244362 -0.99960202
76.241013 77.403816 -0.50695813
76.215416 77.375778 0
76.36702 77.541786 0.51217645
76.249313 77.445496 -0.50797421
76.202759 77.394394 0
76.368141 77.575928 0.51290196
76.233055 77.460281 -0.50797421
76.193558 77.416824 0
76.35173 77.590858 0.51290196
76.220276 77.478897 -0.50811923
76.184326 77.439247 0
76.359734 77.632729 0.5139181
76.207458 77.497505 -0.50826424
76.171577 77.457832 0
76.357201 77.663071 0.51449865
76.212036 77.535408 -0.50913531
76.165756 77.484116 0
76.361557 77.701134 0.51536924
76.209579 77.565605 -0.50971591
76.170357 77.522026 0
76.36586 77.739243 0.51624036
76.214005 77.603539 -0.51058644
76.154007 77.53672 0
76.370079 77.777374 0.51711088
76.211426 77.633774 -0.51116699
76.15847 77.574654 0
76.353424 77.792313 0.51711088
76.198402 77.65239 -0.51131201
76.173271 77.62426 0
76.367905 77.842102 0.518417
76.185364 77.671013 -0.51145756
76.191437 77.677826 0
76.358093 77.864799 0.51870757
76.186104 77.705139 -0.51218313
76.192192 77.71199 0
76.358597 77.899139 0.51943314
76.179878 77.731522 -0.51261866
76.168701 77.718918 0
76.355591 77.929611 0.52001369
76.173599 77.757889 -0.51305366
76.17971 77.764793 0
76.349068 77.956192 0.52044868
76.215431 77.838821 -0.51552093
76.163071 77.779503 0
76.342514 77.982796 0.52088422
76.215866 77.87307 -0.5162465
76.167053 77.817635 0
76.356522 78.032799 0.52219033
76.228088 77.90387 -0.51711756
76.193069 77.864059 0
76.361771 78.05587 0.52277094
76.207855 77.914734 -0.5169726
76.196915 77.902267 0
76.355057 78.08252 0.52320647
76.187599 77.925552 -0.51682705
76.200668 77.940483 0
76.368835 78.132637 0.52451259
76.211777 77.987244 -0.51856869
76.221474 77.998352 0
76.344917 78.139748 0.52422261
76.211929 78.021584 -0.51929426
76.235313 78.048431 0
76.348297 78.178162 0.52509314
76.218842 78.063789 -0.5203104
76.225151 78.071053 0
76.327751 78.189148 0.52494812
76.22567 78.106041 -0.52132648
76.225182 78.105476 0
76.34803 78.247223 0.52654427
76.222206 78.136528 -0.52190703
76.228561 78.143875 0
76.351204 78.285728 0.52741539
76.208511 78.15522 -0.52205205
76.22506 78.174408 0
76.350906 78.320312 0.52814096
76.218513 78.201477 -0.52321315
76.231674 78.216774 0
76.35392 78.358856 0.52901149
76.208107 78.224106 -0.52350318
76.231445 78.251305 0
76.346718 78.385605 0.52944708
76.217949 78.270432 -0.52466428
76.248062 78.305603 0
76.346222 78.42025 0.53017259
76.200699 78.285179 -0.52466428
76.240913 78.332268 0
76.345665 78.45491 0.53089815
76.210388 78.331558 -0.52582538
76.243835 78.370811 0
76.345047 78.489609 0.53162426
76.213249 78.370056 -0.52669597
76.243309 78.405426 0
76.34436 78.524315 0.53234982
76.216049 78.408592 -0.52756709
76.242722 78.440056 0
76.336884 78.551117 0.53278542
76.218765 78.447144 -0.52843761
76.245438 78.478691 0
76.342773 78.593773 0.53380096
76.208008 78.469849 -0.52872819
76.241364 78.509384 0
76.338539 78.624565 0.53438151
76.213928 78.512413 -0.52974373
76.250633 78.55603 0
76.337585 78.65934 0.53510708
76.17968 78.507263 -0.52901816
76.259811 78.602707 0
76.336578 78.694153 0.53583318
76.217667 78.570374 -0.53105044
76.257668 78.61808 0
76.341042 78.717514 0.53641319
76.196709 78.581131 -0.53090489
76.266716 78.664825 0
76.346596 78.760323 0.53742933
76.222359 78.647728 -0.53279155
76.272331 78.707611 0
76.338745 78.787201 0.53786486
76.221283 78.682465 -0.53351766
76.277847 78.75042 0
76.344147 78.830063 0.538881
76.21891 78.751976 -0.53496879
76.245483 78.784058 0
76.331467 78.887856 0.53989655
79.987762 83.349678 -0.70099998
76.260773 78.838974 0
76.333336 78.926796 0.54076767
79.967674 83.372986 -0.70114493
76.289177 78.910004 0
76.341721 78.973755 0.54192823
79.937653 83.384232 -0.70085442
76.330643 78.9972 0
76.330223 78.996689 0.54221874
79.943871 83.439636 -0.70216054
76.335625 79.040268 0
76.335167 79.039711 0.54323488
79.936836 83.479012 -0.70288664
76.337212 79.079323 0
76.336723 79.078728 0.54410547
79.92643 83.514359 -0.70346719
76.332146 79.110352 0
76.344788 79.125832 0.54526657
79.938927 83.577911 -0.70506328
76.330322 79.145432 0
76.336342 79.152832 0.5457021
79.925087 83.609261 -0.70549887
76.331696 79.184555 0
76.32457 79.175789 0.54599214
79.937355 83.672897 -0.70709497
76.316612 79.203484 0
76.319313 79.206818 0.54657269
79.920113 83.700226 -0.70738554
76.321136 79.246696 0
