# .PCD v0.7 - Point Cloud Data file format
VERSION 0.7
FIELDS x y z
SIZE 4 4 4
TYPE F F F
COUNT 1 1 1
WIDTH 1866
HEIGHT 1
VIEWPOINT 0 0 0 1 0 0 0
POINTS 1866
DATA ascii
84.960434 92.306526 -0.98368704
105.07991 119.47736 0
64 64 0
84.84903 92.227325 -0.98005867
104.96645 119.46414 0
64 64 0
84.916626 92.390564 -0.98484814
111.4998 128.47244 0
110.83925 127.57588 2.2054012
84.863831 92.390686 -0.98397702
111.40028 128.50043 0
110.79933 127.68268 2.2071428
84.877434 92.44519 -0.98542869
103.89949 118.36244 0
110.87462 127.86595 2.2125127
84.843048 92.470398 -0.98542869
103.78766 118.34763 0
64 64 0
84.842339 92.54171 -0.98702484
103.68513 118.34523 0
64 64 0
84.840508 92.684502 -0.99021816
103.52308 118.39885 0
104.86874 120.251 1.9418418
84.86377 92.789604 -0.99297541
103.439 118.42129 0
104.84039 120.35504 1.9437284
84.874634 92.877975 -0.99515265
103.3915 118.4942 0
104.72356 120.33696 1.9414062
84.870117 92.94532 -0.99660373
103.32563 118.54176 0
106.19939 122.52745 2.0151331
84.835129 92.97052 -0.99660373
103.25362 118.5808 0
106.06795 122.49402 2.0122304
103.19371 118.63664 0
105.91849 122.43501 2.0084569
84.822502 93.101074 -0.99936098
103.12463 118.67973 0
105.82669 122.45605 2.0074415
103.0525 118.7185 0
105.71677 122.45155 2.0055542
102.98334 118.76141 0
105.69434 122.56965 2.0078764
113.61131 133.86948 0
105.70477 122.7344 2.0117955
113.48474 133.8699 0
105.78695 123.00102 2.019197
113.34923 133.85739 0
105.88653 123.2934 2.0274694
113.23781 133.87868 0
105.70711 123.19104 2.0222449
113.14734 133.9296 0
105.14848 122.54837 1.9985881
113.06281 133.98892 0
105.20001 122.77252 2.0045388
112.99014 134.06522 0
105.14386 122.84355 2.0052643
112.93521 134.16705 0
105.1292 122.9742 2.0080216
112.84743 134.22186 0
105.06682 123.03666 2.0084569
112.78035 134.3065 0
105.05766 123.1759 2.0115049
129.74155 158.8748 0
105.08999 123.29894 2.0148432
129.64758 158.98415 0
112.24231 133.80081 2.3696907
118.05929 142.41971 0
112.07831 133.74355 2.3657722
117.9409 142.45065 0
111.96455 133.75876 2.3643208
117.8078 142.45996 0
111.87436 133.80811 2.3640306
117.71002 142.52063 0
111.76357 133.8273 2.3627245
117.56525 142.51239 0
111.67915 133.88495 2.3627245
117.50548 142.62869 0
111.60344 133.95538 2.3631594
117.48351 142.80095 0
112.69498 135.7457 2.421648
117.46411 142.97757 0
112.61407 135.81308 2.4219382
117.31039 142.95584 0
112.50401 135.83731 2.4207771
117.37775 143.26196 0
112.46941 135.97345 2.4233892
64 64 0
126.4557 156.98433 3.1282952
134.12086 168.66928 0
126.3057 157.0036 3.1264086
134.04639 168.83182 0
126.20772 157.10043 3.1271341
133.91389 168.90773 0
126.08942 157.16687 3.1268442
133.76979 168.96611 0
136.17737 172.58823 3.6414821
133.61417 169.00696 0
126.38956 158.10928 3.153403
133.47861 169.07797 0
125.96051 157.70776 3.1374385
133.34586 169.15317 0
125.76714 157.66109 3.1333747
133.21017 169.22383 0
125.6425 157.71831 3.1327946
133.06586 169.28128 0
125.72589 158.09253 3.1428087
132.97942 169.28815 0
125.86838 158.43407 3.1529675
132.86923 169.39755 0
125.75708 158.51312 3.1531131
132.65941 169.35425 0
140.01663 180.64349 3.8883514
133.93895 171.60164 0
139.95776 180.8616 3.8925605
64 64 0
64 64 0
64 64 0
64 64 0
64 64 0
64 64 0
64 64 0
64 64 0
64 64 0
64 64 0
136.29553 177.01193 0
64 64 0
136.14493 177.07727 0
64 64 0
64 64 0
64 64 0
64 64 0
64 64 0
64 64 0
64 64 0
138.63416 182.2352 0
64 64 0
138.54947 182.41779 0
64 64 0
64 64 0
64 64 0
64 64 0
64 64 0
64 64 0
141.04514 187.37167 4.0622191
64 64 0
140.82732 187.3544 4.0585909
140.91119 187.82224 0
140.57127 187.27499 4.0529308
64 64 0
140.41953 187.36301 4.0527859
64 64 0
140.15216 187.43054 4.0504637
112.92636 143.51669 0
140.00839 187.53131 4.0507536
112.84386 143.59793 0
139.82376 187.56549 4.0488672
112.73949 143.64359 0
64 64 0
112.63237 143.68463 0
64 64 0
112.50087 143.68555 0
64 64 0
112.40996 143.75299 0
64 64 0
112.31894 143.82034 0
64 64 0
112.21977 143.87421 0
64 64 0
112.08563 143.86996 0
64 64 0
111.97302 143.90125 0
64 64 0
137.06677 187.03964 0
64 64 0
136.89418 187.08754 0
64 64 0
64 64 0
138.82048 191.03947 0
64 64 0
138.65375 191.10736 0
64 64 0
64 64 0
64 64 0
64 64 0
64 64 0
64 64 0
64 64 0
64 64 0
64 64 0
114.18698 150.52353 0
64 64 0
114.05114 150.53006 0
64 64 0
113.91534 150.53638 0
64 64 0
113.8315 150.63272 0
64 64 0
115.56284 153.89381 0
64 64 0
115.45677 153.96059 0
64 64 0
115.31451 153.9639 0
64 64 0
115.1929 154.00323 0
64 64 0
115.03018 153.96994 0
64 64 0
64 64 0
64 64 0
113.53164 151.82178 0
64 64 0
113.48161 151.98135 0
64 64 0
113.37527 152.04108 0
64 64 0
64 64 0
64 64 0
64 64 0
64 64 0
114.34581 154.53937 0
64 64 0
114.25151 154.62744 0
64 64 0
114.12434 154.65619 0
64 64 0
112.18034 151.38943 0
64 64 0
112.04213 151.38831 0
64 64 0
113.54771 154.38547 0
64 64 0
113.20879 154.02512 0
64 64 0
112.95551 153.81943 0
64 64 0
64 64 0
64 64 0
64 64 0
64 64 0
64 64 0
64 64 0
64 64 0
64 64 0
64 64 0
64 64 0
64 64 0
64 64 0
64 64 0
64 64 0
64 64 0
64 64 0
64 64 0
64 64 0
64 64 0
64 64 0
64 64 0
64 64 0
100.09441 133.27991 0
64 64 0
99.984268 133.27267 0
64 64 0
99.790497 133.30856 0
64 64 0
99.675751 133.2916 0
64 64 0
99.580109 133.31149 0
64 64 0
99.503448 133.36835 0
64 64 0
99.405411 133.38338 0
64 64 0
87.570633 110.32915 0
64 64 0
87.514633 110.35759 0
64 64 0
64 64 0
64 64 0
64 64 0
64 64 0
87.358109 110.39586 0
64 64 0
87.283348 110.38684 0
64 64 0
87.22728 110.41493 0
64 64 0
87.168861 110.43831 0
64 64 0
87.126648 110.49425 0
64 64 0
87.065819 110.51282 0
64 64 0
87.023453 110.56866 0
64 64 0
86.971756 110.60577 0
64 64 0
86.913132 110.62883 0
64 64 0
86.868225 110.67986 0
64 64 0
86.816368 110.7168 0
64 64 0
86.771301 110.76775 0
64 64 0
86.719315 110.80458 0
86.689957 110.88821 0
64 64 0
97.922623 134.3168 0
64 64 0
64 64 0
86.299324 110.51023 0
64 64 0
67.445229 71.208115 -0.88491762
64 64 -0
86.25882 110.57 0
64 64 0
67.460564 71.262741 -0.89110988
86.204773 110.60158 0
64 64 0
67.449608 71.262337 -0.89054751
86.141747 110.61426 0
64 64 0
67.469162 71.314911 -0.89673764
64 64 -0
86.118042 110.63702 0
64 64 0
67.462502 71.323708 -0.89730215
64 64 -0
86.050552 110.6402 0
64 64 0
67.451477 71.323273 -0.89673764
67.647499 71.739189 -0.71317518
64 64 -0
85.996399 110.67152 0
64 64 0
67.451271 71.34584 -0.8989892
67.611946 71.687828 -0.70803958
64 64 -0
85.928925 110.6745 0
64 64 0
67.459633 71.386818 -0.90349227
67.650558 71.794464 -0.71745408
64 64 -0
85.8703 110.69626 0
64 64 0
67.43351 71.354156 -0.8989892
67.651993 71.822128 -0.71959347
64 64 -0
85.807251 110.7085 0
64 64 0
67.452492 71.41819 -0.90630615
67.666374 71.877739 -0.72430152
64 64 -0
64 64 0
64 64 0
67.449944 71.436188 -0.90799534
67.643883 71.85421 -0.72173291
64 64 -0
64 64 0
64 64 0
67.458023 71.477249 -0.91249841
67.62146 71.830658 -0.71916592
64 64 0
64 64 0
67.461754 71.509125 -0.91587681
67.603401 71.816376 -0.71745408
64 64 -0
64 64 0
86.702232 113.24495 1.5144279
67.452675 71.513298 -0.91587681
67.589668 71.811409 -0.71659893
64 64 0
86.683945 113.36208 1.5171857
67.471107 71.577522 -0.92319375
67.567398 71.78772 -0.71403033
64 64 0
86.602638 113.34219 1.5157341
67.461952 71.581711 -0.92319375
67.372467 71.385742 -0.67680001
64 64 0
86.560272 113.40728 1.5168952
67.450676 71.581253 -0.92262924
67.135963 70.889832 -0.63100874
64 64 0
86.474716 113.37775 1.5151535
67.431015 71.562279 -0.91981536
67.117035 70.870239 -0.62886935
64 64 0
86.556747 113.71721 1.5247325
67.419785 71.561798 -0.91925305
64 64 -0
64 64 0
64 64 0
67.279076 71.274071 -0.88379294
64 64 -0
67.233955 71.173981 -0.43855563
64 64 0
64 64 0
67.080757 70.856224 -0.83257204
64 64 -0
67.227409 71.182594 -0.43884364
64 64 0
64 64 0
67.016388 70.734726 -0.81737578
64 64 -0
67.193352 71.129837 -0.43538412
108.54341 163.45264 0
64 64 0
66.999962 70.71981 -0.81512421
64 64 -0
67.163651 71.086464 -0.43250176
108.47414 163.62047 0
64 64 0
66.995979 70.732719 -0.81625104
64 64 -0
67.13195 71.038284 -0.42933026
108.37277 163.71692 0
64 64 0
66.991959 70.745621 -0.81737578
64 64 -0
67.115051 71.023155 -0.42817709
108.25014 163.76572 0
64 64 0
66.969421 70.71669 -0.81343502
64 64 -0
67.098198 71.007988 -0.42702392
108.10431 163.76199 0
64 64 0
66.977676 70.746384 -0.81681341
64 64 -0
67.100235 71.024055 -0.42788908
107.95576 163.58862 0
85.868683 113.54691 1.5125413
66.969521 70.749977 -0.81681341
64 64 -0
67.102158 71.051468 -0.42933026
107.82492 163.61784 0
85.81089 113.57804 1.5126863
66.967484 70.767532 -0.8185026
64 64 -0
67.072861 71.007843 -0.4264479
107.59583 163.42285 0
85.667496 113.414 1.5068812
66.957268 70.766441 -0.81793809
64 64 -0
67.074753 71.035248 -0.42788908
107.47358 163.47069 0
85.557823 113.32585 1.5033979
66.943008 70.756042 -0.81625104
64 64 -0
67.066246 71.038963 -0.42788908
106.31407 161.13733 0
85.500282 113.35663 1.5035429
66.932808 70.754921 -0.81568658
64 64 -0
67.051559 71.028419 -0.42702392
106.18008 161.15018 0
85.419937 113.33492 1.5020918
66.912544 70.730484 -0.81231034
64 64 -0
67.030739 71.003624 -0.42529473
106.06473 161.20586 0
85.349991 113.33691 1.5013663
66.908424 70.743324 -0.81343502
64 64 -0
67.028419 71.021538 -0.42615989
105.93282 161.22314 0
85.306824 113.40085 1.5025274
66.91433 70.779518 -0.81737578
64 64 -0
66.991333 70.958649 -0.42212322
105.82147 161.28809 0
85.222488 113.36926 1.5007857
66.898132 70.764351 -0.81512421
64 64 -0
66.948288 70.881432 -0.41722253
84.866447 112.70313 0
85.189423 113.45697 1.5026723
66.889954 70.767845 -0.81512421
64 64 -0
66.935913 70.875481 -0.41664651
84.807587 112.72831 0
84.478645 111.95798 1.4563749
66.873589 70.774811 -0.81512421
66.943916 70.940613 -0.62844181
66.909195 70.858749 -0.41520533
84.643021 112.66824 0
84.387039 112.06474 1.4581167
66.865402 70.778282 -0.81512421
66.931526 70.9347 -0.62758505
66.876732 70.805084 -0.41174582
84.507187 112.51097 0
64 64 0
66.863129 70.795792 -0.81681341
66.931114 70.957161 -0.6292969
66.840393 70.741821 -0.40771028
84.321243 112.23354 0
64 64 0
66.850983 70.789864 -0.81568658
66.924698 70.965424 -0.62972444
64 64 -0
84.170258 112.03731 0
64 64 0
66.854546 70.821442 -0.81906497
64 64 -0
66.883995 70.891815 -0.4163585
84.072021 111.96564 0
64 64 0
66.824783 70.773285 -0.81287265
64 64 -0
66.923447 71.009865 -0.42327639
85.524597 115.61185 0
84.060287 112.1007 1.4555044
66.826347 70.800156 -0.81568658
64 64 -0
66.831596 70.812775 -0.41116866
85.438248 115.58014 0
83.4058 110.6901 1.4121097
66.823967 70.817657 -0.81737578
64 64 -0
66.841171 70.8592 -0.41376305
87.525024 120.79442 0
83.359322 110.73753 1.4128358
66.819611 70.830467 -0.8185026
64 64 -0
66.823013 70.838722 -0.41232184
87.452408 120.81319 0
83.334557 110.83774 1.4151576
66.824883 70.866753 -0.82244116
64 64 -0
66.828529 70.875626 -0.41434017
87.383743 120.84149 0
83.345169 111.02446 1.420092
66.872482 71.006516 -0.83876431
64 64 -0
66.820221 70.879036 -0.41434017
87.313072 120.86489 0
83.365219 111.23534 1.4257526
66.962563 71.238693 -0.86634511
64 64 -0
66.790596 70.818504 -0.41059265
87.262939 120.84042 0
83.336678 111.24702 1.4257526
66.986435 71.322258 -0.87591362
64 64 -0
66.797981 70.860191 -0.41289899
87.184418 120.84441 0
83.259941 111.22223 1.4243009
66.994812 71.368225 -0.880979
64 64 -0
66.776054 70.830017 -0.41088066
87.09024 120.80969 0
83.197006 111.23103 1.4238659
66.991631 71.385979 -0.8826682
64 64 -0
66.748383 70.785431 -0.40799829
64 64 0
83.102852 111.16267 1.4211081
64 64 -0
64 64 -0
66.744049 70.798332 -0.40857431
64 64 0
64 64 0
66.981346 71.412025 -0.88491762
64 64 -0
66.747421 70.830444 -0.41030464
64 64 0
64 64 0
66.962936 71.392044 -0.88210374
64 64 -0
66.752632 70.867355 -0.41232184
112.19047 184.22723 0
64 64 -0
64 64 -0
64 64 -0
112.06254 184.32886 0
66.939438 71.385033 -0.88041669
64 64 -0
64 64 -0
67.589622 73.018562 -0.27108932
106.74721 171.39801 0
66.93425 71.39801 -0.88154137
64 64 -0
64 64 -0
67.57489 73.013222 -0.27079874
106.63084 171.48344 0
66.912231 71.368469 -0.87760067
64 64 -0
64 64 -0
67.571632 73.036865 -0.27137932
105.30719 168.51448 0
66.90892 71.386169 -0.87928987
64 64 -0
66.694031 70.840546 -0.40972748
67.566429 73.055687 -0.27181485
105.17706 168.55463 0
82.813644 111.77062 1.4338799
66.899994 71.389679 -0.87928987
64 64 -0
66.689552 70.853439 -0.41030464
67.551682 73.050301 -0.27152431
105.00125 168.47833 0
82.765396 111.8175 1.4346054
66.89846 71.412109 -0.88154137
66.75502 71.045303 -0.6305812
66.683151 70.861496 -0.41059265
67.523712 73.011032 -0.27021819
104.80864 168.35815 0
82.683006 111.77723 1.4327188
66.887657 71.410873 -0.880979
66.746506 71.048622 -0.6305812
66.66922 70.850266 -0.40972748
67.531693 73.063721 -0.27166986
104.67685 168.39282 0
82.621483 111.79007 1.4324281
66.882378 71.423828 -0.88210374
66.741699 71.061501 -0.63143635
66.67218 70.882431 -0.41145781
67.513214 73.048599 -0.27108932
100.97525 159.23306 0
66.882576 71.450996 -0.88491762
66.731316 71.060028 -0.63100874
66.617203 70.765045 -0.40425077
67.515396 73.086754 -0.27210486
100.88269 159.33594 0
66.879051 71.468704 -0.88660681
66.724632 71.068108 -0.63143635
66.61274 70.777847 -0.40482679
67.480118 73.027962 -0.27021819
100.71692 159.2493 0
66.882782 71.505386 -0.89054751
66.719772 71.080986 -0.63229311
66.63237 70.853439 -0.40915146
67.482254 73.066124 -0.2712343
97.093369 150.15932 0
64 64 0
66.880974 71.527847 -0.89279908
66.713051 71.089058 -0.63272065
66.644424 70.909744 -0.41232184
67.469437 73.065475 -0.27108932
96.991104 150.2041 0
64 64 0
66.884552 71.564552 -0.89673764
66.69899 71.077934 -0.63143635
66.58078 70.767944 -0.40367362
67.456627 73.064789 -0.27094376
96.860954 150.17581 0
88.87532 129.23401 1.9498241
66.877213 71.572792 -0.89730215
66.705025 71.119583 -0.63486004
66.616699 70.887115 -0.41059265
67.465973 73.122406 -0.27254042
96.751259 150.20087 0
88.766953 129.18628 1.9475018
66.878044 71.588776 -0.8989892
66.693443 71.10202 -0.63314819
66.636383 70.951569 -0.41434017
67.460464 73.124496 -0.27254042
96.693642 150.20605 0
88.766266 129.30327 1.9505496
66.870674 71.597008 -0.89955372
66.68486 71.10527 -0.63314819
66.578613 70.824104 -0.40655711
67.447601 73.12381 -0.27239543
93.46373 141.97351 0
88.722237 129.42551 1.9533068
66.868652 71.619499 -0.90180522
66.649139 71.036446 -0.62672991
66.588593 70.875618 -0.40943947
67.440231 73.137688 -0.27268541
93.351151 141.96033 0
88.606552 129.35806 1.9504046
66.852303 71.603928 -0.89955372
66.64785 71.058868 -0.62844181
66.567558 70.844833 -0.40742114
67.425545 73.132118 -0.27239543
93.25145 141.98114 0
88.58596 129.54344 1.9550486
66.844894 71.612122 -0.90011603
66.623146 71.018784 -0.62459052
66.562912 70.857635 -0.40799829
67.418144 73.145981 -0.27268541
93.151733 142.00179 0
64 64 0
66.833923 71.610794 -0.89955372
66.621826 71.041199 -0.62630236
66.556427 70.86557 -0.4082863
67.403465 73.140366 -0.27239543
93.057465 142.03696 0
88.503654 129.80721 1.9611441
66.81765 71.595154 -0.89730215
66.593674 70.991402 -0.62159431
66.555328 70.888054 -0.40943947
67.383385 73.120117 -0.27166986
92.972206 142.09641 0
88.407852 129.79291 1.959838
66.813751 71.612839 -0.8989892
66.594116 71.018608 -0.62373376
66.541626 70.876572 -0.40857431
67.359749 73.090073 -0.27065375
92.86338 142.09229 0
110.32753 189.34299 3.7320442
66.809822 71.630547 -0.9006784
66.608696 71.084366 -0.6292969
66.531525 70.874786 -0.4082863
67.327209 73.035606 -0.26891208
92.774399 142.14177 0
110.17065 189.38425 3.7316086
66.8321 71.719803 -0.91080922
66.577148 71.024857 -0.62373376
66.521439 70.872993 -0.40799829
67.291237 72.971321 -0.26688039
92.710434 142.25955 0
110.01375 189.42532 3.7311738
66.864639 71.837769 -0.92431843
66.575714 71.047256 -0.6254456
66.525558 70.910027 -0.41001552
67.283958 72.985046 -0.2671704
92.614067 142.28931 0
109.85324 189.45642 3.7304475
66.947319 72.094299 -0.9541508
66.56192 71.035881 -0.6241613
66.527824 70.942245 -0.41174582
67.260658 72.954834 -0.26615486
64 64 0
81.326393 111.584 1.414287
67.038033 72.374908 -0.98679489
66.539421 71.000381 -0.62073922
66.530022 70.974464 -0.41347501
67.235657 72.919685 -0.26499373
64 64 0
81.311417 111.72215 1.4177704
67.057274 72.459816 -0.9963634
66.555382 71.071037 -0.62672991
66.521591 70.977516 -0.41347501
67.217812 72.904037 -0.26441318
64 64 0
81.251968 111.73813 1.4176248
67.055664 72.487427 -0.99917942
66.538147 71.049965 -0.62459052
66.523674 71.009773 -0.41520533
67.212326 72.922577 -0.26484817
84.470917 120.86015 0
81.173149 111.70026 1.4158831
66.540024 71.082016 -0.62715745
66.509964 70.998207 -0.41434017
67.192772 72.902 -0.26412261
67.287834 73.167046 0
79.999718 108.60997 1.3235794
66.526276 71.070572 -0.62587315
66.503242 71.006096 -0.41462818
67.183762 72.910736 -0.26426762
67.278511 73.175926 0
79.947548 108.63416 1.3237244
67.021461 72.488861 -0.9980526
66.54528 71.151009 -0.63272065
66.525993 71.096832 -0.41981691
67.172989 72.914581 -0.26426762
64 64 0
81.453201 113.03511 1.4536177
66.541786 71.168602 -0.63400495
66.545074 71.177887 -0.42442957
67.148331 72.879242 -0.26310706
82.962662 117.48042 0
80.959778 111.8317 1.4173348
66.533119 71.171669 -0.63400495
66.574303 71.288254 -0.43077147
67.144524 72.902641 -0.26368761
82.774956 117.15488 0
80.884659 111.80315 1.4158831
66.538086 71.21347 -0.6374287
66.577515 71.325523 -0.43278977
67.135483 72.911331 -0.2638326
82.49823 116.57364 0
80.801018 111.74998 1.4137064
66.546349 71.264969 -0.64170754
66.558395 71.299355 -0.43106058
67.116119 72.890594 -0.26310706
82.212608 115.96233 0
80.745026 111.77515 1.4138515
66.524025 71.229263 -0.63828379
66.559799 71.331734 -0.43278977
67.100235 72.879631 -0.2626715
81.940506 115.3848 0
80.682144 111.78062 1.4134159
66.524727 71.245338 -0.63956809
66.550262 71.318619 -0.43192461
67.100006 72.896225 -0.26310706
81.63372 114.60433 0
80.658401 111.80542 1.4138515
66.499138 71.19989 -0.63528925
66.575348 71.419434 -0.43769047
67.075615 72.860687 -0.26194593
81.31485 113.88314 0
80.615967 111.86971 1.4151576
66.565926 71.421234 -0.65454572
66.563004 71.412766 -0.43711445
67.073402 72.888954 -0.2626715
81.227356 113.82533 0
80.605667 112.02727 1.4192215
66.587051 71.511696 -0.66224831
66.599518 71.547905 -0.4448975
67.072807 72.922134 -0.26354206
70.311783 82.326752 0
80.535767 112.01289 1.4182054
66.562981 71.471115 -0.65839702
66.595436 71.565727 -0.44576266
67.046852 72.881607 -0.26223594
70.277809 82.299896 0
70.255699 82.235451 0.53841531
66.562256 71.498512 -0.66053808
66.58963 71.578636 -0.44633868
67.032761 72.87545 -0.26194593
70.238869 82.258224 0
70.221909 82.208588 0.53739977
66.569733 71.550201 -0.66481698
66.585472 71.596451 -0.44720384
67.027046 72.893852 -0.26238093
70.211769 82.250961 0
70.219994 82.275131 0.53914142
66.559692 71.580704 -0.66695637
66.582001 71.64679 -0.4497982
66.993912 72.866692 -0.26136538
70.159317 82.241272 0
70.175812 82.290108 0.53914142
66.545616 71.569183 -0.66567206
67.149872 73.365906 -0.55069554
66.988167 72.885071 -0.26180038
70.137276 82.248695 0
70.133827 82.238449 0.53739977
67.141838 73.379501 -0.55127162
66.972481 72.873901 -0.26136538
70.106956 82.23143 0
70.098579 82.206421 0.53623861
67.138687 73.407822 -0.5527128
66.966682 72.892258 -0.26180038
70.117859 82.337524 0
70.068352 82.189133 0.5355131
67.119164 73.38707 -0.55127162
66.947746 72.871185 -0.26107481
64 64 0
78.32814 107.12029 1.2690098
67.109451 73.395752 -0.5515607
66.937019 72.874741 -0.26107481
64 64 0
78.277657 107.1425 1.2691548
64 64 -0
67.085136 73.360199 -0.54925436
66.921425 72.863495 -0.26063982
64 64 0
78.228775 107.1696 1.2694453
64 64 -0
67.068985 73.349174 -0.5483892
66.909081 72.862061 -0.26049426
64 64 0
78.178223 107.1917 1.2695904
64 64 -0
67.064117 73.372543 -0.54954237
66.895149 72.855698 -0.26020426
64 64 0
78.124405 107.20386 1.2694453
67.046379 73.35656 -0.5483892
66.874786 72.829536 -0.25933316
69.960587 82.307167 0
78.067368 107.20607 1.2690098
67.030289 73.345467 -0.54752409
66.872139 72.857735 -0.26005927
69.922409 82.264839 0
78.003929 107.18842 1.2679937
67.012634 73.32943 -0.54637092
66.851845 72.831512 -0.25918815
69.908333 82.296761 0
77.926186 107.12621 1.265672
66.999779 73.328148 -0.54608285
66.836403 72.820129 -0.25875315
69.905342 82.363327 0
77.797699 106.90553 1.2587053
66.986923 73.326843 -0.54579484
66.830498 72.838379 -0.25918815
69.876793 82.350616 0
77.436783 105.95711 1.2304046
66.965538 73.279358 -0.54291141
66.828323 72.849998 -0.25947872
69.862541 82.344261 0
77.351318 105.77711 1.2248896
66.962173 73.307602 -0.54435366
66.819199 72.85836 -0.25962371
69.835632 82.336449 0
77.196823 105.4664 1.2153113
66.943108 73.286499 -0.54291141
66.802216 72.841942 -0.25904316
69.807182 82.323639 0
77.055649 105.19499 1.2068934
66.936554 73.304855 -0.54377657
66.78215 72.815598 -0.2581726
69.789742 82.345535 0
76.775955 104.48225 1.1855589
68.905716 79.610069 -0.91190684
66.796417 72.898254 -0.26049426
76.755165 104.58717 0
76.664711 104.29936 1.1797539
64 64 -0
66.771698 72.856995 -0.25918815
75.757912 101.57257 0
75.720497 101.45302 1.0960125
64 64 -0
66.760994 72.860336 -0.25918815
75.68618 101.50227 0
75.665962 101.43739 1.0951419
64 64 -0
68.719971 79.211609 -0.44481221
75.613098 101.4269 0
75.603775 101.39685 1.0935452
68.704651 79.227219 -0.44510219
75.538673 101.34641 0
75.537109 101.34135 1.0915135
68.680138 79.21302 -0.44452164
75.479767 101.31555 0
75.476692 101.30557 1.0900619
64 64 -0
75.428566 101.30949 0
75.43161 101.31941 1.0900619
64 64 -0
75.383476 101.32327 0
75.380447 101.31334 1.0894818
64 64 -0
75.330811 101.3121 0
75.338371 101.337 1.0897719
68.590012 79.180763 -0.44292551
75.293251 101.35068 0
75.296257 101.36061 1.0900619
68.567169 79.171364 -0.44248995
75.252617 101.37925 0
75.246613 101.35931 1.0896269
68.548836 79.176872 -0.44248995
75.205948 101.38783 0
75.202957 101.37785 1.0897719
68.524551 79.162437 -0.4419094
75.168205 101.42628 0
75.145897 101.35152 1.0886108
64 64 -0
68.501785 79.152939 -0.44147384
75.128906 101.45971 0
75.081512 101.3002 1.086724
68.484955 79.163368 -0.4416194
75.091011 101.49808 0
75.032013 101.29861 1.0862886
68.465157 79.163773 -0.44147384
75.05011 101.52644 0
74.988411 101.31692 1.0864341
64 64 -0
68.443909 79.159195 -0.44118384
75.010605 101.55972 0
74.943314 101.33017 1.0864341
68.429955 79.179527 -0.4416194
74.968132 101.58301 0
74.905472 101.3683 1.0871596
68.408707 79.174873 -0.44132885
74.927071 101.61123 0
74.861763 101.38644 1.0873046
68.399544 79.177536 -0.44132885
74.898552 101.59782 0
74.844963 101.41296 1.0878851
68.381195 79.182838 -0.44132885
74.857437 101.62595 0
74.801186 101.43102 1.0880302
68.36142 79.183136 -0.44118384
74.813408 101.64406 0
74.748779 101.41908 1.0873046
68.345924 79.19838 -0.44147384
74.767914 101.6571 0
74.699272 101.41704 1.0868691
68.326134 79.198624 -0.44132885
74.712433 101.63504 0
74.66259 101.45995 1.0877402
68.300682 79.178848 -0.44060329
74.648499 101.58286 0
74.614487 101.46279 1.0874497
68.289391 79.20903 -0.44132885
74.611557 101.62575 0
74.574852 101.49559 1.0880302
68.272415 79.219208 -0.44147384
74.578743 101.68364 0
74.53656 101.53336 1.0887557
68.254021 79.224358 -0.44147384
74.540215 101.72147 0
74.491196 101.54607 1.0887557
68.238411 79.23951 -0.44176441
74.491837 101.72414 0
74.451393 101.57874 1.0893363
68.224152 79.259628 -0.44219941
74.45874 101.78193 0
74.401825 101.57632 1.0889013
68.208473 79.27475 -0.44248995
68.110336 78.918564 0
74.359177 101.59888 1.0891913
68.19001 79.279823 -0.44248995
68.085426 78.898422 0
74.310989 101.60136 1.0889013
68.179756 79.314949 -0.44336051
68.06057 78.87825 0
74.265549 101.61378 1.0889013
68.172142 79.360107 -0.44452164
64 64 0
74.221451 101.63117 1.0890464
68.160362 79.390221 -0.4452472
68.005585 78.817657 0
74.181396 101.66356 1.0896269
68.141762 79.395233 -0.4452472
67.98362 78.807426 0
74.145325 101.71095 1.0906425
68.929543 82.412125 -0.5323264
67.957649 78.782051 0
74.101105 101.72822 1.090788
68.903282 82.403023 -0.53189141
67.935768 78.771751 0
74.054169 101.73536 1.0906425
68.885033 82.423988 -0.5323264
67.912582 78.756371 0
74.016556 101.77763 1.0915135
68.865417 82.439934 -0.53261697
67.89209 78.751007 0
73.965599 101.76961 1.090933
68.839172 82.430717 -0.53218144
67.876907 78.765778 0
73.919952 101.78162 1.090933
68.81559 82.431526 -0.53203642
67.851166 78.740227 0
73.867729 101.76845 1.0902075
68.795929 82.44738 -0.5323264
67.830734 78.734802 0
73.829926 101.81051 1.0910779
68.771034 82.443115 -0.53203642
67.815536 78.749496 0
73.792046 101.85255 1.0919491
68.757294 82.435913 -0.53174585
67.802719 78.736671 0
73.774368 101.87857 1.0925291
68.715302 82.457443 -0.53203642
67.763237 78.730705 0
73.68409 101.90714 1.0926746
68.69043 82.453041 -0.53174585
67.744148 78.730202 0
73.64212 101.9339 1.0931096
68.666855 82.453659 -0.53160083
67.727623 78.739754 0
73.591179 101.92537 1.0925291
68.643288 82.454254 -0.53145587
67.71489 78.764435 0
73.550415 101.95709 1.0931096
68.623512 82.469925 -0.53174585
67.691994 78.748718 0
73.503288 101.96357 1.0929646
68.593658 82.445244 -0.53087533
67.676682 78.76326 0
73.458664 101.98006 1.0931096
68.57386 82.460861 -0.5311653
67.653839 78.747482 0
73.417763 102.01164 1.0936902
68.551552 82.466377 -0.5311653
67.632278 78.73674 0
73.380531 102.05832 1.0947063
68.526764 82.461777 -0.53087533
67.626862 78.791664 0
73.332069 102.05954 1.0944164
68.506912 82.477325 -0.5311653
67.617622 78.831436 0
73.284836 102.06572 1.0942708
68.482132 82.472664 -0.53087533
67.604607 78.856033 0
73.240067 102.08199 1.0944164
68.458595 82.473015 -0.53073031
67.601303 78.921074 0
73.198921 102.11333 1.0949969
68.443542 82.508698 -0.53160083
67.584496 78.930489 0
73.140724 102.07387 1.0935452
68.430832 82.554497 -0.53276199
67.568863 78.944923 0
67.478439 78.566269 0.41824651
68.418022 82.600281 -0.53392309
67.55201 78.954285 0
67.450027 78.52494 0.41693982
68.408684 82.661247 -0.53551978
67.53154 78.948441 0
67.432472 78.529099 0.41693982
68.390884 82.686783 -0.53609979
67.513481 78.952698 0
64 64 0
68.355301 82.636421 -0.53450364
67.490669 78.936661 0
64 64 0
68.310425 82.545486 -0.53174585
72.961136 102.55507 0
67.363312 78.470589 0.41490817
68.271629 82.479805 -0.52971417
72.912193 102.55571 0
67.342316 78.459442 0.41447261
68.252289 82.44693 -0.52869809
72.885391 102.54587 0
67.319572 78.400711 0.4127315
68.008728 81.486839 -0.99983132
68.227676 82.441933 -0.52840805
72.841133 102.56673 0
67.295204 78.374306 0.41186038
67.98645 81.486633 -0.99954331
68.210007 82.467293 -0.5289886
72.799156 102.59769 0
67.272057 78.352951 0.41113481
68.185394 82.462219 -0.52869809
72.759415 102.63873 0
67.255859 78.361954 0.41127983
67.936211 81.460884 -0.99752498
68.161942 82.462204 -0.52855307
72.713867 102.65437 0
67.235077 78.350685 0.41084483
67.901535 81.405075 -0.9940666
68.144173 82.487503 -0.52913362
72.668297 102.66996 0
67.215462 78.344437 0.41055426
67.879379 81.404709 -0.99377745
68.121834 82.492493 -0.52913362
72.631752 102.72612 0
67.195869 78.338173 0.41026425
67.858345 81.409386 -0.99377745
68.094986 82.477165 -0.52855307
72.584953 102.73653 0
67.175163 78.326797 0.40982869
67.840645 81.429199 -0.99464262
68.076012 82.49733 -0.5289886
72.533661 102.72654 0
67.158966 78.335693 0.40997371
67.824013 81.454041 -0.99579579
68.053665 82.502243 -0.5289886
72.491318 102.75716 0
64 64 0
67.812828 81.504135 -0.99839014
68.03241 82.512199 -0.52913362
71.908333 100.30601 0
67.115471 78.302666 0.40881258
68.008934 82.511986 -0.5289886
71.874374 100.36134 0
67.101486 78.321655 0.40924814
67.987656 82.521889 -0.52913362
71.82605 100.35047 0
67.081985 78.315224 0.4089576
67.964188 82.521622 -0.5289886
71.78212 100.3599 0
67.063599 78.313858 0.40881258
67.942886 82.531471 -0.52913362
71.739265 100.37436 0
67.044144 78.307396 0.40852258
67.917267 82.520966 -0.52869809
71.695312 100.38368 0
67.023628 78.295807 0.40808702
67.899162 82.546028 -0.52927864
71.654556 100.40825 0
67.007416 78.304527 0.40823203
67.873566 82.535477 -0.52884364
71.609489 100.41235 0
66.991196 78.313255 0.40837759
67.646606 81.555367 -0.9992553
67.857506 82.570663 -0.52971417
71.568665 100.43682 0
66.97496 78.321945 0.40852258
67.626434 81.564819 -0.99954331
67.829803 82.549866 -0.5289886
71.526733 100.45612 0
64 64 0
67.603134 81.559067 -0.99896729
67.811569 82.574844 -0.52956921
71.482681 100.46519 0
66.950783 78.37999 0.40997371
67.576736 81.538048 -0.99752498
67.788086 82.574356 -0.52942419
71.444855 100.50481 0
66.936523 78.398827 0.41040927
67.557602 81.552505 -0.99810213
67.763573 82.568718 -0.52913362
71.402802 100.52398 0
66.922218 78.417648 0.41084483
67.546997 81.554657 -0.99810213
67.75441 82.581192 -0.52942419
71.379707 100.52335 0
66.920708 78.455055 0.41186038
67.520691 81.533577 -0.99666095
67.736053 82.606094 -0.53000474
71.337624 100.54245 0
66.902222 78.453484 0.41171539
67.500519 81.542885 -0.99694896
67.709496 82.59021 -0.52942419
71.300591 100.58701 0
66.882721 78.446793 0.41142538
67.473282 81.516663 -0.99521977
67.685013 82.584473 -0.52913362
71.256378 100.5958 0
66.861221 78.429878 0.41084483
67.45311 81.525917 -0.99550778
67.669586 82.624603 -0.53014976
71.213158 100.60965 0
71.216682 100.62755 1.0426039
67.431931 81.530075 -0.99550778
67.64608 82.623932 -0.53000474
71.172913 100.63876 0
71.173416 100.64134 1.0427489
67.402847 81.493591 -0.99320143
67.625557 82.638519 -0.53029472
71.128639 100.64741 0
71.135094 100.6806 1.04362
67.385635 81.518005 -0.99435461
67.601067 82.63269 -0.53000474
71.083366 100.65089 0
71.090767 100.68919 1.04362
67.360565 81.501762 -0.99320143
67.57756 82.631905 -0.52985919
71.039078 100.65942 0
71.045456 100.69263 1.043475
67.339409 81.505814 -0.99320143
67.555046 82.636215 -0.52985919
70.999649 100.69346 0
71.003059 100.71132 1.0437651
67.309593 81.464096 -0.99060708
67.534462 82.650719 -0.53014976
70.959183 100.72234 0
70.956764 100.70955 1.043475
67.294228 81.498573 -0.99233627
67.510002 82.644753 -0.52985919
70.912888 100.7205 0
70.904709 100.67708 1.0423139
67.274033 81.507622 -0.99262428
68.446533 87.777504 -0.67557198
70.87999 100.79023 0
71.293114 102.99934 1.1080586
67.248154 81.486137 -0.9911831
68.417801 87.78286 -0.67557198
70.826981 100.75246 0
71.239334 102.97237 1.1070424
67.22702 81.490051 -0.9911831
68.389061 87.788177 -0.67557198
71.259468 103.34544 0
71.195068 102.99641 1.107478
67.205887 81.493942 -0.9911831
68.367805 87.834358 -0.67673308
71.208168 103.3337 0
71.15731 103.05619 1.1089292
67.188446 81.518158 -0.99233627
68.332489 87.803825 -0.675717
71.155975 103.31679 0
71.108253 103.0546 1.1086391
67.165443 81.511826 -0.99176025
66.823822 79.62191 -0.44336051
71.108467 103.3254 0
71.063835 103.07848 1.1090741
67.138794 81.485077 -0.99002993
66.816879 79.691803 -0.4452472
71.06646 103.36469 0
71.016609 103.08699 1.1090741
67.116753 81.483772 -0.98974192
66.793358 79.669617 -0.44452164
71.01889 103.3732 0
70.969376 103.09544 1.1090741
67.088821 81.572769 -0.99435461
66.755478 79.676323 -0.44452164
70.934532 103.45157 0
70.882072 103.15311 1.1102353
66.790115 79.986633 -0.90441179
66.741005 79.705231 -0.4452472
70.884171 103.44453 0
70.833862 103.15628 1.1100903
66.762726 79.886391 -0.89864594
66.733299 79.717133 -0.44553775
70.862122 103.45894 0
70.814659 103.186 1.1108159
66.74353 79.889717 -0.89864594
66.715187 79.72554 -0.44568276
70.81356 103.46208 0
70.769958 103.20958 1.1112514
66.724327 79.893021 -0.89864594
66.690918 79.69809 -0.44481221
70.764984 103.46514 0
70.721703 103.21262 1.1111064
66.706863 79.906509 -0.89922309
66.679794 79.747437 -0.44611832
70.723412 103.50921 0
70.674316 103.2207 1.1111064
66.690224 79.925056 -0.90008712
66.659027 79.740402 -0.44582775
69.233063 94.977638 0
69.235023 94.989288 0.87773383
66.661568 79.872185 -0.89691675
66.633995 79.707741 -0.44481221
69.179268 94.886398 0
69.186409 94.928963 0.87584716
66.65683 79.962135 -0.90181744
66.619278 79.736542 -0.44553775
69.118874 94.754021 0
69.13623 94.858322 0.87367046
66.647659 80.026581 -0.90527695
66.608734 79.790955 -0.44698888
69.068138 94.678024 0
69.076073 94.726067 0.86975157
66.638336 80.091026 -0.90873647
66.577881 79.722305 -0.4449572
69.020119 94.617355 0
69.030533 94.680901 0.86830044
66.24836 77.817116 -0.78016412
66.282616 78.027664 -0.39691868
68.976425 94.582298 0
68.987617 94.651047 0.86728436
66.242378 77.886208 -0.78391165
66.254066 77.958572 -0.39488643
66.523315 79.625938 0
68.951408 94.662201 0.86742991
66.219872 77.853165 -0.78189445
66.213356 77.8125 -0.39067811
66.503609 79.62384 0
68.916817 94.683533 0.86786491
66.203941 77.860939 -0.78218246
66.198296 77.825424 -0.39096811
66.487999 79.647415 0
68.878113 94.679199 0.86757493
66.184776 77.848259 -0.78131729
66.163773 77.715141 -0.3877753
66.456108 79.568146 0
68.840225 94.679947 0.86742991
66.168839 77.855995 -0.7816053
66.156036 77.774208 -0.38937142
66.444542 79.617378 0
68.807976 94.716568 0.86830044
66.152893 77.863731 -0.78189445
66.125839 77.689507 -0.38690418
66.419281 79.579178 0
68.772453 94.732635 0.86859101
66.140862 77.896988 -0.78362364
66.106918 77.676674 -0.38646919
66.398079 79.566666 0
68.738472 94.758904 0.86917102
66.129539 77.935364 -0.78564197
66.094322 77.704895 -0.38719475
66.377693 79.559258 0
68.700523 94.759476 0.86902601
66.125877 78.024872 -0.79054266
66.060623 77.594383 -0.38400197
66.351875 79.515808 0
68.667244 94.790817 0.86975157
66.123543 78.124611 -0.79601938
66.041878 77.581436 -0.38356641
66.327705 79.482597 0
68.630035 94.796432 0.86975157
66.118675 78.20903 -0.80063206
66.03083 77.619881 -0.38458252
66.297485 79.408195 0
68.595886 94.822563 0.87033212
65.751701 75.845993 -0.99818575
66.103775 78.226936 -0.80149722
65.999168 77.519508 -0.38167974
66.275055 79.385223 0
68.557884 94.82296 0.87018716
65.73217 75.812538 -0.99518961
66.088089 78.239693 -0.80207324
65.983582 77.527046 -0.38182473
66.251183 79.351906 0
68.518372 94.813011 0.86975157
65.714943 75.794319 -0.99347937
66.072372 78.252457 -0.80265039
65.964996 77.514 -0.38138917
66.22963 79.334007 0
68.484879 94.844177 0.87047768
65.699226 75.786209 -0.99262261
66.055145 78.254944 -0.80265039
65.953117 77.547241 -0.38226029
66.20887 79.321228 0
68.446121 94.839279 0.87018716
65.689919 75.771988 -0.99133831
66.050209 78.281784 -0.80409157
65.947144 77.56385 -0.38269585
66.203316 79.34832 0
66.695137 82.774376 0.52970749
65.672073 75.748611 -0.98919886
66.027122 78.243279 -0.80178523
64 64 -0
66.186966 79.366432 0
66.669525 82.757034 0.52912694
65.660027 75.765877 -0.99048316
66.002678 78.194489 -0.79890174
64 64 -0
66.164764 79.3433 0
66.641777 82.724243 0.5281114
65.644386 75.75769 -0.98962641
65.981941 78.171288 -0.79746056
64 64 -0
66.143341 79.325287 0
66.614113 82.691391 0.52709526
65.629478 75.754593 -0.98919886
65.961975 78.153175 -0.79630738
64 64 -0
66.125534 79.333015 0
66.587952 82.6688 0.52636969
65.613174 75.741287 -0.98791456
65.93924 78.114532 -0.79400104
64 64 -0
66.107002 79.335571 0
66.559029 82.62558 0.52506357
65.599678 75.748329 -0.98834378
65.908928 78.019493 -0.78852433
65.848763 77.577614 -0.38269585
66.085663 79.317474 0
66.53582 82.623489 0.52491802
65.583427 75.734985 -0.98705947
65.884377 77.965393 -0.78535283
65.833046 77.584984 -0.38284084
66.06646 79.314835 0
64 64 0
65.569244 75.736893 -0.98705947
65.852425 77.854874 -0.77901095
65.809746 77.535667 -0.38138917
66.051399 79.343109 0
66.484612 82.583214 0.5236119
65.557083 75.754051 -0.98834378
65.824127 77.769928 -0.77411026
65.792702 77.5327 -0.38124418
66.03286 79.345581 0
66.45874 82.560448 0.52288634
65.540878 75.740646 -0.98705947
65.804802 77.751602 -0.77295709
65.773643 77.514244 -0.3806636
66.013641 79.342865 0
66.434959 82.553108 0.52259636
65.528671 75.757782 -0.98834378
65.778847 77.681969 -0.76892155
65.761337 77.547302 -0.38153473
65.991745 79.319489 0
66.412544 82.556038 0.52259636
65.512497 75.744339 -0.98705947
65.755043 77.627663 -0.76575005
65.746956 77.564873 -0.38196972
65.974564 79.332199 0
66.387466 82.538322 0.52201581
65.496353 75.730873 -0.98577511
65.730721 77.568199 -0.76229054
65.730568 77.566971 -0.38196972
65.958672 79.355225 0
66.365723 82.546341 0.52216083
65.484756 75.753044 -0.98748702
65.708488 77.524094 -0.75969619
65.707657 77.517502 -0.38051862
65.940117 79.357574 0
66.341354 82.533714 0.52172524
65.469917 75.749741 -0.98705947
65.684441 77.464554 -0.75623667
65.697777 77.571114 -0.38196972
65.918327 79.334091 0
66.318314 82.53138 0.52158022
65.45256 75.726044 -0.98492002
65.661812 77.415253 -0.75335431
65.674988 77.521591 -0.38051862
65.896599 79.310577 0
66.29528 82.529015 0.52143526
65.437767 75.722694 -0.98449248
65.644348 77.40699 -0.75277829
65.656746 77.508125 -0.38008305
65.883797 79.359352 0
66.270988 82.516296 0.52099967
65.422363 75.714218 -0.98363572
65.625023 77.383278 -0.75133598
65.639175 77.499809 -0.37979305
65.862724 79.340942 0
66.249245 82.524178 0.52114469
65.406372 75.70063 -0.98235142
65.607002 77.369843 -0.75047195
65.626579 77.53273 -0.3806636
65.845436 79.353531 0
66.22686 82.526886 0.52114469
65.392838 75.707436 -0.98278058
65.592064 77.382034 -0.75104797
65.613297 77.560486 -0.38138917
65.826881 79.355751 0
66.203247 82.519249 0.52085471
65.37989 75.719299 -0.98363572
65.575897 77.383949 -0.75104797
65.593262 77.531464 -0.38051862
65.804062 79.321754 0
66.182083 82.532211 0.52114469
65.370422 75.699738 -0.98192382
65.578041 77.472237 -0.75594866
65.589325 77.568558 -0.38153473
65.800858 79.374527 0
64 64 0
65.35569 75.696289 -0.98149627
65.57486 77.587173 -0.76229054
65.572929 77.570473 -0.38153473
65.776886 79.33017 0
66.145493 82.51033 0.52041912
65.340385 75.687706 -0.98063952
65.575539 77.738098 -0.77065074
65.553566 77.546532 -0.38080862
65.758362 79.332298 0
66.121948 82.502594 0.52012914
65.323952 75.66893 -0.97892928
65.573517 77.868484 -0.77785778
65.537781 77.553581 -0.38095418
65.7369 79.308563 0
66.097832 82.489647 0.51969355
65.30928 75.665405 -0.97850013
65.565987 77.952629 -0.78247046
65.518509 77.529587 -0.38022804
66.108513 82.786407 0
66.075485 82.492165 0.51969355
65.295181 75.666977 -0.97850013
65.553696 77.995644 -0.78477681
65.5056 77.562416 -0.38109916
65.710815 79.410988 0
66.054283 82.504982 0.51998359
65.279404 75.653236 -0.97721744
65.533394 77.966644 -0.78304648
65.48864 77.559067 -0.38095418
66.062538 82.786278 0
66.033058 82.517792 0.5202741
65.263107 75.634361 -0.97550559
65.515961 77.963348 -0.78275847
65.471138 77.550507 -0.3806636
66.038712 82.778397 0
66.00956 82.509888 0.51998359
65.248497 75.63076 -0.97507638
65.498535 77.960037 -0.78247046
65.455872 77.562622 -0.38095418
66.013794 82.760147 0
65.98719 82.512306 0.51998359
65.232819 75.616959 -0.97379369
65.483299 77.977272 -0.78333563
65.441124 77.579857 -0.38138917
65.991127 82.762566 0
65.967018 82.53537 0.52056414
65.218246 75.613312 -0.97336447
65.470184 78.015053 -0.78535283
65.425804 77.591934 -0.38167974
65.971169 82.790833 0
65.944618 82.537727 0.52056414
65.202621 75.599472 -0.97208184
65.455383 78.037399 -0.786506
65.411522 77.614326 -0.38226029
65.947929 82.788033 0
65.92276 82.54525 0.52070969
65.185989 75.575386 -0.96994239
65.442642 78.080315 -0.78881234
65.402489 77.688393 -0.38429198
65.924698 82.785194 0
65.899818 82.542374 0.52056414
65.175621 75.612549 -0.97293693
65.429276 78.11808 -0.79083067
65.392227 77.752121 -0.38603362
65.899376 82.76162 0
65.879501 82.565338 0.52114469
65.144028 75.579613 -0.96994239
65.635704 80.556328 -0.92718607
65.361542 77.781296 -0.38675919
65.513222 79.316589 0
65.833099 82.554321 0.52070969
65.131027 75.591194 -0.97079754
65.614693 80.547989 -0.92660892
65.344887 77.782936 -0.38675919
65.48764 79.245895 0
65.813202 82.582382 0.52143526
65.116531 75.587448 -0.97036994
65.593208 80.534492 -0.92574489
65.325745 77.75869 -0.38603362
65.472214 79.278755 0
65.791748 82.594894 0.52172524
65.103981 75.604103 -0.97165263
65.57225 80.526093 -0.92516774
65.312561 77.796501 -0.38704976
65.447838 79.218361 0
65.769768 82.602219 0.52187026
65.088043 75.585007 -0.96994239
65.552277 80.527985 -0.92516774
65.768204 82.827057 -0.52811754
65.435776 79.287468 0
65.749718 82.630226 0.52259636
65.074043 75.586311 -0.96994239
65.533264 80.540161 -0.92574489
65.744972 82.824005 -0.52797252
64 64 0
65.726723 82.627136 0.5224508
65.066574 75.581833 -0.96951324
65.522324 80.530769 -0.92516774
65.735512 82.845757 -0.52855307
64 64 0
65.71595 82.633369 0.52259636
65.054901 75.608673 -0.97165263
65.504684 80.55835 -0.92660892
65.708504 82.80127 -0.52724695
64 64 0
65.694374 82.645767 0.52288634
65.036751 75.563919 -0.96780133
65.481911 80.529251 -0.92487973
64 64 -0
65.703407 82.999916 0
65.670914 82.637459 0.52259636
65.023224 75.57029 -0.96823055
65.462387 80.536179 -0.92516774
64 64 -0
65.678619 82.981216 0
65.650223 82.660172 0.52317691
65.008354 75.561279 -0.96737379
65.443306 80.548248 -0.92574489
64 64 -0
65.657944 83.009155 0
65.629028 82.677673 0.5236119
64.994385 75.562492 -0.96737379
65.423752 80.55513 -0.9260329
64 64 -0
65.630516 82.959297 0
65.606461 82.679626 0.5236119
64.978676 75.543221 -0.96566194
65.403313 80.551689 -0.92574489
64 64 -0
65.605843 82.940506 0
65.583893 82.681549 0.5236119
64.963448 75.529037 -0.96437758
65.383743 80.558525 -0.9260329
65.570854 82.797615 -0.52681142
65.58252 82.937233 0
65.56218 82.693817 0.52390248
64.952881 75.571129 -0.96780133
65.363731 80.560181 -0.9260329
65.548996 82.809868 -0.52710193
65.560066 82.944336 0
65.540871 82.711235 0.52433801
64.935577 75.531334 -0.96437758
65.343719 80.561821 -0.9260329
65.526268 82.811729 -0.52710193
65.539284 82.972137 0
65.517418 82.702713 0.52404749
64.922058 75.53759 -0.9648068
65.324944 80.578888 -0.92689693
65.502708 82.803185 -0.52681142
65.513451 82.93766 0
65.497307 82.735611 0.52491802
64.907715 75.533562 -0.96437758
65.303291 80.559868 -0.92574489
65.479576 82.799812 -0.5266664
65.493431 82.9758 0
65.474663 82.737404 0.52491802
64.894173 75.539787 -0.9648068
65.284874 80.582039 -0.92689693
65.454048 82.765312 -0.52565026
65.470901 82.98278 0
65.452827 82.749542 0.52520859
64.880615 75.545975 -0.96523434
65.263657 80.568123 -0.9260329
65.43177 82.772255 -0.52579582
65.446381 82.963783 0
65.430565 82.756462 0.52535361
64.865517 75.531662 -0.96395004
65.243637 80.569641 -0.9260329
65.40831 82.763596 -0.5255053
65.425804 82.996666 0
65.408287 82.763351 0.52549857
64.851578 75.5327 -0.96395004
65.22438 80.581436 -0.92660892
65.385254 82.760101 -0.52536029
65.406296 83.04509 0
65.385239 82.759865 0.52535361
64.837273 75.528603 -0.96352249
65.203972 80.577744 -0.92632091
65.362587 82.761765 -0.52536029
65.384415 83.062332 0
65.364075 82.782257 0.52593416
64.822609 75.519379 -0.96266735
65.183571 80.574036 -0.9260329
65.338799 82.747841 -0.5249247
65.360268 83.048431 0
65.341743 82.78907 0.52607912
64.808693 75.520363 -0.96266735
65.160645 80.534172 -0.92372656
65.315422 82.73909 -0.52463472
65.339073 83.076019 0
65.319046 82.79068 0.52607912
64.791588 75.47522 -0.95881444
65.14209 80.556206 -0.92487973
65.291702 82.725105 -0.52419919
65.315666 83.072433 0
65.296692 82.797455 0.52622473
64.779114 75.496658 -0.96052629
65.123482 80.578217 -0.9260329
65.269783 82.73703 -0.5244897
65.290504 83.042847 0
65.275391 82.819748 0.52680528
64.764877 75.49247 -0.96009874
65.10173 80.553757 -0.92459172
65.065277 80.005966 -0.44800499
65.268532 83.059975 0
65.251953 82.810898 0.52651471
64.752663 75.518997 -0.96223819
65.081726 80.555077 -0.92459172
65.047966 80.038345 -0.44887555
65.246857 83.082268 0
65.23024 82.827957 0.52695024
64.743713 75.488716 -0.9596712
65.070724 80.540237 -0.92372656
65.041634 80.090851 -0.45032722
65.237343 83.114174 0
65.219872 82.844238 0.52738523
64.729836 75.489609 -0.9596712
65.051064 80.546677 -0.92401457
65.02713 80.169876 -0.45250389
65.212601 83.089684 0
65.197433 82.850906 0.52753085
64.716911 75.505859 -0.9609555
65.031715 80.558273 -0.92459172
65.018906 80.352646 -0.4575839
65.187912 83.06517 0
65.17498 82.857521 0.52767581
64.703629 75.51696 -0.96181065
65.011703 80.559509 -0.92459172
65.007698 80.493912 -0.46150225
65.166145 83.087372 0
65.152191 82.858925 0.52767581
64.688797 75.502419 -0.96052629
64.992004 80.565872 -0.92487973
64.989944 80.531433 -0.46251836
65.139969 83.036797 0
65.129715 82.865486 0.52782083
64.674591 75.498123 -0.96009874
64.971382 80.556725 -0.92430258
64.969666 80.527412 -0.46237281
65.115143 83.006996 0
65.107529 82.877228 0.5281114
64.658936 75.468185 -0.95753175
64.95256 80.578545 -0.92545575
64.951485 80.559715 -0.46324393
65.095161 83.060287 0
65.0868 82.914856 0.52912694
64.646233 75.489479 -0.95924366
64.930786 80.548706 -0.92372656
64.931763 80.566032 -0.46338892
65.070961 83.040802 0
65.063072 82.900597 0.52869195
64.632629 75.495369 -0.9596712
64.912216 80.575638 -0.92516774
64.910889 80.551575 -0.46295339
65.044518 82.979736 0
65.041092 82.917419 0.52912694
64.618187 75.485863 -0.95881444
64.893021 80.592224 -0.9260329
64.888931 80.516357 -0.46193781
65.023262 83.012161 0
65.020187 82.955002 0.53014308
64.603226 75.466095 -0.9571026
64.873512 80.603615 -0.92660892
64.870071 80.538177 -0.46251836
64 64 0
64.996735 82.945831 0.52985251
64.589371 75.466812 -0.9571026
64.853981 80.615005 -0.92718607
64.850883 80.554771 -0.46295339
64 64 0
64.974106 82.952225 0.52999806
64.576286 75.48291 -0.9583869
64.83416 80.621185 -0.92747408
64.828278 80.503891 -0.46150225
64 64 0
64.950424 82.937805 0.52956247
64.560905 75.452835 -0.9558199
64.813065 80.601509 -0.92632091
64.803505 80.40625 -0.45874447
64.932632 83.042877 0
64.928307 82.954521 0.52999806
64.547806 75.468872 -0.9571026
64.792511 80.592155 -0.92574489
64.775253 80.230728 -0.45381001
64.909378 83.038795 0
64.905899 82.966003 0.53028804
64.534187 75.47467 -0.95753175
64.772942 80.603424 -0.92632091
64.740173 79.899429 -0.44452164
64.886131 83.034683 0
64.882256 82.9515 0.52985251
64.519852 75.465042 -0.95667499
64.752411 80.594025 -0.92574489
64.698128 79.396759 -0.43044379
64.864067 83.056541 0
64.860298 82.97332 0.53043306
64.506226 75.470787 -0.9571026
64.733276 80.61557 -0.92689693
64.672417 79.236656 -0.42594489
64.842194 83.083565 0
64.838974 83.010696 0.53144914
64.492142 75.466263 -0.95667499
64.713638 80.626793 -0.92747408
64.651558 79.180344 -0.42434824
64.81913 83.084572 0
64.815109 82.990929 0.53086859
64.478287 75.46685 -0.95667499
64.694199 80.643158 -0.92833924
64.636032 79.248611 -0.4262349
64.796722 83.101151 0
64.793678 83.028252 0.53188473
64.463814 75.452026 -0.95539069
64.674088 80.643982 -0.92833924
64.619499 79.29612 -0.42754158
64.774269 83.117691 0
64.771111 83.039566 0.53217471
64.450172 75.457726 -0.9558199
64.65316 80.624107 -0.92718607
64.604279 79.379921 -0.42986324
64.755669 83.23304 0
64.7481 83.040489 0.53217471
64.436333 75.45826 -0.9558199
64.634254 80.655891 -0.92891526
64.585693 79.380638 -0.42986324
64.733223 83.254723 0
64.725693 83.056961 0.5326103
64.428833 75.443123 -0.9545356
64.62439 80.661438 -0.92920327
64.578156 79.427727 -0.43116936
64.725288 83.353996 0
64.715538 83.09375 0.53362638
64.415375 75.453888 -0.95539069
64.604065 80.657013 -0.92891526
64.558197 79.392075 -0.43015382
64.700394 83.313248 0
64.692657 83.099792 0.5337714
64.402077 75.469772 -0.95667499
64.58358 80.6474 -0.92833924
64.536865 79.314827 -0.42797658
64.679062 83.3713 0
64.670486 83.126579 0.53449696
64.387177 75.439476 -0.95410806
64.563461 80.648094 -0.92833924
64.517654 79.294685 -0.42739603
64.6539 83.320076 0
64.647377 83.12738 0.53449696
64.374359 75.470718 -0.95667499
64.545036 80.700455 -0.9312216
64.497986 79.258957 -0.42638046
64.54142 80.589828 0
64.62426 83.128143 0.53449696
64.360336 75.466034 -0.95624745
64.458885 78.60202 -0.81418097
64.475143 79.119293 -0.42246154
64.522034 80.611282 0
64.602127 83.160042 0.53536749
64.346481 75.466461 -0.95624745
64.444054 78.695625 -0.81936967
64.451851 78.953659 -0.41781765
64.501961 80.6119 0
64.579765 83.186745 0.53609365
64.333221 75.487396 -0.95795935
64.4254 78.665138 -0.81764048
64.425194 78.658096 -0.40954483
64.480377 80.560471 0
64.55658 83.187424 0.53609365
64.318909 75.472389 -0.95667499
64.407967 78.675972 -0.8182165
64.403587 78.518356 -0.40562648
64.462105 80.623474 0
64.533394 83.188087 0.53609365
64.305321 75.48304 -0.95753175
64.389954 78.666122 -0.81764048
64.384796 78.472076 -0.40432036
64.439384 80.525162 0
64.510208 83.188721 0.53609365
64.293137 75.550117 -0.96309495
