# .PCD v0.7 - Point Cloud Data file format
VERSION 0.7
FIELDS x y z
SIZE 4 4 4
TYPE F F F
COUNT 1 1 1
WIDTH 1582
HEIGHT 1
VIEWPOINT 0 0 0 1 0 0 0
POINTS 1582
DATA ascii
81.649292 55.060894 0
81.601822 55.084938 0.55104202
69.20948 61.369381 -0.96215385
70.019936 60.960129 -0.93031329
71.335617 60.29575 -0.91024685
73.914787 58.993351 -0.92586303
78.883209 56.484459 -0.92920327
81.204575 55.312241 -0.53827697
81.646133 55.089268 0
81.607941 55.108555 0.550897
69.243546 61.360123 -0.96785629
70.090828 60.933556 -0.94069636
71.326462 60.311474 -0.90855765
73.911667 59.009949 -0.92500788
78.8507 56.52338 -0.92660892
81.228989 55.326023 -0.53871256
81.661537 55.108257 0
81.604744 55.136848 0.55046147
69.162804 61.408588 -0.95237428
70.045197 60.965683 -0.93308192
71.317307 60.327164 -0.90687066
73.913086 59.024239 -0.92457873
78.86898 56.536686 -0.92718607
81.234818 55.349174 -0.53856754
81.68158 55.124931 0
81.610802 55.160458 0.55031645
69.108467 61.443584 -0.94178051
70.035393 60.979725 -0.93100476
71.317177 60.338287 -0.90630615
73.928284 59.03162 -0.92543548
78.877983 56.554657 -0.92718607
81.249908 55.367683 -0.53871256
81.687637 55.148628 0
81.626114 55.17942 0.55046147
69.217697 61.396805 -0.96133655
70.065987 60.973576 -0.93515909
71.339783 60.338058 -0.90855765
73.929688 59.04591 -0.92500788
78.891594 56.570332 -0.92747408
81.241722 55.397812 -0.53813201
81.702972 55.167686 0
81.646065 55.196079 0.55075204
69.19429 61.416317 -0.95644832
70.015732 61.007725 -0.92685312
71.34877 60.344658 -0.90912217
73.935669 59.057911 -0.92500788
78.900558 56.588329 -0.92747408
81.266068 55.411709 -0.53856754
81.690338 55.200672 0
81.642731 55.224354 0.55031645
69.210693 61.416004 -0.95889401
70.037323 61.006077 -0.92962182
71.344063 60.358059 -0.90799534
73.955421 59.063084 -0.92629057
78.918762 56.601749 -0.9280501
81.281082 55.430271 -0.53871256
81.724266 55.210495 0
81.662621 55.241066 0.55060649
69.156212 61.450779 -0.94830024
70.103897 60.982246 -0.93931073
71.362129 60.360176 -0.90968454
73.952179 59.079662 -0.92543548
78.913795 56.626652 -0.92718607
81.286774 55.453457 -0.53856754
81.730209 55.234222 0
81.659225 55.269318 0.55017143
69.190315 61.441719 -0.95400262
70.071533 61.00737 -0.93377346
71.348289 60.378063 -0.90743297
73.967316 59.087158 -0.92629057
78.92733 56.642391 -0.92747408
81.306396 55.469761 -0.53885758
81.745453 55.253353 0
81.665092 55.292965 0.55002588
69.180107 61.454525 -0.95156008
70.048134 61.027981 -0.92962182
71.361778 60.382465 -0.90855765
73.954819 59.108261 -0.92457873
78.936211 56.660435 -0.92747408
81.326012 55.486099 -0.53914756
81.746658 55.279396 0
81.694252 55.305145 0.55060649
69.183174 61.460789 -0.95156008
70.078751 61.022053 -0.93377346
71.375275 60.38689 -0.90968454
73.956116 59.122551 -0.92415112
78.949707 56.676212 -0.92776209
81.317635 55.516178 -0.53856754
81.752518 55.303131 0
81.686081 55.335678 0.55002588
69.275063 61.423676 -0.96785629
70.140945 61.000774 -0.9427709
71.370499 60.400269 -0.90855765
73.975845 59.127823 -0.92543548
78.963188 56.692017 -0.9280501
81.323196 55.539394 -0.53842199
81.758339 55.326874 0
81.701218 55.354767 0.55017143
69.207062 61.464672 -0.95481682
70.072388 61.043343 -0.9316963
71.38855 60.4025 -0.91024685
73.977112 59.142124 -0.92500788
78.948761 56.72142 -0.92660892
81.342758 55.555779 -0.53871256
81.782852 55.341499 0
81.725655 55.369347 0.55060649
69.312401 61.421318 -0.97356182
70.134651 61.02219 -0.94069636
71.374603 60.420307 -0.90799534
73.987587 59.151943 -0.92543548
78.971512 56.732712 -0.92747408
81.35762 55.574474 -0.53885758
81.797974 55.360722 0
81.717369 55.399845 0.55002588
69.190926 61.488029 -0.95074278
70.056938 61.068951 -0.92823613
71.365196 60.435863 -0.90630615
73.970337 59.175194 -0.92329603
78.975624 56.753056 -0.92718607
81.344398 55.60677 -0.53813201
81.799019 55.386772 0
81.727753 55.421261 0.55002588
69.236961 61.469654 -0.95889401
70.085823 61.059509 -0.93239045
71.426849 60.411568 -0.91362524
73.991745 59.172287 -0.92500788
78.998634 56.753105 -0.92833924
81.344795 55.619507 -0.53798699
81.804222 55.397526 0
81.723579 55.436489 0.5497359
69.284538 61.454536 -0.96704209
70.089371 61.066864 -0.93239045
71.399124 60.435982 -0.90968454
73.988312 59.188824 -0.92415112
78.984062 56.782463 -0.92689693
81.354904 55.640472 -0.53798699
81.805237 55.423557 0
81.724541 55.462425 0.54944533
69.176216 61.514416 -0.94666874
70.111008 61.065536 -0.93515909
71.357628 60.466919 -0.90405679
73.998741 59.198673 -0.92457873
79.002106 56.796089 -0.92747408
81.374359 55.656952 -0.53827697
81.815582 55.44508 0
81.758286 55.472595 0.55017143
69.241631 61.490795 -0.95807672
70.087379 61.085926 -0.93100476
71.421471 60.447289 -0.91137373
73.995277 59.215187 -0.92372358
79.006142 56.816456 -0.92718607
81.389107 55.675713 -0.53842199
81.835289 55.46212 0
81.76857 55.494057 0.55017143
69.222351 61.507774 -0.95400262
70.122604 61.078156 -0.93585056
71.407417 60.465012 -0.90912217
74.014961 59.220634 -0.92500788
79.014809 56.834591 -0.92718607
81.413223 55.69001 -0.53885758
81.854996 55.479191 0
81.774132 55.51778 0.55002588
69.234299 61.509834 -0.95563412
70.121597 61.087708 -0.93515909
71.420853 60.469604 -0.91024685
74.029991 59.228333 -0.92586303
79.028122 56.850517 -0.92747408
81.43734 55.704357 -0.53929311
81.86528 55.500771 0
81.779678 55.541492 0.54988092
69.121185 61.571232 -0.93444663
70.093376 61.110161 -0.93031329
71.388374 60.495995 -0.90574378
74.007927 59.253651 -0.92329603
79.046089 56.864254 -0.9280501
81.433258 55.732117 -0.53885758
81.86142 55.529057 0
81.789886 55.562981 0.54988092
69.209015 61.537285 -0.94992858
70.074188 61.128246 -0.92685312
71.433952 60.485378 -0.91080922
74.060059 59.243805 -0.92757487
79.031319 56.893494 -0.92660892
81.447929 55.750969 -0.53900254
81.866943 55.552868 0
81.804764 55.582264 0.55002588
69.189629 61.554115 -0.94585454
70.104874 61.122757 -0.93100476
71.429008 60.498692 -0.90968454
74.037941 59.269093 -0.92500788
79.05394 56.905041 -0.92747408
81.443794 55.778698 -0.53856754
81.881836 55.572247 0
81.819633 55.601562 0.55017143
69.264168 61.526752 -0.95889401
70.13105 61.119469 -0.93446493
71.428635 60.50983 -0.90912217
74.038986 59.283417 -0.92457873
79.048454 56.929836 -0.92660892
81.45372 55.799782 -0.53856754
81.882599 55.598282 0
81.825058 55.625317 0.55002588
69.191055 61.568756 -0.9450404
70.10273 61.141769 -0.92962182
71.42823 60.520969 -0.90855765
74.035393 59.2999 -0.92372358
79.085098 56.934856 -0.92833924
81.458893 55.823086 -0.53842199
81.902153 55.615482 0
81.839882 55.64465 0.55017143
69.296997 61.526939 -0.96378225
70.160736 61.123676 -0.93792772
71.432434 60.529949 -0.90855765
74.055023 59.305511 -0.92500788
79.074875 56.961845 -0.92718607
81.468758 55.844189 -0.53842199
81.916985 55.634922 0
81.840538 55.670612 0.54988092
69.273102 61.545853 -0.95889401
70.173302 61.126892 -0.93931073
71.441238 60.536781 -0.90912217
74.069992 59.313335 -0.92586303
79.083374 56.980064 -0.92718607
81.488037 55.860912 -0.53871256
81.927078 55.656578 0
81.855293 55.689987 0.55002588
69.262604 61.558468 -0.95644832
70.199516 61.123795 -0.9427709
71.496109 60.522255 -0.91531229
74.075645 59.325508 -0.92586303
79.068382 57.009178 -0.92574489
81.507278 55.877678 -0.53900254
81.922997 55.684807 0
81.870049 55.709373 0.55017143
69.301445 61.548229 -0.96296805
70.143791 61.158669 -0.93377346
71.426514 60.565445 -0.90630615
74.067307 59.344154 -0.92457873
79.095581 57.018711 -0.92689693
81.517075 55.898838 -0.53900254
81.928291 55.708664 0
81.870613 55.735336 0.54988092
69.290932 61.560848 -0.96052235
70.215576 61.134583 -0.94415653
71.458351 60.561653 -0.90968454
74.077599 59.354164 -0.92500788
79.099312 57.03912 -0.92660892
81.512711 55.926533 -0.53856754
81.938293 55.730331 0
81.8853 55.754765 0.55002588
69.226509 61.598198 -0.94830024
70.146088 61.175617 -0.93308192
71.453262 60.574913 -0.90855765
74.10186 59.357769 -0.92671978
79.117126 57.053047 -0.92718607
81.531883 55.943363 -0.53885758
81.953018 55.749832 0
81.899986 55.774204 0.55017143
69.236938 61.597237 -0.94992858
70.170586 61.168869 -0.93654209
71.473801 60.570942 -0.91080922
74.085999 59.372437 -0.92500788
79.135406 57.055717 -0.9280501
81.565079 55.940956 -0.53972811
81.967453 55.756344 0
81.890778 55.791523 0.5497359
69.271309 61.589172 -0.95563412
70.132942 61.195107 -0.93031329
71.431732 60.601105 -0.90518147
74.114929 59.373955 -0.92714733
79.12027 57.084763 -0.92660892
81.570084 55.964348 -0.53958309
81.977402 55.778061 0
81.895958 55.815308 0.54959089
69.220245 61.620152 -0.94585454
70.177414 61.183788 -0.93654209
71.44046 60.607983 -0.90574378
74.106491 59.39257 -0.92586303
79.166275 57.085873 -0.92891526
81.560867 55.994205 -0.53900254
81.977859 55.8041 0
81.901093 55.839096 0.54944533
69.331123 61.577377 -0.96541375
70.139702 61.209938 -0.93031329
71.495445 60.593845 -0.91193604
74.098022 59.41116 -0.92457873
79.14637 57.117039 -0.92718607
81.575256 56.013283 -0.53914756
81.992485 55.823681 0
81.92041 55.85643 0.5497359
69.252991 61.620541 -0.95074278
70.188766 61.196659 -0.93723357
71.457901 60.621777 -0.90687066
74.103561 59.423363 -0.92457873
79.168793 57.128948 -0.9280501
81.589638 56.032372 -0.53929311
82.007088 55.843281 0
81.930237 55.87809 0.5497359
69.30542 61.604511 -0.95970821
70.178444 61.210327 -0.93515909
71.448074 60.637066 -0.90518147
74.11377 59.433456 -0.92500788
79.177086 57.147282 -0.9280501
81.618195 56.045078 -0.53987366
82.021667 55.862904 0
81.925827 55.906178 0.54930037
69.272247 61.627151 -0.95318848
70.149773 61.232212 -0.93031329
71.470673 60.637726 -0.90743297
74.128639 59.441471 -0.92586303
79.161774 57.176239 -0.92660892
81.63253 56.06424 -0.54001868
82.017258 55.89109 0
81.949814 55.921444 0.5497359
69.297661 61.623409 -0.95726252
70.180573 61.227325 -0.93446493
71.49791 60.636356 -0.91024685
74.13414 59.453712 -0.92586303
79.165291 57.196678 -0.92632091
81.618408 56.096188 -0.53929311
82.01754 55.91713 0
81.96904 55.938889 0.55002588
69.27346 61.641914 -0.95237428
70.170197 61.240932 -0.93239045
71.446297 60.670311 -0.90349227
74.134941 59.468056 -0.92543548
79.182938 57.210789 -0.92689693
81.656395 56.104755 -0.5401637
82.013054 55.945274 0
81.97403 55.962727 0.54988092
69.312424 61.632191 -0.95889401
70.214767 61.230011 -0.93861926
71.506012 60.654484 -0.91024685
74.126343 59.486576 -0.92415112
79.21003 57.220718 -0.9280501
81.646942 56.13456 -0.53958309
82.037018 55.960693 0
81.983727 55.984451 0.54988092
69.346893 61.624569 -0.96459639
70.130981 61.276226 -0.92546749
71.486832 60.67387 -0.90743297
74.145866 59.492561 -0.92543548
79.204041 57.245396 -0.92718607
81.63269 56.166435 -0.53885758
82.051476 55.980385 0
81.98391 56.010399 0.54959089
69.272926 61.665054 -0.95074278
70.175552 61.265354 -0.9316963
71.495491 60.680862 -0.90799534
74.155991 59.502747 -0.92586303
79.23111 57.255394 -0.92833924
81.670639 56.175125 -0.53972811
82.056396 56.004307 0
82.00779 56.025829 0.55002588
69.293831 61.663445 -0.95400262
70.247711 61.242428 -0.94207937
71.490204 60.694023 -0.90687066
74.161423 59.515018 -0.92586303
79.225052 57.280071 -0.92747408
81.689606 56.192284 -0.54001868
82.080338 56.019821 0
82.007912 56.051788 0.5497359
69.24968 61.698074 -0.9450404
70.235977 61.265594 -0.93931073
71.512123 60.706017 -0.90855765
74.153419 59.547836 -0.92415112
79.25071 57.312733 -0.9280501
81.713173 56.232967 -0.5401637
82.099564 56.063538 0
82.01754 56.099506 0.54944533
69.234337 61.712337 -0.94178051
70.179512 61.299252 -0.93031329
71.516098 60.715096 -0.90855765
74.187027 59.547768 -0.92671978
79.249306 57.335304 -0.92747408
81.722542 56.254375 -0.5401637
82.118668 56.081249 0
82.027069 56.121284 0.54944533
69.345848 61.671291 -0.96133655
70.173576 61.310722 -0.92893028
71.520058 60.724182 -0.90855765
74.197105 59.558029 -0.92714733
79.29055 57.339272 -0.92949241
81.741425 56.271641 -0.54045421
82.123459 56.105225 0
82.04612 56.138916 0.5497359
69.324593 61.684376 -0.95726252
70.2258 61.292446 -0.93654209
71.498741 60.738857 -0.90574378
74.180954 59.572384 -0.92543548
79.275597 57.356762 -0.92833924
81.760376 56.27615 -0.5408892
82.132996 56.114101 0
82.069923 56.141529 0.55031645
69.336464 61.686874 -0.95889401
70.215256 61.305962 -0.93446493
71.530663 60.73579 -0.90912217
74.181587 59.586727 -0.92500788
79.293098 57.371113 -0.92891526
81.76017 56.301746 -0.54059923
82.132965 56.140156 0
82.069862 56.167507 0.55002588
69.384628 61.673725 -0.96704209
70.23233 61.307499 -0.93654209
71.525261 60.748924 -0.90799534
74.177483 59.603111 -0.92415112
79.3106 57.38549 -0.92949241
81.788544 56.314968 -0.54117978
82.128113 56.168266 0
82.079315 56.189346 0.55002588
69.423752 61.664593 -0.97356182
70.230972 61.317017 -0.93585056
71.519859 60.762035 -0.90687066
74.196938 59.609318 -0.92543548
79.323334 57.401951 -0.92978042
81.793045 56.33852 -0.54103476
82.137558 56.190174 0
82.103058 56.205032 0.55046147
69.34935 61.704288 -0.95970821
70.257263 61.314655 -0.93931073
71.528427 60.769123 -0.90743297
74.192787 59.625694 -0.92457873
79.321777 57.424557 -0.92920327
81.816605 56.353882 -0.54146981
82.137428 56.216198 0
82.093369 56.235107 0.54988092
69.338486 61.716587 -0.95726252
70.232826 61.334053 -0.93515909
71.555687 60.76823 -0.91024685
74.202805 59.63599 -0.92500788
79.329712 57.443073 -0.92920327
81.825829 56.375416 -0.54146981
82.14682 56.238121 0
82.107506 56.254936 0.55002588
69.427643 61.686207 -0.97274762
70.222191 61.347488 -0.93308192
71.536217 60.787327 -0.90743297
74.208069 59.648319 -0.92500788
79.337616 57.461601 -0.92920327
81.83503 56.396961 -0.54146981
82.170532 56.253933 0
82.116852 56.276817 0.55002588
69.398582 61.706299 -0.96704209
70.248482 61.345203 -0.93654209
71.549438 60.792465 -0.90855765
74.227478 59.65464 -0.92629057
79.345512 57.480137 -0.92920327
81.839424 56.420547 -0.54132479
82.175095 56.277927 0
82.126175 56.298714 0.55002588
69.287552 61.761009 -0.94666874
70.19162 61.378185 -0.92754465
71.534592 60.809513 -0.90630615
74.218552 59.673 -0.92500788
79.324806 57.510784 -0.92747408
81.848572 56.442108 -0.54132479
82.194008 56.295834 0
82.1259 56.324673 0.5497359
69.367676 61.734726 -0.96052235
70.254875 61.36031 -0.93654209
71.529083 60.822567 -0.90518147
74.233223 59.681362 -0.92586303
79.32309 57.533333 -0.92689693
81.862473 56.461658 -0.54146981
82.193703 56.321873 0
82.139946 56.344559 0.54988092
69.324852 61.760376 -0.95237428
70.221062 61.38343 -0.93100476
71.575073 60.813938 -0.91024685
74.214775 59.703682 -0.92372358
79.345207 57.545834 -0.92776209
81.866783 56.48526 -0.54132479
82.198174 56.345879 0
82.158775 56.36245 0.55017143
69.332108 61.764904 -0.95318848
70.251991 61.379311 -0.93515909
71.555489 60.832912 -0.90743297
74.238899 59.708088 -0.92543548
79.333908 57.57238 -0.92660892
81.847099 56.518906 -0.54045421
82.207413 56.367874 0
82.148819 56.392433 0.54959089
69.343918 61.76754 -0.95481682
70.227364 61.398472 -0.93100476
71.57338 60.836166 -0.90912217
74.234596 59.724426 -0.92457873
79.365524 57.580944 -0.9280501
81.836945 56.548489 -0.53987366
82.231033 56.383858 0
82.172363 56.408363 0.55002588
69.360306 61.768299 -0.95726252
70.249031 61.398285 -0.93377346
71.549042 60.857044 -0.90574378
74.225548 59.74271 -0.92329603
79.354172 57.607468 -0.92689693
81.831543 56.576042 -0.53943813
82.230606 56.409897 0
82.176735 56.432323 0.54988092
69.308212 61.797508 -0.94748294
70.210464 61.423141 -0.92754465
71.571609 60.858376 -0.90799534
74.249657 59.747196 -0.92500788
79.366676 57.624035 -0.92718607
81.821297 56.60556 -0.53885758
82.239761 56.431931 0
82.176277 56.458271 0.54959089
69.34285 61.790699 -0.95318848
70.232124 61.422981 -0.93031329
71.570709 60.869469 -0.90743297
74.264267 59.755665 -0.92586303
79.388695 57.636684 -0.9280501
81.825424 56.629082 -0.53871256
82.253693 56.451988 0
82.194969 56.476273 0.54988092
69.368362 61.787743 -0.95726252
70.216675 61.43816 -0.92754465
71.565079 60.882496 -0.90630615
74.269386 59.76807 -0.92586303
79.382034 57.66119 -0.92718607
81.815094 56.658546 -0.53813201
82.277245 56.468098 0
82.223267 56.490341 0.55046147
69.287422 61.824833 -0.94259471
70.278542 61.417099 -0.93654209
71.57637 60.883194 -0.90743297
74.25769 59.780136 -0.92457873
79.4002 57.664585 -0.9280501
81.833954 56.663376 -0.53856754
82.272171 56.483097 0
82.223 56.50333 0.55031645
69.358635 61.803104 -0.95481682
70.212036 61.453232 -0.92616165
71.580124 60.892353 -0.90743297
74.262787 59.792534 -0.92457873
79.388702 57.691048 -0.92689693
81.813942 56.696762 -0.53769642
82.276413 56.507164 0
82.22242 56.529301 0.55002588
69.315536 61.828274 -0.94666874
70.252251 61.445568 -0.9316963
71.579178 60.903435 -0.90687066
74.258362 59.808819 -0.92372358
79.415466 57.70182 -0.9280501
81.851624 56.706497 -0.53856754
82.290283 56.527275 0
82.236252 56.549351 0.55017143
69.418869 61.79369 -0.96459639
70.241402 61.458794 -0.92962182
71.582916 60.912594 -0.90687066
74.277695 59.815407 -0.92500788
79.41349 57.72435 -0.92747408
81.860428 56.728073 -0.53856754
82.308937 56.54546 0
82.245247 56.571392 0.55017143
69.352837 61.828114 -0.95237428
70.281662 61.451244 -0.93515909
71.605476 60.914116 -0.90912217
74.273216 59.831692 -0.92415112
79.42585 57.741035 -0.92776209
81.888443 56.741852 -0.53914756
82.308289 56.571499 0
82.254211 56.593445 0.55017143
69.382942 61.823467 -0.95726252
70.284737 61.458839 -0.93515909
71.6092 60.923309 -0.90912217
74.278244 59.844109 -0.92415112
79.419014 57.765499 -0.92689693
81.916473 56.755676 -0.53972811
82.312416 56.595585 0
82.243874 56.623299 0.54959089
69.362648 61.839211 -0.95318848
70.250572 61.481434 -0.92962182
71.60347 60.936306 -0.90799534
74.292793 59.852692 -0.92500788
79.445724 57.776402 -0.9280501
81.930046 56.775383 -0.53987366
82.326187 56.615765 0
82.26722 56.639526 0.55002588
69.37442 61.84201 -0.95481682
70.28154 61.477776 -0.93377346
71.593018 60.95118 -0.90630615
74.302551 59.86322 -0.92543548
79.443642 57.79892 -0.92747408
81.958054 56.789307 -0.54045421
82.335098 56.637913 0
82.271286 56.66354 0.54988092
69.427513 61.828304 -0.96378225
70.289238 61.483505 -0.93446493
71.643883 60.941475 -0.91193604
74.307549 59.875671 -0.92543548
79.465538 57.811817 -0.92833924
81.981216 56.805225 -0.5408892
82.334305 56.663944 0
82.280136 56.685623 0.54988092
69.434723 61.833035 -0.96459639
70.236359 61.513401 -0.92616165
71.619247 60.962009 -0.90855765
74.302979 59.891933 -0.92457873
79.458588 57.836258 -0.92747408
81.980255 56.830803 -0.54059923
82.372177 56.674534 0
82.288956 56.707714 0.54988092
69.354652 61.872456 -0.94992858
70.271988 61.507973 -0.93100476
71.627647 60.969334 -0.90912217
74.30793 59.904388 -0.92457873
79.475624 57.851124 -0.9280501
82.017868 56.841026 -0.54146981
82.351982 56.708275 0
82.317078 56.722141 0.55046147
69.398582 61.862549 -0.95726252
70.321655 61.497078 -0.93792772
71.626564 60.980431 -0.90855765
74.298569 59.922508 -0.92329603
79.473434 57.873634 -0.92747408
82.026505 56.862801 -0.54146981
82.380142 56.72279 0
82.3162 56.748104 0.55017143
69.405754 61.867264 -0.95807672
70.277992 61.523136 -0.93100476
71.616043 60.995235 -0.90687066
74.308258 59.933075 -0.92372358
79.476021 57.89423 -0.92718607
82.030289 56.886494 -0.54132479
82.37439 56.750736 0
82.329781 56.768333 0.55031645
69.399139 61.877411 -0.95644832
70.271652 61.534393 -0.92962182
71.629112 61.000725 -0.90799534
74.317932 59.943657 -0.92415112
79.488197 57.911045 -0.92747408
82.034035 56.910183 -0.54117978
82.397675 56.767227 0
82.338501 56.790489 0.55031645
69.351067 61.90377 -0.94748294
70.297981 61.532825 -0.93308192
71.623276 61.013649 -0.90687066
74.313278 59.959869 -0.92329603
79.485901 57.93354 -0.92689693
82.037758 56.933876 -0.54103476
82.396713 56.793255 0
82.342369 56.814545 0.55017143
69.33979 61.915623 -0.9450404
70.324326 61.531315 -0.93654209
71.650543 61.013626 -0.90968454
74.33728 59.964867 -0.92500788
79.502861 57.94849 -0.92747408
82.089844 56.938667 -0.54234087
82.410248 56.813599 0
82.346184 56.838608 0.55002588
69.448257 61.880867 -0.96378225
70.26651 61.562603 -0.92754465
71.644669 61.026562 -0.90855765
74.31823 59.986664 -0.92286849
79.510162 57.967228 -0.92747408
82.078995 56.968067 -0.54176033
82.40921 56.839626 0
82.349983 56.862663 0.54988092
69.440323 61.887737 -0.96215385
70.258636 61.570015 -0.92616165
71.62278 61.040375 -0.90574378
74.349365 59.98175 -0.92543548
79.523445 57.972858 -0.9280501
82.092918 56.975231 -0.54205036
82.428093 56.845097 0
82.373672 56.866226 0.55046147
69.405991 61.908581 -0.95563412
70.284966 61.568531 -0.92962182
71.631088 61.047756 -0.90630615
74.349426 59.996109 -0.92500788
79.535553 57.98975 -0.92833924
82.106232 56.995228 -0.54219532
82.431877 56.869244 0
82.387115 56.886562 0.55060649
69.399284 61.918671 -0.95400262
70.334709 61.558083 -0.93654209
71.644142 61.053318 -0.90743297
74.359039 60.006771 -0.92543548
79.537964 58.010391 -0.9280501
82.114685 57.017109 -0.54219532
82.435623 56.893391 0
82.381165 56.914387 0.55017143
69.434097 61.912788 -0.95970821
70.33297 61.567535 -0.93585056
71.647697 61.062557 -0.90743297
74.325516 60.034019 -0.92201173
79.545189 58.029171 -0.9280501
82.13282 57.035271 -0.54248589
82.453911 56.911945 0
82.389709 56.9366 0.55017143
69.330429 61.959995 -0.94096321
70.321846 61.580574 -0.93377346
71.636993 61.077251 -0.90574378
74.339905 60.042824 -0.92286849
79.552391 58.047958 -0.9280501
82.116959 57.066475 -0.54176033
82.462463 56.934246 0
82.393372 56.96069 0.55002588
69.466827 61.915363 -0.96459639
70.273209 61.607872 -0.92616165
71.650024 61.082855 -0.90687066
74.344673 60.055321 -0.92286849
79.554741 58.068596 -0.92776209
82.130173 57.086517 -0.54190534
82.45153 56.963978 0
82.397011 56.984768 0.54988092
69.400047 61.948299 -0.95237428
70.337059 61.592289 -0.93515909
71.634544 61.099323 -0.9046191
74.354225 60.066002 -0.92329603
79.566727 58.08556 -0.9280501
82.138519 57.108429 -0.54190534
82.474617 56.980732 0
82.424904 56.999619 0.55046147
69.416374 61.949581 -0.95481682
70.321198 61.607052 -0.93239045
71.657059 61.101353 -0.90687066
74.373367 60.073067 -0.92457873
79.57872 58.102535 -0.92833924
82.166275 57.122993 -0.54248589
82.497696 56.997528 0
82.447937 57.016365 0.550897
69.432732 61.950893 -0.95726252
70.314682 61.618237 -0.93100476
71.679573 61.103432 -0.90912217
74.3685 60.089226 -0.92372358
79.576141 58.125019 -0.92776209
82.164833 57.148621 -0.54219532
82.496391 57.023563 0
82.446625 57.042336 0.55060649
69.351921 61.988754 -0.94259471
70.33165 61.620571 -0.93308192
71.692574 61.109142 -0.91024685
74.368423 60.103561 -0.92329603
79.588066 58.142025 -0.9280501
82.182838 57.166916 -0.54248589
82.534058 57.034927 0
82.455017 57.064629 0.55060649
69.479324 61.948429 -0.96459639
70.301628 61.640541 -0.92823613
71.672264 61.127346 -0.90743297
74.397156 60.107094 -0.92543548
79.595131 58.160866 -0.9280501
82.171616 57.196178 -0.54190534
82.552193 57.05368 0
82.477989 57.081463 0.55104202
69.315086 62.017242 -0.93526077
70.309189 61.6464 -0.92893028
71.685242 61.133072 -0.90855765
74.392227 60.123253 -0.92457873
79.60704 58.177898 -0.92833924
82.170074 57.221775 -0.54161477
82.521561 57.090656 0
82.476608 57.107426 0.55075204
69.382339 61.999561 -0.94666874
70.359047 61.636547 -0.93585056
71.655373 61.154747 -0.9046191
74.39209 60.137596 -0.92415112
79.604355 58.200371 -0.92776209
82.197739 57.236496 -0.54219532
82.534775 57.111229 0
82.489792 57.127945 0.550897
69.319862 62.030094 -0.93526077
70.324257 61.658173 -0.93031329
71.69693 61.149883 -0.90912217
74.401566 60.148376 -0.92457873
79.606506 58.221024 -0.92747408
82.210785 57.256676 -0.54234087
82.543083 57.133629 0
82.488327 57.153908 0.55060649
69.396439 62.009148 -0.94830024
70.341209 61.660603 -0.93239045
71.686058 61.164463 -0.90743297
74.406204 60.160946 -0.92457873
79.637741 58.230934 -0.92891526
82.223785 57.27689 -0.54248589
82.551361 57.15604 0
82.491714 57.178047 0.55046147
69.52874 61.967926 -0.97111613
70.296928 61.685581 -0.92546749
71.679932 61.177261 -0.90630615
74.401215 60.177063 -0.92372358
79.630127 58.255188 -0.9280501
82.246536 57.293533 -0.54292148
82.559616 57.178459 0
82.504814 57.198605 0.55060649
69.443008 62.006897 -0.95563412
70.393951 61.658684 -0.93931073
71.692894 61.183044 -0.90743297
74.42511 60.182571 -0.92543548
79.637054 58.274078 -0.9280501
82.244858 57.319164 -0.54263091
82.567848 57.200893 0
82.527664 57.215607 0.55104202
69.499924 61.989826 -0.96541375
70.367096 61.672882 -0.93515909
71.680267 61.192928 -0.90574378
74.408119 60.195923 -0.92372358
79.659943 58.276424 -0.92920327
82.234238 57.335541 -0.54219532
82.586624 57.206749 0
82.536636 57.225021 0.55118704
69.479111 62.004932 -0.96133655
70.402893 61.668564 -0.9400022
71.707527 61.19352 -0.90855765
74.432007 60.201473 -0.92543548
79.647408 58.302429 -0.9280501
82.256935 57.352242 -0.54263091
82.594818 57.229214 0
82.549706 57.24564 0.55133259
69.45829 62.019981 -0.95726252
70.367973 61.689991 -0.93446493
71.720474 61.199364 -0.90968454
74.436592 60.214081 -0.92543548
79.678612 58.312515 -0.92949241
82.279617 57.368988 -0.54306644
82.602989 57.251686 0
82.548073 57.271606 0.55104202
69.274734 62.093777 -0.924667
70.309418 61.719852 -0.92546749
71.67128 61.227695 -0.90349227
74.431488 60.230186 -0.92457873
79.685471 58.331463 -0.92949241
82.292496 57.389317 -0.54321146
82.625816 57.26886 0
82.585503 57.283428 0.55191261
69.449097 62.038204 -0.95481682
70.345222 61.71558 -0.93031329
71.693748 61.23008 -0.90574378
74.436035 60.242794 -0.92457873
79.682564 58.353928 -0.92891526
82.280914 57.418465 -0.54263091
82.61924 57.296661 0
82.574066 57.312923 0.55133259
69.498009 62.028099 -0.96296805
70.352692 61.721558 -0.93100476
71.716217 61.232517 -0.90799534
74.430916 60.258869 -0.92372358
79.689377 58.372883 -0.92891526
82.298645 57.43705 -0.54292148
82.642029 57.313889 0
82.577225 57.337132 0.55118704
69.523651 62.026428 -0.96704209
70.360161 61.727547 -0.9316963
71.7052 61.246975 -0.90630615
74.445084 60.268024 -0.92457873
79.696167 58.391846 -0.92891526
82.311447 57.457417 -0.54306644
82.650093 57.336422 0
82.590172 57.35783 0.55133259
69.530685 62.031448 -0.96785629
70.381813 61.728504 -0.93446493
71.684586 61.264805 -0.90349227
74.454437 60.278923 -0.92500788
79.72242 58.403877 -0.93006843
82.299759 57.486519 -0.54248589
82.643417 57.364197 0
82.593277 57.382046 0.55118704
69.463188 62.062904 -0.95563412
70.33255 61.754658 -0.92685312
71.730988 61.258808 -0.90855765
74.449242 60.294991 -0.92415112
79.714539 58.428066 -0.92920327
82.322311 57.503422 -0.54292148
82.666145 57.381508 0
82.601257 57.404518 0.55118704
69.435211 62.087601 -0.94992858
70.390007 61.751652 -0.93446493
71.718414 61.284248 -0.90630615
74.482376 60.311737 -0.92629057
79.723083 58.467773 -0.92891526
82.303642 57.559795 -0.54190534
82.682083 57.42664 0
82.641647 57.440865 0.55191261
69.484161 62.07782 -0.95807672
70.402199 61.756054 -0.93585056
71.736084 61.288532 -0.90799534
74.472305 60.329494 -0.92500788
79.759056 58.476505 -0.93064559
82.311409 57.581917 -0.54190534
82.70475 57.44405 0
82.639763 57.466827 0.55162257
69.453819 62.095852 -0.95237428
70.367004 61.777023 -0.93031329
71.724953 61.302906 -0.90630615
74.481575 60.340462 -0.92543548
79.755943 58.498966 -0.93006843
82.309326 57.607475 -0.54161477
82.70282 57.470089 0
82.647644 57.489357 0.55162257
69.488785 62.09108 -0.95807672
70.388641 61.778122 -0.93308192
71.737816 61.308903 -0.90743297
74.48114 60.354813 -0.92500788
79.757698 58.519703 -0.92978042
82.326866 57.626186 -0.54190534
82.725449 57.487564 0
82.6604 57.510189 0.55176759
69.388336 62.133308 -0.94014901
70.377098 61.790771 -0.93100476
71.736267 61.319916 -0.90687066
74.480675 60.369164 -0.92457873
79.759422 58.54044 -0.92949241
82.339462 57.646637 -0.54205036
82.708725 57.518711 0
82.678055 57.529335 0.55205816
69.334518 62.159172 -0.93036944
70.379761 61.798481 -0.93100476
71.763512 61.320976 -0.90968454
74.499619 60.376804 -0.92586303
79.785568 58.552738 -0.93064559
82.322563 57.677273 -0.54132479
82.721451 57.539627 0
82.685867 57.551907 0.55205816
69.448929 62.127056 -0.94992858
70.387154 61.804562 -0.9316963
71.742722 61.338619 -0.90687066
74.508842 60.387829 -0.92629057
79.787231 58.573502 -0.93035644
82.364594 57.687592 -0.54234087
82.729248 57.562252 0
82.698547 57.572803 0.55220312
69.404434 62.149651 -0.94178051
70.413551 61.80415 -0.93515909
71.736305 61.351273 -0.90574378
74.513199 60.400528 -0.92629057
79.808464 58.587551 -0.9312216
82.372208 57.709785 -0.54234087
82.741928 57.583202 0
82.701393 57.597084 0.55205816
69.485069 62.125744 -0.95563412
70.42437 61.804783 -0.93654209
71.728294 61.35923 -0.9046191
74.520241 60.405216 -0.92671978
79.787262 58.605465 -0.92978042
82.400589 57.712486 -0.54306644
82.755661 57.591156 0
82.71508 57.605026 0.55234814
69.454567 62.143524 -0.94992858
70.355782 61.836792 -0.92616165
71.755531 61.360382 -0.90743297
74.524574 60.417931 -0.92671978
79.818253 58.616211 -0.9312216
82.422943 57.729698 -0.54350203
82.768318 57.612148 0
82.71788 57.629314 0.55220312
69.573837 62.110439 -0.97030193
70.382141 61.836422 -0.92962182
71.739464 61.376282 -0.90518147
74.519165 60.433949 -0.92586303
79.819847 58.63699 -0.93093359
82.425568 57.753639 -0.54335648
82.776024 57.63483 0
82.740334 57.646931 0.55263871
69.482452 62.148804 -0.95400262
70.394249 61.840927 -0.93100476
71.761887 61.379135 -0.90743297
74.523468 60.446663 -0.92586303
79.831215 58.654457 -0.9312216
82.452797 57.769257 -0.54393703
82.803429 57.650864 0
82.752914 57.667919 0.55278367
69.362869 62.196396 -0.93281513
70.44442 61.832657 -0.93792772
71.755402 61.391758 -0.90630615
74.537491 60.456104 -0.92671978
79.84256 58.67194 -0.93150961
82.460312 57.791557 -0.54393703
82.806137 57.675251 0
82.75563 57.692238 0.55263871
69.505653 62.155777 -0.95726252
70.380417 61.862759 -0.92823613
71.777824 61.394672 -0.90855765
74.532021 60.472103 -0.92586303
79.83429 58.696011 -0.93064559
82.457954 57.817165 -0.54364699
82.798973 57.702934 0
82.773087 57.711605 0.55292869
69.578224 62.138966 -0.96948779
70.41156 61.860939 -0.93239045
71.776154 61.405678 -0.90799534
74.536278 60.484833 -0.92586303
79.816132 58.723339 -0.92920327
82.509773 57.824673 -0.54495311
82.821365 57.720718 0
82.770821 57.737579 0.55263871
69.519485 62.16597 -0.95889401
70.414146 61.86869 -0.93239045
71.764809 61.419888 -0.90630615
74.55027 60.494324 -0.92671978
79.788147 58.753868 -0.92718607
82.472839 57.86179 -0.54364699
82.814133 57.748383 0
82.77343 57.761909 0.55249316
69.559242 62.160213 -0.96541375
70.392899 61.884323 -0.92893028
71.772758 61.42767 -0.90687066
74.549606 60.508694 -0.92629057
79.799385 58.771324 -0.92747408
82.514771 57.872688 -0.54466259
82.831551 57.767853 0
82.751358 57.794392 0.55162257
69.420609 62.21336 -0.94096321
70.433556 61.87949 -0.93446493
71.761375 61.441837 -0.90518147
74.553818 60.521442 -0.92629057
79.790947 58.795277 -0.92660892
82.541901 57.888557 -0.54524314
82.829193 57.793869 0
82.734169 57.825188 0.550897
69.55896 62.175201 -0.96459639
70.445656 61.884132 -0.93585056
71.774109 61.448051 -0.90630615
74.553146 60.535797 -0.92586303
79.654694 58.861149 -0.91824871
82.519653 57.920689 -0.54437256
82.816895 57.823116 0
82.69223 57.864037 0.54944533
69.4907 62.204956 -0.95237428
70.42437 61.899715 -0.93239045
71.772362 61.459023 -0.90574378
74.562195 60.546959 -0.92629057
79.596977 58.900963 -0.91450119
79.548538 58.916798 -0.4568578
79.613686 58.8955 0
79.528572 58.923325 0.45627111
69.521057 62.202412 -0.95726252
70.417351 61.910587 -0.93100476
71.775429 61.468414 -0.90574378
74.561485 60.56131 -0.92586303
79.558861 58.934223 -0.91190684
79.5448 58.938805 -0.45656779
79.491165 58.956264 0
79.470459 58.963009 0.45438442
69.560844 62.196888 -0.96378225
70.443733 61.910606 -0.93446493
71.797813 61.471542 -0.90799534
74.580284 60.569321 -0.92714733
79.535461 58.962597 -0.91017765
79.575615 58.949577 -0.45729336
79.541809 58.960541 0
79.471573 58.983311 0.45423886
69.553619 62.206642 -0.96215385
70.431938 61.923016 -0.93239045
71.776688 61.488773 -0.90518147
74.574646 60.585266 -0.92629057
79.536613 58.982964 -0.90988964
79.591606 58.965206 -0.4575839
79.493416 58.99691 0
79.517189 58.989235 0.45539999
69.5746 62.207302 -0.96541375
70.405777 61.94001 -0.92823613
71.799072 61.491951 -0.90743297
74.583664 60.59647 -0.92671978
79.522964 59.008072 -0.90873647
79.582832 58.988823 -0.45714834
79.524223 59.007671 0
79.513351 59.011166 0.45510998
69.430824 62.260777 -0.94014901
70.384377 61.955402 -0.92477602
71.802094 61.501373 -0.90743297
74.57798 60.612396 -0.92586303
79.538834 59.023682 -0.90931249
79.569077 59.013996 -0.45656779
79.515366 59.031197 0
79.484711 59.041012 0.45409387
69.483673 62.247501 -0.94911444
70.438187 61.942455 -0.93239045
71.789078 61.510731 -0.90574378
74.594704 60.614098 -0.92714733
79.53199 59.036217 -0.90873647
79.581978 59.020241 -0.4568578
79.488625 59.050076 0
79.448105 59.063023 0.45293275
69.457512 62.263126 -0.94422305
70.440666 61.950237 -0.93239045
71.777565 61.524765 -0.90405679
74.584106 60.631573 -0.92586303
79.557693 59.048714 -0.90988964
79.553329 59.050102 -0.45584223
79.534271 59.056164 0
79.493675 59.069084 0.45409387
69.454903 62.271217 -0.94340891
70.457474 61.953476 -0.93446493
71.780548 61.534164 -0.90405679
74.588165 60.644363 -0.92586303
79.558716 59.06908 -0.9096005
79.623703 59.048489 -0.45772892
79.565041 59.067078 0
82.888031 58.013947 0.55336428
69.565414 62.243587 -0.96215385
70.43602 61.96883 -0.93100476
71.788368 61.542038 -0.9046191
74.597107 60.655617 -0.92629057
79.589325 59.080101 -0.91104168
79.659393 59.057987 -0.45859948
82.965973 58.01445 0
82.91507 58.030518 0.55394483
69.62883 62.231049 -0.97274762
70.400177 61.988644 -0.92546749
71.805862 61.546883 -0.90630615
74.615837 60.663807 -0.92757487
79.679153 59.072578 -0.91594237
82.699402 58.123417 -0.54742038
82.983116 58.034256 0
82.932175 58.050262 0.5542348
69.498871 62.27919 -0.94992858
70.460068 61.978394 -0.93377346
71.794281 61.560867 -0.9046191
74.61496 60.678165 -0.92714733
79.813461 59.051353 -0.92343855
82.676743 58.155327 -0.5465498
82.940643 58.072739 0
82.939354 58.073143 0.5542348
69.571747 62.263775 -0.96215385
70.481667 61.980232 -0.93654209
71.802071 61.568775 -0.90518147
74.604263 60.69558 -0.92586303
79.923141 59.038151 -0.92949241
82.654007 58.187176 -0.54567868
82.972633 58.087887 0
82.961388 58.091393 0.55467039
69.545502 62.279301 -0.95726252
70.436188 62.00293 -0.92962182
71.809853 61.576702 -0.90574378
74.608246 60.708393 -0.92586303
79.973579 59.043598 -0.93208677
82.656059 58.211258 -0.54553372
82.96981 58.113907 0
82.953621 58.118931 0.5542348
69.55703 62.283081 -0.95889401
70.42421 62.015156 -0.92754465
71.80307 61.589138 -0.9046191
74.617111 60.7197 -0.92629057
79.979561 59.062904 -0.93208677
82.672958 58.23074 -0.54582369
82.981895 58.135292 0
82.97065 58.138763 0.55452538
69.582718 62.282532 -0.96296805
70.474556 62.008167 -0.93446493
71.839966 61.588112 -0.90855765
74.635796 60.728001 -0.92757487
80.034943 59.067005 -0.93496913
82.684898 58.251774 -0.54596925
82.979012 58.161293 0
82.967773 58.164749 0.5542348
69.542259 62.302307 -0.95563412
70.452972 62.023338 -0.93100476
71.823441 61.603539 -0.90630615
74.625015 60.745369 -0.92629057
80.045837 59.084869 -0.93525714
82.657043 58.285011 -0.54495311
82.99102 58.182709 0
82.989723 58.183105 0.55467039
69.473381 62.330639 -0.94340891
70.493752 62.019428 -0.93654209
71.802032 61.620407 -0.90349227
74.624031 60.759705 -0.92586303
80.036934 59.108788 -0.93439311
82.688782 58.29998 -0.54567868
83.012978 58.201103 0
82.95697 58.218185 0.55350924
69.484863 62.334377 -0.9450404
70.438522 62.044769 -0.92823613
71.838943 61.619495 -0.90743297
74.637772 60.769558 -0.92671978
80.052719 59.125164 -0.93496913
82.675766 58.328606 -0.54509813
83.010025 58.2271 0
82.95401 58.24411 0.55321926
69.619339 62.300953 -0.96785629
70.49852 62.035126 -0.93654209
71.827217 61.633385 -0.90574378
74.626923 60.786873 -0.92543548
80.083359 59.137081 -0.93641031
82.692566 58.348164 -0.5453887
83.036911 58.244049 0
82.98085 58.261002 0.55379981
69.583519 62.319141 -0.96133655
70.481667 62.048763 -0.93377346
71.839813 61.639912 -0.90687066
74.645546 60.795273 -0.92671978
80.054558 59.16695 -0.93439311
82.699387 58.370754 -0.5453887
83.033875 58.270061 0
82.98777 58.283939 0.55379981
69.514534 62.347176 -0.94911444
70.479218 62.058037 -0.93308192
71.813438 61.658142 -0.90349227
74.673996 60.80077 -0.92885917
80.080208 59.180412 -0.93554628
82.706169 58.393356 -0.5453887
83.06073 58.287086 0
82.994659 58.306889 0.55379981
69.620728 62.322746 -0.96704209
70.515221 62.055824 -0.93792772
71.816261 61.667583 -0.90349227
74.677856 60.813671 -0.92885917
80.125656 59.188019 -0.93785149
82.717911 58.414474 -0.54553372
83.062637 58.311607 0
82.991562 58.332817 0.55350924
69.556419 62.349243 -0.95563412
70.474266 62.076561 -0.9316963
71.838562 61.671242 -0.90574378
74.652161 60.83535 -0.92629057
80.086838 59.220764 -0.93525714
82.714668 58.44006 -0.54524314
83.069489 58.334644 0
83.013344 58.351326 0.55394483
69.637978 62.32872 -0.96948779
70.485054 62.077618 -0.93308192
71.835098 61.677422 -0.90518147
74.663925 60.838867 -0.92714733
80.094696 59.229008 -0.93554628
82.732979 58.446938 -0.54567868
83.077896 58.344688 0
83.036682 58.356907 0.55452538
69.554649 62.360722 -0.95481682
70.482567 62.086876 -0.93239045
71.842773 61.685452 -0.90574378
74.667732 60.851753 -0.92714733
80.130203 59.239677 -0.93727547
82.749649 58.466629 -0.54596925
83.084717 58.367744 0
83.043488 58.379913 0.55452538
69.551888 62.368824 -0.95400262
70.494492 62.091881 -0.93377346
71.830948 61.699226 -0.90405679
74.68631 60.860302 -0.92843163
80.150841 59.254795 -0.93814063
82.751328 58.490757 -0.54582369
83.106491 58.386406 0
83.050262 58.402927 0.55452538
69.648743 62.347782 -0.97030193
70.511246 62.095505 -0.93585056
71.85321 61.702988 -0.90630615
74.680237 60.876102 -0.92757487
80.151581 59.275768 -0.93785149
82.752983 58.514877 -0.54567868
83.113266 58.409496 0
83.047028 58.428871 0.5542348
69.522606 62.391918 -0.94830024
70.503899 62.106182 -0.93446493
71.85598 61.712479 -0.90630615
74.679077 60.890442 -0.92714733
80.167221 59.292393 -0.93842864
82.729668 58.546257 -0.54480815
83.110001 58.435509 0
83.048759 58.453342 0.55408978
69.567268 62.386208 -0.95563412
70.482086 62.121025 -0.93100476
71.853867 61.723385 -0.90574378
74.682823 60.903351 -0.92714733
80.192772 59.306171 -0.93958181
82.731239 58.570343 -0.54466259
83.126717 58.455704 0
83.070427 58.472019 0.55452538
69.564453 62.39431 -0.95481682
70.498825 62.124683 -0.93308192
71.837082 61.738514 -0.90349227
74.706291 60.910568 -0.92885917
80.188484 59.328613 -0.93900466
82.727814 58.595856 -0.54437256
83.113403 58.484589 0
83.077087 58.495068 0.55452538
69.651917 62.376465 -0.96948779
70.505905 62.131153 -0.93377346
71.864227 61.740971 -0.90630615
74.719879 60.920673 -0.92971432
80.204071 59.345318 -0.93958181
82.754303 58.612751 -0.54495311
83.130051 58.504818 0
83.093712 58.515255 0.55481535
69.63961 62.387375 -0.96704209
70.49852 62.141773 -0.93239045
71.852303 61.754662 -0.9046191
74.718658 60.93504 -0.92928678
80.21962 59.362057 -0.94015783
82.755814 58.636845 -0.54480815
83.141693 58.526501 0
83.09034 58.541183 0.55452538
69.56073 62.417194 -0.95318848
70.520058 62.144131 -0.93515909
71.864777 61.761372 -0.90574378
74.712486 60.950798 -0.92843163
80.230202 59.380241 -0.94044697
82.777252 58.655247 -0.54524314
83.148293 58.549637 0
83.1119 58.559994 0.55496037
69.477043 62.448166 -0.93852067
70.488503 62.161587 -0.93031329
71.877266 61.768105 -0.90687066
74.711212 60.965149 -0.92800242
80.225807 59.402676 -0.93986982
82.83371 58.663769 -0.54669482
83.164871 58.569939 0
83.118462 58.583088 0.55496037
69.436104 62.466862 -0.93118674
70.519684 62.161259 -0.93446493
71.875053 61.779007 -0.90630615
74.714867 60.978096 -0.92800242
80.236328 59.420883 -0.94015783
82.860153 58.680885 -0.54727536
83.181427 58.590279 0
83.119995 58.607605 0.55481535
69.637825 62.41732 -0.96541375
70.541222 62.163715 -0.93723357
71.863068 61.792641 -0.9046191
74.733345 60.986877 -0.92928678
80.246841 59.439102 -0.94044697
82.876564 58.700874 -0.54756534
83.18795 58.613461 0
83.136513 58.627899 0.55510592
69.582603 62.440098 -0.95563412
70.490295 62.18647 -0.92962182
71.8853 61.796673 -0.90687066
74.707321 61.008137 -0.92671978
80.247345 59.460133 -0.94015783
82.912994 58.71529 -0.54843646
83.199471 58.635242 0
83.132973 58.653824 0.55481535
69.670204 62.423004 -0.97030193
70.482803 62.197002 -0.92823613
71.883049 61.807568 -0.90630615
74.72081 61.01833 -0.92757487
80.267776 59.475609 -0.94102299
82.924362 58.736755 -0.54858148
83.210945 58.657051 0
83.159447 58.671379 0.5553959
69.629234 62.441723 -0.96296805
70.557518 62.184757 -0.93861926
71.8955 61.814381 -0.90743297
74.729347 61.029915 -0.92800242
80.25827 59.499409 -0.94015783
82.94072 58.756859 -0.54887146
83.212379 58.681656 0
83.150841 58.698692 0.55496037
69.65493 62.441963 -0.96704209
70.564537 62.191349 -0.93931073
71.893234 61.825272 -0.90687066
74.737892 61.041515 -0.92843163
80.278656 59.514935 -0.94102299
82.942032 58.781128 -0.5487265
83.228821 58.702114 0
83.157227 58.721836 0.55496037
69.655876 62.445381 -0.96704209
70.526924 62.205956 -0.93377346
71.874947 61.835426 -0.9046191
74.734711 61.04937 -0.92800242
80.281364 59.524769 -0.94102299
82.970238 58.785686 -0.54945207
83.23703 58.712353 0
83.185486 58.726521 0.55568647
69.652985 62.453518 -0.96622789
70.558136 62.205898 -0.93792772
71.90696 61.836899 -0.90799534
74.728378 61.065048 -0.92714733
80.276794 59.547173 -0.94044697
82.986557 58.805866 -0.54974258
83.248436 58.734222 0
83.186813 58.75108 0.55554092
64 64 -0
70.536079 62.220417 -0.93446493
71.894852 61.850464 -0.90630615
74.722 61.080715 -0.92629057
80.282158 59.566845 -0.94044697
82.992821 58.828812 -0.54974258
83.234695 58.762955 0
83.203186 58.771534 0.55583149
69.591728 62.492043 -0.95481682
70.530678 62.238827 -0.93308192
71.900024 61.869549 -0.90630615
74.753822 61.099945 -0.92843163
80.302803 59.603516 -0.94102299
83.020302 58.870667 -0.55017757
83.614136 58.710526 0
83.521812 58.73542 0.56468427
69.650833 62.483425 -0.96459639
70.566727 62.237614 -0.93792772
71.892784 61.881725 -0.90518147
74.752342 61.114277 -0.92800242
80.303116 59.624554 -0.94073498
83.046562 58.888268 -0.55075818
83.716011 58.708599 0
83.663689 58.722641 0.56860322
69.628792 62.496628 -0.96052235
70.554306 62.249435 -0.93585056
71.900246 61.889954 -0.90574378
74.760796 61.125942 -0.92843163
80.318375 59.64159 -0.941311
83.037674 58.915302 -0.55032313
83.641953 58.75391 0
83.614815 58.761158 0.56700653
69.597153 62.512321 -0.95481682
70.527313 62.265091 -0.9316963
71.9077 61.898197 -0.90630615
74.769218 61.137627 -0.92885917
80.328644 59.659981 -0.94160014
83.058861 58.934311 -0.55075818
83.482277 58.82177 0
83.415207 58.839592 0.56105596
69.570282 62.526669 -0.94992858
70.573074 62.261429 -0.93792772
71.905319 61.909054 -0.90574378
74.762733 61.153271 -0.92800242
80.318863 59.683681 -0.94073498
83.064964 58.957344 -0.55075818
83.377823 58.874592 0
83.295837 58.896278 0.55742759
64 64 -0
70.526642 62.282146 -0.93100476
71.907845 61.918606 -0.90574378
74.766167 61.166279 -0.92800242
80.349075 59.696819 -0.94217616
83.086128 58.976414 -0.55119371
83.318573 58.91523 0
83.271843 58.927532 0.55655706
69.569054 62.541382 -0.94911444
70.523865 62.291306 -0.93031329
71.910355 61.928162 -0.90574378
74.769585 61.179287 -0.92800242
80.354263 59.716579 -0.94217616
83.102249 58.996841 -0.55148429
83.314621 58.941216 0
83.277954 58.950821 0.55655706
69.642548 62.529419 -0.96133655
70.569618 62.2878 -0.93654209
71.917763 61.936443 -0.90630615
74.792854 61.187126 -0.92971432
80.344406 59.740257 -0.941311
83.098213 59.022552 -0.55119371
83.335838 58.960621 0
83.263931 58.979362 0.55597651
69.66346 62.531273 -0.96459639
70.571678 62.295742 -0.93654209
71.949776 61.938354 -0.90968454
74.776367 61.205322 -0.92800242
80.359566 59.757408 -0.94188815
83.084091 59.05085 -0.55061316
83.32679 58.987907 0
83.2901 58.997421 0.55655706
64 64 -0
70.57373 62.303684 -0.93654209
71.927658 61.954308 -0.90687066
74.784721 61.21706 -0.92843163
80.364685 59.77718 -0.94188815
83.110184 59.068718 -0.55119371
83.363083 59.00346 0
83.286079 59.023331 0.55626702
69.681358 62.541275 -0.96704209
70.575775 62.311626 -0.93654209
71.939964 61.961365 -0.90799534
74.798012 61.227543 -0.92928678
80.379784 59.794388 -0.94246417
83.116127 59.091812 -0.55119371
83.379181 59.024273 0
83.302139 59.044052 0.55655706
69.568176 62.577507 -0.94748294
70.529205 62.331989 -0.92962182
71.927643 61.974735 -0.90630615
74.81131 61.238045 -0.93014354
80.394882 59.811619 -0.94304132
83.132126 59.112339 -0.55148429
83.365005 59.052845 0
83.318169 59.064812 0.55684704
69.555527 62.587883 -0.9450404
70.555527 62.333702 -0.93308192
71.959648 61.976803 -0.90968454
74.809654 61.25238 -0.92971432
80.394905 59.83271 -0.94275218
83.143051 59.134182 -0.55162925
83.391144 59.071117 0
83.32917 59.086872 0.55699259
69.811203 62.530369 -0.98822963
70.562401 62.340397 -0.93377346
71.962082 61.98642 -0.90968454
74.822929 61.262924 -0.93057108
80.404961 59.85125 -0.94304132
83.169067 59.152218 -0.55220985
83.376907 59.099659 0
83.335091 59.110229 0.55699259
69.629967 62.579823 -0.95726252
70.534218 62.351723 -0.92962182
71.933723 61.998692 -0.90630615
74.824585 61.269463 -0.93057108
80.417488 59.858635 -0.94361734
83.136719 59.172699 -0.55119371
83.395004 59.107544 0
83.363235 59.115559 0.55771816
64 64 -0
70.565392 62.352291 -0.93377346
71.941078 62.007038 -0.90687066
74.802979 61.288792 -0.92843163
80.432526 59.875954 -0.9441945
83.162697 59.190765 -0.55177426
83.405945 59.129719 0
83.369125 59.138958 0.55771816
64 64 -0
70.562515 62.361443 -0.93308192
71.968132 62.010483 -0.90968454
74.8162 61.299362 -0.92928678
80.427444 59.898319 -0.94361734
83.18866 59.208889 -0.55235481
83.437065 59.146866 0
83.390114 59.158588 0.55815369
64 64 -0
70.574219 62.366955 -0.93446493
71.980385 62.017662 -0.91080922
74.834412 61.30872 -0.93057108
80.452469 59.913185 -0.94477051
83.194435 59.232079 -0.55235481
83.442917 59.170357 0
83.406029 59.17952 0.55844373
69.641556 62.605865 -0.95807672
70.649261 62.356842 -0.944848
71.972916 62.029743 -0.90968454
74.812737 61.327969 -0.92843163
80.462418 59.931828 -0.94505852
83.190102 59.257767 -0.55206484
83.443687 59.195099 0
83.396698 59.206711 0.55800813
69.657639 62.609142 -0.96052235
70.57328 62.384045 -0.93377346
71.97036 62.040588 -0.90912217
74.830902 61.337364 -0.92971432
80.467316 59.951721 -0.94505852
83.221046 59.274754 -0.5527904
83.459579 59.216114 0
83.39743 59.231392 0.55786318
69.726532 62.599541 -0.97193033
70.594727 62.387218 -0.93654209
71.957909 62.053844 -0.90743297
74.839111 61.349228 -0.93014354
80.472198 59.971622 -0.94505852
83.22168 59.299221 -0.55264485
83.475464 59.237156 0
83.413284 59.252361 0.55815369
69.680199 62.618145 -0.96378225
70.60154 62.394005 -0.93723357
71.955322 62.064663 -0.90687066
74.842308 61.362328 -0.93014354
80.46701 59.993973 -0.94448251
83.252609 59.316303 -0.55337095
83.49131 59.258232 0
83.434143 59.272141 0.55858874
69.600189 62.644772 -0.94992858
70.627876 62.396076 -0.94069636
71.957657 62.074276 -0.90687066
74.820518 61.381474 -0.92800242
80.496971 60.00779 -0.94592369
83.253189 59.340797 -0.5532254
83.491974 59.283012 0
83.434799 59.296848 0.55844373
69.640274 62.642284 -0.95644832
70.590782 62.413483 -0.93515909
71.989609 62.076759 -0.91024685
74.843643 61.389744 -0.92971432
80.491737 60.030144 -0.94534767
83.26387 59.362843 -0.55337095
83.50779 59.304127 0
83.455627 59.316685 0.55887926
64 64 -0
70.60244 62.419113 -0.93654209
72.00676 62.082863 -0.91193604
74.846786 61.402847 -0.92971432
80.481422 60.053688 -0.94448251
83.269463 59.386124 -0.55337095
83.518509 59.326492 0
83.466324 59.338985 0.55902427
64 64 -0
70.579948 62.432903 -0.93308192
71.959625 62.104317 -0.90630615
74.839935 61.418331 -0.92885917
80.501282 60.070011 -0.94534767
83.285126 59.407005 -0.55366093
83.549454 59.344051 0
83.461838 59.364918 0.5587343
69.693253 62.651348 -0.96459639
70.61602 62.432758 -0.93792772
71.976746 62.11042 -0.90799534
74.843048 61.431431 -0.92885917
