# .PCD v0.7 - Point Cloud Data file format
VERSION 0.7
FIELDS x y z
SIZE 4 4 4
TYPE F F F
COUNT 1 1 1
WIDTH 1732
HEIGHT 1
VIEWPOINT 0 0 0 1 0 0 0
POINTS 1732
DATA ascii
58.744034 66.897766 -0.33448678
59.5271 66.466042 -0.14264715
58.634666 66.958061 0
56.760414 67.991394 0.2308808
59.903801 66.251907 -0.77064562
59.316933 66.574539 -0.73721015
58.455173 67.048294 -0.70086455
59.543842 66.449791 -0.42388412
58.785858 66.866501 -0.33160439
59.51046 66.468147 -0.14308271
58.608295 66.964111 0
56.764694 67.977646 0.23059079
59.870735 66.263588 -0.77635115
59.300621 66.576118 -0.73928726
58.478222 67.026939 -0.69748831
59.536388 66.446869 -0.42431167
58.768787 66.867661 -0.33246955
59.493805 66.470215 -0.14351827
58.650352 66.932579 0
56.787247 67.953903 0.22971968
59.872356 66.256218 -0.77553385
59.284317 66.577644 -0.7413618
58.608334 66.947151 -0.68060285
59.546955 66.43409 -0.42302737
58.810726 66.836517 -0.32958609
59.46347 66.479721 -0.14438882
58.669643 66.913635 0
56.755104 67.960144 0.23059079
59.808857 66.284355 -0.78694493
59.24596 66.591156 -0.74689907
58.627098 66.928467 -0.67778683
59.557529 66.421341 -0.4217447
58.879959 66.790649 -0.32497451
59.442223 66.484184 -0.14496937
58.688972 66.894737 0
56.741207 67.95636 0.2308808
59.83651 66.262764 -0.78123939
59.295734 66.556664 -0.7385931
58.552124 66.9608 -0.68679297
59.568142 66.408615 -0.42046037
58.92659 66.757286 -0.321803
59.439224 66.478676 -0.14496937
58.726635 66.865952 0
56.745556 67.942627 0.23059079
59.829433 66.260086 -0.78205359
59.248528 66.574883 -0.74551606
58.454727 67.005058 -0.69861299
59.533649 66.420372 -0.42345491
58.754986 66.842339 -0.33246955
59.445366 66.468216 -0.14467938
58.828434 66.802544 0
56.740795 67.933861 0.23059079
59.791916 66.273842 -0.78857332
59.302803 66.538139 -0.73651862
58.415337 67.017677 -0.70311612
59.530731 66.414978 -0.42345491
58.6651 66.882721 -0.3379463
59.456104 66.455299 -0.14424382
58.756359 66.833405 0
56.740616 67.922615 0.23044579
59.837029 66.242973 -0.77961105
59.295326 66.534836 -0.73721015
58.407223 67.013336 -0.70367843
59.541363 66.402275 -0.42217225
58.67527 66.868919 -0.33708224
59.476013 66.437485 -0.14351827
58.785019 66.809784 0
56.740471 67.911369 0.23030023
59.860458 66.2239 -0.77471966
59.283432 66.533897 -0.7385931
58.403587 67.006577 -0.70367843
59.511333 66.411461 -0.42473924
58.676376 66.860023 -0.33679312
59.477661 66.42955 -0.1433727
58.744946 66.823189 0
56.740322 67.900139 0.23015523
59.801132 66.249237 -0.78531343
59.289215 66.52346 -0.73721015
58.408909 66.995018 -0.70255375
59.526527 66.396339 -0.42302737
58.74131 66.816956 -0.33246955
59.479309 66.421631 -0.14322771
58.723183 66.826668 0
56.740192 67.888908 0.23001024
59.802773 66.241837 -0.78449923
59.286167 66.517769 -0.73721015
58.387363 66.997841 -0.70480531
59.50552 66.400604 -0.42473924
58.765297 66.795975 -0.33073926
59.471806 66.41861 -0.1433727
58.68763 66.837456 0
56.730919 67.882584 0.23015523
59.839329 66.215851 -0.77716535
59.274281 66.516777 -0.7385931
58.401688 66.981499 -0.70255375
59.484497 66.404823 -0.42645109
58.684307 66.830986 -0.33563995
59.464287 66.415588 -0.14351827
58.71637 66.813904 0
56.707886 67.883568 0.23073579
59.803074 66.231903 -0.78368509
59.255039 66.523346 -0.7413618
58.381939 66.987663 -0.70480531
59.514778 66.385223 -0.42345491
58.60952 66.866631 -0.34025261
59.458244 66.415283 -0.14366326
58.737644 66.7985 0
56.70554 67.879158 0.23073579
59.826591 66.212936 -0.77879369
59.274155 66.505859 -0.73790163
58.38282 66.978493 -0.70424294
59.530025 66.370186 -0.4217447
58.670036 66.826195 -0.33621708
59.469105 66.402489 -0.14322771
58.725079 66.797012 0
56.691666 67.875221 0.23102635
59.754002 66.244858 -0.79183316
59.25782 66.507187 -0.73997879
58.374737 66.974075 -0.70480531
59.509029 66.374374 -0.42345491
58.72607 66.788322 -0.33246955
59.466206 66.397011 -0.14322771
58.726299 66.7882 0
56.677811 67.871239 0.23131636
59.729431 66.251251 -0.7959072
59.26368 66.496773 -0.7385931
58.380146 66.962532 -0.70367843
59.506165 66.368942 -0.42345491
58.823372 66.728882 -0.32612768
59.4725 66.386688 -0.1429377
58.741352 66.772118 0
56.631767 67.884193 0.23262246
59.770462 66.223091 -0.78775913
59.247337 66.498055 -0.74067026
58.363071 66.962837 -0.70536762
59.462387 66.385017 -0.42730784
58.714775 66.777977 -0.33275756
59.492615 66.369133 -0.14221215
58.751831 66.758499 0
56.636269 67.870461 0.23233247
59.811554 66.195038 -0.77961105
59.226543 66.501625 -0.7434389
58.373001 66.948944 -0.70367843
59.491348 66.362854 -0.42431167
58.688515 66.783592 -0.33419877
59.466743 66.375748 -0.1429377
58.707016 66.773895 0
56.645412 67.854317 0.23189691
59.773857 66.20829 -0.78613073
59.22797 66.493538 -0.74274743
58.369442 66.942139 -0.70367843
59.483948 66.359779 -0.42473924
58.753914 66.741241 -0.3298752
59.459274 66.372665 -0.14308271
58.67598 66.781967 0
56.631557 67.850243 0.23218691
59.810661 66.182617 -0.77879369
59.247204 66.476173 -0.73928726
58.347866 66.944725 -0.70592999
59.485649 66.351944 -0.42431167
58.778141 66.720558 -0.32814491
59.447205 66.371979 -0.1433727
58.695698 66.763512 0
56.640724 67.834137 0.2317519
59.790478 66.186668 -0.78205359
59.239769 66.47274 -0.73997879
58.366856 66.926186 -0.70311612
59.528366 66.32283 -0.42003283
58.738132 66.733322 -0.33045122
59.481216 66.347321 -0.14221215
58.710838 66.747498 0
56.603828 67.842003 0.23276746
59.809784 66.170219 -0.77797955
59.23233 66.469292 -0.74067026
58.426491 66.886658 -0.6952368
59.502769 66.329231 -0.42217225
58.734837 66.726959 -0.33045122
59.441483 66.36097 -0.1433727
58.712158 66.738708 0
56.60841 67.828293 0.23247747
59.829121 66.153816 -0.77390552
59.220428 66.46814 -0.74205595
58.504272 66.837959 -0.68510592
59.522762 66.312019 -0.42003283
58.671795 66.75145 -0.33419877
59.452477 66.348312 -0.1429377
58.704216 66.734711 0
56.613033 67.814583 0.23218691
59.83091 66.146515 -0.77309132
59.22192 66.46006 -0.7413618
58.600254 66.780136 -0.67272139
59.515411 66.308952 -0.42046037
58.682278 66.7379 -0.33333361
59.435791 66.349945 -0.1433727
58.76107 66.697334 0
56.613045 67.803276 0.23204191
59.819534 66.145988 -0.77471966
59.241268 66.442833 -0.73790163
58.682785 66.729523 -0.66202819
59.590271 66.263672 -0.41318536
58.632942 66.755104 -0.33621708
59.451431 66.334946 -0.1427927
58.692993 66.724281 0
56.62233 67.787224 0.23160635
59.658531 66.222008 -0.80405843
59.229378 66.441658 -0.73928726
58.643299 66.741615 -0.66653126
59.56469 66.270035 -0.41532478
58.68948 66.717979 -0.33246955
59.448612 66.329445 -0.1427927
58.731403 66.696526 0
56.608498 67.783051 0.23189691
59.739513 66.174072 -0.78857332
59.253254 66.422203 -0.73513299
58.599258 66.755928 -0.67159671
59.589382 66.250679 -0.41275778
58.598663 66.756233 -0.3379463
59.427303 66.333389 -0.1433727
58.73278 66.68779 0
56.608559 67.771751 0.2317519
59.754513 66.159958 -0.78531343
59.214554 66.434662 -0.74067026
58.437416 66.830048 -0.69129604
59.495163 66.291901 -0.42131549
64 64 -0
59.429115 66.325508 -0.14322771
58.734188 66.679062 0
56.622532 67.753395 0.23117135
59.778347 66.141411 -0.78042519
59.233986 66.417534 -0.73721015
58.198353 66.942856 -0.72056389
59.574806 66.244659 -0.4136129
58.642754 66.717438 -0.33477589
59.389229 66.338791 -0.14438882
58.707748 66.684464 0
56.604111 67.751526 0.23160635
59.797813 66.125153 -0.77635115
59.199722 66.427628 -0.74205595
58.063293 67.00235 -0.73688704
59.627075 66.211502 -0.40847731
58.648716 66.706284 -0.33419877
59.400326 66.32618 -0.14395326
58.718433 66.671028 0
56.581036 67.751968 0.23218691
59.737873 66.14901 -0.78694493
59.214714 66.412788 -0.73928726
57.982536 67.034065 -0.74645549
57.864098 67.093781 -0.5728085
58.663925 66.690498 -0.3330456
59.388229 66.325302 -0.14424382
58.705921 66.669327 0
56.576508 67.742996 0.23218691
59.705681 66.161987 -0.79264736
59.146046 66.443733 -0.7496677
57.930771 67.055573 -0.75264782
57.894333 67.073914 -0.5698123
58.588375 66.724495 -0.33765826
59.437889 66.296806 -0.14264715
58.662472 66.687187 0
56.578884 67.736176 0.23204191
59.747242 66.134621 -0.78449923
59.183449 66.41761 -0.7434389
57.809006 67.107498 -0.76728171
57.83556 67.09417 -0.57494795
58.603577 66.708672 -0.33650509
59.402599 66.30761 -0.14366326
58.69178 66.664398 0
56.574375 67.727211 0.23204191
59.718151 66.142754 -0.78938746
59.185017 66.409546 -0.74274743
57.796158 67.104568 -0.76840854
57.854778 67.075233 -0.5728085
58.632698 66.685944 -0.33448678
59.427692 66.288109 -0.1427927
58.744419 66.630035 0
56.579163 67.713585 0.2317519
59.711132 66.139786 -0.79020482
59.218025 66.385811 -0.73721015
57.910648 67.038078 -0.7537725
57.869446 67.05864 -0.57109666
58.578533 66.704865 -0.33765826
59.443531 66.2733 -0.14221215
58.736595 66.625999 0
56.57468 67.70462 0.2317519
59.739532 66.119194 -0.78449923
59.206169 66.384491 -0.7385931
58.179962 66.894936 -0.72000158
59.598679 66.189255 -0.40976161
58.584522 66.693703 -0.33708224
59.371006 66.302505 -0.14438882
58.686829 66.642815 0
56.565563 67.697952 0.23189691
59.790119 66.087692 -0.77471966
59.212273 66.374245 -0.73721015
58.431404 66.761482 -0.68848217
59.586849 66.188492 -0.41061673
58.632256 66.66188 -0.33391073
59.321678 66.319992 -0.14583993
58.674305 66.641022 0
56.556446 67.691277 0.23204191
59.707848 66.122032 -0.78938746
59.209408 66.368462 -0.73721015
58.464516 66.736732 -0.68397909
59.598 66.176338 -0.40933406
58.656857 66.64164 -0.33218154
59.314205 66.31665 -0.1459855
58.643131 66.648422 0
56.556648 67.679977 0.23189691
59.76292 66.088432 -0.77879369
59.215542 66.358238 -0.73582715
58.465767 66.727798 -0.68341672
59.636818 66.150589 -0.40548277
58.751102 66.587158 -0.32612768
59.344044 66.294899 -0.14496937
58.709953 66.607437 0
56.561539 67.666382 0.23160635
59.724907 66.100754 -0.78531343
59.136147 66.390068 -0.74759322
58.476162 66.714378 -0.68172753
57.735886 67.078148 -0.58179539
58.604073 66.651527 -0.3350639
59.345932 66.28698 -0.14482437
58.683453 66.612518 0
56.575752 67.648232 0.23102635
59.731243 66.09124 -0.78368509
59.169308 66.366531 -0.74205595
58.45919 66.714417 -0.68341672
59.63163 66.140045 -0.40548277
58.614811 66.638176 -0.33419877
59.333847 66.285927 -0.14511438
58.647575 66.622124 0
56.557362 67.646111 0.23146135
59.662106 66.118614 -0.7959072
59.189011 66.349678 -0.7385931
58.501587 66.68541 -0.67778683
59.592159 66.152779 -0.40890485
58.551205 66.661179 -0.3379463
59.303062 66.293976 -0.1459855
58.73328 66.57225 0
56.590321 67.618866 0.23030023
59.81065 66.039803 -0.76819992
59.132038 66.370216 -0.74689907
58.530315 66.6632 -0.67384827
59.548004 66.167686 -0.41275778
58.594494 66.63195 -0.3350639
59.351696 66.263268 -0.14438882
58.8144 66.524879 0
56.599957 67.603096 0.22986524
59.643654 66.114609 -0.7983529
59.174309 66.34243 -0.73997879
58.517967 66.661026 -0.67497295
59.508457 66.180229 -0.4161799
58.698357 66.573456 -0.32843292
59.344292 66.259918 -0.14453381
58.862865 66.493607 0
56.633011 67.575996 0.22870412
59.685589 66.087814 -0.79020482
59.08115 66.38031 -0.75382203
58.546764 66.638908 -0.67103434
59.445732 66.20388 -0.4217447
58.760433 66.535507 -0.32439739
59.327526 66.261086 -0.14496937
58.883278 66.476059 0
56.661446 67.551247 0.227688
59.69643 66.076149 -0.78775913
59.024048 66.400528 -0.76212794
58.548168 66.630104 -0.67046988
59.466206 66.187218 -0.41960362
58.724754 66.544914 -0.32641569
59.423088 66.208015 -0.14192159
58.842789 66.487968 0
56.610359 67.564949 0.22913912
59.618198 66.107368 -0.80161273
59.088982 66.361893 -0.75174487
58.535828 66.627922 -0.67159671
59.482075 66.172836 -0.41789174
58.619133 66.58786 -0.33275756
59.322079 66.249786 -0.14496937
58.680309 66.558434 0
51.187626 70.161942 0.397057
59.675549 66.066933 -0.79020482
59.241722 66.274292 -0.72752118
58.52491 66.616898 -0.67215908
59.490723 66.155273 -0.41660908
58.267525 66.739922 -0.35409066
59.31197 66.240715 -0.14511438
58.523865 66.617401 0
51.243092 70.097351 0.39488032
59.570427 66.110611 -0.80894667
59.252571 66.262062 -0.72544402
58.540104 66.60154 -0.66990751
59.451042 66.167496 -0.42003283
58.278233 66.726311 -0.3532255
59.290501 66.243988 -0.14569494
58.609989 66.568237 0
55.988029 67.817551 0.24786142
59.636101 66.07608 -0.7967245
59.187782 66.289368 -0.73513299
58.575245 66.580772 -0.66540444
59.435837 66.171356 -0.42131549
58.253235 66.733963 -0.35466668
59.298523 66.236679 -0.14540493
58.570839 66.58287 0
56.03735 67.788155 0.24626474
59.539803 66.115288 -0.81383801
59.239422 66.257751 -0.72682703
58.480301 66.617767 -0.67666215
59.451771 66.157036 -0.41960362
58.320049 66.693771 -0.35034204
59.314606 66.222092 -0.14482437
58.586533 66.56739 0
56.093819 67.74958 0.24437806
59.483643 66.135246 -0.82361448
59.164116 66.286308 -0.73790163
58.458763 66.619789 -0.67891365
59.439877 66.155937 -0.42046037
58.910702 66.40612 -0.31373084
59.316616 66.214211 -0.14467938
58.592834 66.556396 0
56.145672 67.713371 0.2426364
59.458694 66.140327 -0.82769161
59.020653 66.346779 -0.7593593
58.42342 66.628258 -0.68285441
59.460491 66.139481 -0.41832095
58.982651 66.364693 -0.30911925
59.332748 66.199684 -0.14409882
58.589752 66.549866 0
56.18819 67.681725 0.24118528
59.380058 66.17057 -0.84154528
59.035988 66.332222 -0.75659066
58.44326 66.610703 -0.68003833
59.485798 66.120888 -0.41575232
58.932983 66.380615 -0.31200162
59.325394 66.196251 -0.14424382
58.586674 66.543327 0
56.21196 67.659027 0.24031472
59.426685 66.141922 -0.83257985
59.12859 66.28154 -0.74205595
58.463112 66.593216 -0.67722446
59.459999 66.12632 -0.41789174
59.154957 66.269188 -0.2981647
59.388622 66.159752 -0.14221215
58.484623 66.583138 0
56.14637 67.678268 0.24220139
59.522633 66.090393 -0.8146522
59.194038 66.243805 -0.73167282
58.483002 66.575775 -0.67441058
59.471375 66.114326 -0.41660908
59.24128 66.221748 -0.29268688
59.40015 66.147575 -0.14177659
58.429642 66.600693 0
56.127815 67.675362 0.2426364
59.345337 66.166321 -0.84643346
59.182224 66.242233 -0.73305851
58.461464 66.577682 -0.67666215
59.426933 66.128349 -0.42046037
58.882183 66.381874 -0.31459597
59.397556 66.142021 -0.14177659
58.478397 66.569801 0
35.124805 77.438774 0.88949001
59.459305 66.106613 -0.82524598
59.102146 66.272308 -0.74482459
58.453751 66.573128 -0.67722446
59.45697 66.107689 -0.4174642
58.757313 66.432289 -0.32209104
59.366695 66.149574 -0.14264715
58.437542 66.580643 0
35.118027 77.399498 0.88919944
59.470226 66.094894 -0.82280028
58.935474 66.342201 -0.76973975
58.510601 66.538696 -0.66990751
59.515003 66.074188 -0.41190103
58.730907 66.436813 -0.32353222
59.420704 66.117798 -0.14090547
58.495838 66.545525 0
53.581703 68.818176 0.32057226
59.35099 66.143227 -0.84398782
58.764057 66.413803 -0.79534906
58.609058 66.48526 -0.65752512
59.535809 66.058022 -0.40976161
58.94875 66.328659 -0.30998331
59.408699 66.116615 -0.14119603
58.554211 66.510544 0
53.561726 68.812111 0.32100782
59.406788 66.110771 -0.83339405
58.496719 66.528992 -0.83549309
58.587589 66.487228 -0.65977669
59.472683 66.08049 -0.41532478
59.547554 66.046089 -0.2730841
59.306988 66.156639 -0.14424382
58.702507 66.434418 0
64 64 0
59.40873 66.103165 -0.83257985
58.479996 66.528603 -0.83756763
58.552242 66.495506 -0.66371739
59.176121 66.209717 -0.44228548
59.521576 66.051476 -0.27452528
53.80032 68.672264 -0.31332225
58.751629 66.404175 0
64 64 0
59.478138 66.064766 -0.81954044
58.417614 66.549019 -0.84656507
58.442924 66.53746 -0.67666215
54.956406 68.129471 -0.82871896
51.181187 69.853302 -0.78535283
53.785217 68.664261 -0.31361279
58.739246 66.402153 0
64 64 0
59.367668 66.108444 -0.83909959
58.455635 66.523567 -0.84033626
58.180866 66.648628 -0.7081815
54.895348 68.144066 -0.83385456
51.216492 69.818527 -0.78275847
53.793781 68.645447 -0.31317726
64 64 0
64 64 0
59.428139 66.074257 -0.82769161
58.397758 66.54174 -0.84864217
57.580711 66.912437 -0.78079093
54.866974 68.143661 -0.83599401
64 64 -0
64 64 -0
64 64 0
64 64 0
59.439152 66.062622 -0.82524598
58.362686 66.549446 -0.85348797
57.438297 66.967499 -0.79767638
54.894707 68.117821 -0.83299947
64 64 -0
64 64 -0
64 64 0
64 64 0
59.445686 66.05304 -0.82361448
58.332172 66.555 -0.85763961
57.416183 66.967918 -0.79992795
54.87569 68.113152 -0.83428377
64 64 -0
64 64 -0
64 64 0
53.720375 68.633957 0.31491223
59.46698 66.040146 -0.81954044
58.399246 66.520691 -0.84725922
57.409763 66.966026 -0.80049032
54.873207 68.107635 -0.83428377
51.201424 69.76017 -0.78218246
64 64 -0
64 64 0
53.736534 68.619209 0.31433168
59.441971 66.044785 -0.82361448
58.396206 66.513924 -0.84725922
57.406181 66.958061 -0.80049032
54.85421 68.102905 -0.83556646
51.199188 69.742584 -0.78189445
53.801853 68.575005 -0.31216168
64 64 0
53.721466 68.611061 0.31462222
59.529739 65.998924 -0.80731827
58.379444 66.51329 -0.8493337
57.370136 66.964615 -0.80443102
54.858627 68.087662 -0.83471131
51.196999 69.724998 -0.7816053
53.796333 68.562675 -0.31216168
51.056641 69.787758 0
53.744377 68.585907 0.3137511
59.563446 65.977425 -0.80079854
58.303085 66.539177 -0.86040831
57.361923 66.958664 -0.80499339
54.844322 68.080788 -0.83556646
51.18063 69.713737 -0.78218246
53.781342 68.554573 -0.31245169
51.044907 69.774231 0
53.762573 68.562935 0.31302556
59.488781 66.004173 -0.81383801
58.355045 66.507851 -0.85210234
57.307262 66.973343 -0.81118566
54.830006 68.073898 -0.83642322
51.268284 69.656242 -0.7764166
53.775845 68.542221 -0.31245169
53.639717 68.602699 0
53.738071 68.559006 0.31360611
59.590324 65.952682 -0.795093
58.283195 66.531502 -0.86248541
57.26186 66.983772 -0.81625104
54.806313 68.071129 -0.83813506
64 64 -0
53.789371 68.521446 -0.31187114
53.66748 68.575424 0
53.74683 68.540283 0.31317055
59.524666 65.975296 -0.80650097
58.362759 66.488129 -0.85002786
57.235016 66.985886 -0.81906497
54.824898 68.049644 -0.83599401
51.429749 69.548172 -0.76575005
53.760147 68.5196 -0.31259668
53.695282 68.548225 0
53.741352 68.527893 0.31317055
59.477024 65.989792 -0.8146522
58.327621 66.495453 -0.85487098
57.138382 67.018631 -0.83032262
54.805908 68.044762 -0.83727831
51.517738 69.491325 -0.75998533
53.745171 68.511414 -0.31288725
53.718388 68.523193 0
53.745392 68.511314 0.31288055
59.506317 65.970428 -0.80894667
58.30164 66.498672 -0.85833114
57.041679 67.051147 -0.84157819
54.786919 68.039833 -0.83856261
51.511108 69.476242 -0.75998533
53.734974 68.501099 -0.31303224
53.727215 68.504501 0
53.744705 68.496834 0.31273556
59.467705 65.980835 -0.81546634
58.298622 66.491783 -0.85833114
56.958839 67.077332 -0.8511467
54.782043 68.028702 -0.83856261
51.504501 69.461143 -0.75998533
53.710495 68.497017 -0.31361279
53.731331 68.487915 0
53.73452 68.486519 0.31288055
59.492496 65.963516 -0.81057817
58.258816 66.500923 -0.86386842
56.861946 67.109413 -0.86240435
54.791306 68.011406 -0.83727831
51.50267 69.44397 -0.75969619
53.714607 68.480431 -0.31332225
53.721146 68.477577 0
53.786278 68.449203 0.31113887
59.403992 65.995468 -0.82606012
58.292618 66.477997 -0.85833114
56.806915 67.123047 -0.86859667
54.800598 67.994141 -0.83599401
51.505581 69.424751 -0.75912017
50.925411 69.676643 -0.39807978
53.730053 68.458946 0
53.785675 68.434792 0.31099388
59.360756 66.007584 -0.83339405
58.289627 66.4711 -0.85833114
56.7472 67.138565 -0.8753491
54.800488 67.980988 -0.83556646
51.480045 69.41787 -0.76027334
50.918564 69.660843 -0.39807978
53.729462 68.444458 0
53.76601 68.428642 0.31142944
59.158619 66.088112 -0.8692525
58.189899 66.505928 -0.87286586
56.738731 67.131821 -0.87591362
54.805103 67.965805 -0.83471131
53.73914 68.42556 -0.62276477
50.86879 69.663551 -0.3993859
53.714531 68.436172 0
53.751129 68.420387 0.31171945
59.206059 66.060783 -0.86028713
58.274445 66.461258 -0.85971677
56.734955 67.123047 -0.87591362
54.80032 67.954689 -0.83471131
53.71479 68.421326 -0.62391794
53.36364 68.572281 -0.32333672
53.704403 68.425797 0
53.760124 68.40184 0.31128389
59.044552 66.123123 -0.88880855
58.225365 66.474098 -0.86663705
56.717186 67.120262 -0.87760067
54.786118 67.947609 -0.83556646
53.704704 68.410934 -0.62420595
53.324699 68.573746 -0.32435229
53.699062 68.413353 0
53.735706 68.397652 0.31186444
59.010162 66.130722 -0.89451408
58.240837 66.459236 -0.86386842
56.722759 67.107468 -0.87647593
54.776638 67.938492 -0.83599401
53.699383 68.398491 -0.62420595
53.31918 68.560844 -0.32435229
53.7033 68.39682 0
53.744724 68.379128 0.31142944
59.071262 66.097595 -0.88310617
58.228626 66.456207 -0.8652541
56.728371 67.094688 -0.8753491
54.786045 67.921318 -0.83471131
53.684547 68.390099 -0.6247831
53.323231 68.543869 -0.32406229
53.697998 68.384369 0
53.734665 68.368767 0.31157443
59.018684 66.112862 -0.89206839
58.197956 66.460983 -0.86940575
56.710598 67.091858 -0.8770383
54.767147 67.916191 -0.83599401
53.698299 68.369545 -0.62362993
53.317749 68.53096 -0.32406229
53.678345 68.378014 0
53.705475 68.366501 0.3123
59.040165 66.10022 -0.88799435
58.205704 66.453568 -0.86802274
56.708729 67.087456 -0.8770383
54.764782 67.910606 -0.83599401
53.686142 68.367355 -0.62420595
53.324593 68.520454 -0.32377172
53.666107 68.375839 0
53.674133 68.372437 0.31317055
59.037632 66.094223 -0.88799435
58.175014 66.458267 -0.87217438
56.690956 67.084572 -0.8787275
54.78371 67.889465 -0.83385456
53.680874 68.354889 -0.62420595
53.314339 68.509575 -0.3239173
53.665619 68.361328 0
53.620972 68.380173 0.31462222
59.012325 66.097809 -0.89206839
58.18129 66.447342 -0.87079138
56.677872 67.079674 -0.87985218
54.745884 67.892265 -0.83685076
53.680382 68.340416 -0.62391794
53.318485 68.49263 -0.32362673
53.655563 68.350853 0
53.620472 68.365616 0.31447724
58.968769 66.108978 -0.89940232
58.201488 66.430603 -0.86732858
56.688202 67.064934 -0.87816513
54.755398 67.875122 -0.83556646
53.665615 68.33194 -0.62449402
53.322639 68.4757 -0.32333672
53.635906 68.344391 0
53.591244 68.363113 0.31520277
58.906933 66.127663 -0.90999609
58.198555 66.423592 -0.86732858
56.642307 67.07373 -0.88323057
54.741238 67.867912 -0.83642322
53.660385 68.319443 -0.62449402
53.307659 68.466797 -0.32362673
53.625866 68.33387 0
53.600372 68.344521 0.31476721
58.927181 66.112007 -0.90592206
58.167828 66.428162 -0.87148285
56.680817 67.047256 -0.87816513
54.731834 67.858696 -0.83685076
53.636074 68.314903 -0.62564719
53.307064 68.451881 -0.32348174
53.615837 68.323326 0
50.927757 69.442482 0.39546031
58.974842 66.085045 -0.89695978
58.146362 66.428802 -0.87425148
56.639591 67.053993 -0.8826682
54.72718 67.847496 -0.83685076
53.611755 68.310303 -0.6268003
53.316097 68.432983 -0.32304618
53.591393 68.318756 0
64 64 0
58.940365 66.092194 -0.90266216
58.152714 66.417885 -0.87286586
56.664093 67.03344 -0.87928987
54.7178 67.838242 -0.83727831
53.534843 68.327408 -0.63112497
53.291538 68.428009 -0.32362673
53.615028 68.29425 0
64 64 0
58.988098 66.065361 -0.89369988
58.17762 66.399353 -0.86871421
56.632233 67.036194 -0.8826682
54.722652 67.82312 -0.83642322
53.462673 68.342346 -0.63516051
53.300598 68.409134 -0.32319173
53.580986 68.293587 0
64 64 0
58.912445 66.089348 -0.90673935
58.132957 66.40947 -0.87494302
56.633286 67.025352 -0.88210374
54.703804 67.817749 -0.83770585
53.404793 68.351227 -0.63833201
53.290474 68.398178 -0.32333672
53.537285 68.296814 0
64 64 0
58.905354 66.085075 -0.90755355
58.130051 66.402382 -0.87494302
56.64373 67.010681 -0.88041669
54.694435 67.808464 -0.83813506
53.39476 68.340378 -0.63862002
53.275558 68.389168 -0.32362673
53.474297 68.307831 0
64 64 0
58.893692 66.082649 -0.90918189
58.127151 66.395287 -0.87494302
56.621277 67.009468 -0.8826682
54.704105 67.791397 -0.83685076
53.360794 68.339279 -0.64034927
53.270264 68.376205 -0.32362673
53.411263 68.318695 0
64 64 0
58.868286 66.085777 -0.91325593
58.124264 66.388184 -0.87494302
56.631771 66.994812 -0.880979
54.685257 67.785965 -0.83813506
53.369919 68.320587 -0.63948518
53.269791 68.361282 -0.32348174
53.319267 68.341171 0
64 64 0
58.897831 66.066589 -0.90755355
58.12603 66.379204 -0.87425148
56.618748 66.989716 -0.88210374
54.694969 67.768929 -0.83685076
53.364708 68.307739 -0.63948518
53.274155 68.344414 -0.32319173
53.260975 68.349754 0
64 64 0
58.936588 66.043777 -0.90021962
58.104546 66.379616 -0.87702018
56.624557 66.97699 -0.880979
54.671379 67.765366 -0.83856261
53.364323 68.292938 -0.6391961
50.772739 69.338997 -0.39836979
50.81839 69.320572 0
64 64 0
58.984573 66.017365 -0.89125425
58.059784 66.389343 -0.88324893
56.602104 66.975662 -0.88323057
54.681129 67.748344 -0.83727831
53.373528 68.2743 -0.63833201
50.775932 69.319138 -0.39807978
50.81197 69.304642 0
64 64 0
58.90414 66.042564 -0.90510786
58.0569 66.382164 -0.88324893
56.589092 66.970505 -0.88435525
54.68137 67.735168 -0.83685076
53.344364 68.27108 -0.63977319
50.769516 69.303154 -0.39807978
50.834564 69.277077 0
64 64 0
58.864952 66.051071 -0.91162759
58.072666 66.367531 -0.88048029
56.594936 66.957779 -0.88323057
54.6721 67.725807 -0.83727831
53.368046 68.246681 -0.63804293
50.767956 69.285233 -0.39793423
50.799187 69.272751 0
64 64 0
58.867065 66.043045 -0.91081339
58.03717 66.37336 -0.88532609
56.596085 66.946953 -0.8826682
54.65329 67.720238 -0.83856261
50.883011 69.220901 -0.78679514
50.756737 69.271164 -0.39807978
64 64 0
64 64 0
58.864601 66.036835 -0.91081339
58.080959 66.347649 -0.87840313
56.639778 66.919266 -0.8770383
54.6488 67.708939 -0.83856261
50.895947 69.197418 -0.78564197
50.750378 69.255157 -0.39807978
64 64 0
64 64 0
58.82201 66.05011 -0.91814733
58.018898 66.368088 -0.88740057
56.600216 66.929779 -0.88154137
54.651329 67.701401 -0.83813506
50.892807 69.189507 -0.78564197
50.747208 69.247154 -0.39807978
50.807514 69.223274 0
64 64 0
58.874718 66.022079 -0.90836769
58.025368 66.357178 -0.88601762
56.587215 66.924576 -0.8826682
54.62299 67.699524 -0.84027451
50.872124 69.179352 -0.786506
50.740875 69.231133 -0.39807978
50.796375 69.209236 0
64 64 0
58.909081 66.001419 -0.90184802
57.947807 66.379333 -0.89709216
56.593155 66.911888 -0.88154137
54.623302 67.68631 -0.83984691
50.899563 69.150246 -0.7844888
50.734566 69.215111 -0.39807978
50.809467 69.185661 0
64 64 0
58.906666 65.99527 -0.90184802
57.963627 66.364693 -0.89432353
56.570717 66.910355 -0.88379294
54.614079 67.676849 -0.84027451
50.922256 69.123085 -0.78275847
50.733124 69.197174 -0.39793423
50.788666 69.175423 0
64 64 0
58.837372 66.008034 -0.91325593
57.96262 66.348274 -0.89362937
56.568436 66.890549 -0.88323057
54.629139 67.644852 -0.83813506
50.885815 69.100838 -0.78419966
50.720604 69.1651 -0.39793423
50.766506 69.147247 0
50.803162 69.132988 0.39546031
58.844158 65.99823 -0.91162759
57.931705 66.35186 -0.8977837
56.564949 66.881569 -0.88323057
54.691772 67.607552 -0.83214271
50.908592 69.073776 -0.78247046
50.728897 69.143425 -0.39749923
50.769993 69.127495 0
50.806652 69.113289 0.3951703
58.772575 66.018707 -0.92385286
57.914822 66.349953 -0.89986086
56.542511 66.879906 -0.88548213
54.735306 67.577805 -0.82786387
56.992119 66.706276 -0.41866374
50.693611 69.138611 -0.39836979
50.768677 69.109627 0
50.776245 69.106705 0.39589587
58.843952 65.983986 -0.91081339
57.827705 66.375031 -0.91231841
56.558006 66.863594 -0.88323057
54.836395 67.526047 -0.81844938
56.964699 66.7071 -0.42010602
50.600121 69.15612 -0.40098202
50.767365 69.091766 0
50.823425 69.070198 0.39429975
58.836948 65.979523 -0.91162759
57.91386 66.333435 -0.8991667
56.535572 66.861877 -0.88548213
54.918423 67.481895 -0.81074679
57.087009 66.650452 -0.41261098
50.196007 69.29248 -0.41288319
50.809814 69.057144 0
50.783356 69.067291 0.39531532
58.811478 65.982101 -0.91570163
57.859482 66.345779 -0.90678114
56.551109 66.845604 -0.88323057
54.914223 67.470917 -0.81074679
57.301262 66.559029 -0.39963809
49.883789 69.392632 -0.42202654
50.793999 69.044914 0
50.791794 69.045753 0.39488032
58.896851 65.942429 -0.90021962
57.814453 66.354424 -0.91300994
56.53344 66.842018 -0.88491762
54.876461 67.472717 -0.81374133
57.520557 66.466286 -0.38637719
49.746159 69.425476 -0.42594489
48.350899 69.956558 0
39.20734 73.436897 0.74087441
58.74662 65.992348 -0.9262954
57.839752 66.336273 -0.9088583
56.544254 66.827591 -0.88323057
56.68676 66.773544 -0.65197873
57.561108 66.441948 -0.38378283
49.569553 69.472748 -0.43102437
48.338852 69.939491 0
39.293121 73.370087 0.7379722
58.716461 65.996483 -0.93118674
57.879169 66.312866 -0.90262949
56.536095 66.820374 -0.88379294
56.640194 66.781036 -0.65583003
57.6259 66.408569 -0.3797473
48.999046 69.668388 -0.44785997
48.346298 69.915039 0
39.228355 73.360428 0.73956829
58.862091 65.934364 -0.90510786
57.843525 66.317841 -0.90747261
56.508915 66.820305 -0.88660681
56.636841 66.772141 -0.65583003
57.642357 66.393578 -0.37859413
48.661503 69.774765 -0.45772892
48.348896 69.892456 0
39.187874 73.341476 0.74043941
58.804218 65.948982 -0.91488743
57.8736 66.298073 -0.90262949
56.524548 66.804115 -0.88435525
56.647923 66.757835 -0.65454572
57.605583 66.398605 -0.38061133
48.659397 69.754402 -0.4575839
48.317425 69.882683 0
39.264198 73.278633 0.73782665
58.801868 65.942703 -0.91488743
57.861435 66.294174 -0.9040125
56.511635 66.798637 -0.88548213
56.654205 66.745354 -0.65369064
57.592987 66.394501 -0.38118848
48.647591 69.737679 -0.45772892
48.324959 69.858261 0
39.214058 73.26329 0.73898774
58.73468 65.960571 -0.9262954
57.835163 66.295509 -0.90747261
56.474934 66.801994 -0.88942069
56.636471 66.741852 -0.65497327
57.653114 66.363297 -0.37744096
48.611458 69.730003 -0.45859948
48.322765 69.837502 0
39.212616 73.229713 0.73869777
58.695236 65.967964 -0.93281513
57.851212 66.281075 -0.90470397
56.476315 66.791138 -0.88885832
56.633163 66.732948 -0.65497327
57.64542 66.357422 -0.37772897
48.63377 69.700562 -0.45772892
48.291328 69.827606 0
39.172256 73.210594 0.73956829
58.796024 65.926994 -0.91488743
57.868652 66.270393 -0.90193534
56.484154 66.783066 -0.88773364
56.641136 66.724937 -0.65411818
57.619743 66.362564 -0.37917015
48.630329 69.691277 -0.45772892
48.297562 69.814499 0
39.166695 73.195595 0.73956829
58.733414 65.942947 -0.9254812
57.847084 66.269928 -0.90470397
56.495102 66.7687 -0.88604444
56.61858 66.723152 -0.65583003
57.602333 66.360222 -0.38003531
48.608849 69.678093 -0.45816392
48.29055 69.795525 0
39.18972 73.153 0.73855275
58.666122 65.960449 -0.93688917
57.820805 66.271149 -0.90816414
56.496529 66.757881 -0.88548213
56.629757 66.708916 -0.65454572
57.599483 66.352493 -0.38003531
48.592236 69.663086 -0.45845446
48.264015 69.783722 0
39.16893 73.126595 0.73884273
58.705528 65.938713 -0.92955524
57.85574 66.249886 -0.90262949
56.483665 66.752304 -0.88660681
56.621674 66.701767 -0.65497327
57.625801 66.334084 -0.37830502
48.580528 69.646248 -0.45859948
48.276588 69.757545 0
39.128632 73.107307 0.73971385
58.717125 65.927231 -0.9271096
57.820042 66.254486 -0.90747261
56.466019 66.748444 -0.88829601
56.608757 66.696373 -0.65583003
57.608402 66.331696 -0.37917015
48.56884 69.629387 -0.45874447
48.274529 69.736755 0
39.117645 73.077248 0.73971385
58.719444 65.919159 -0.9262954
57.817322 66.247025 -0.90747261
56.472263 66.735863 -0.88716912
56.552422 66.706734 -0.66053808
57.644482 66.309837 -0.37686381
48.586468 69.601868 -0.4580189
48.228493 69.731964 0
39.136009 73.036522 0.73884273
58.661354 65.932968 -0.93607497
57.852356 66.225883 -0.90193534
56.468964 66.726768 -0.88716912
56.558819 66.694237 -0.65968132
57.627102 66.307442 -0.37772897
48.584591 69.581467 -0.45787391
48.255821 69.700508 0
39.100681 73.01532 0.73956829
58.789219 65.879555 -0.91325593
57.873264 66.209946 -0.89847517
56.480003 66.712502 -0.88548213
56.545902 66.688728 -0.66053808
57.565926 66.320801 -0.38118848
48.587624 69.559319 -0.4575839
48.283226 69.669113 0
39.119129 72.974648 0.73869777
58.759033 65.883286 -0.91814733
57.804501 66.226288 -0.90816414
56.505432 66.6931 -0.88210374
56.528175 66.684921 -0.66182077
57.524178 66.327019 -0.38349482
48.551582 69.551231 -0.45845446
48.168633 69.688843 0
39.093628 72.949852 0.7391333
58.672997 65.906937 -0.93281513
57.797077 66.220497 -0.9088583
56.478268 66.692604 -0.88491762
56.529766 66.674164 -0.66139323
57.545738 66.310471 -0.38205254
48.530205 69.537819 -0.45889002
55.242569 67.134949 0
39.043709 72.933754 0.74029386
58.67535 65.898842 -0.93200094
57.827488 66.201202 -0.9040125
56.479801 66.681808 -0.88435525
56.565228 66.651337 -0.65796947
57.581909 66.28878 -0.3797473
48.450115 69.545303 -0.46106669
55.327042 67.092896 0
38.993771 72.917557 0.74145496
58.7243 65.874207 -0.9230355
57.782284 66.208855 -0.91024125
56.48135 66.671013 -0.88379294
56.600735 66.628609 -0.65454572
57.608406 66.27063 -0.37801698
55.25489 67.10672 -0.25918815
55.38707 67.059761 0
38.992798 72.883865 0.74116498
58.689415 65.879372 -0.9287411
57.855301 66.174561 -0.8991667
56.473343 66.66362 -0.88435525
54.468075 67.373268 -0.84284145
57.586163 66.269806 -0.37917015
55.339317 67.064949 -0.25657591
55.388283 67.047615 0
39.050659 72.829369 0.7391333
58.687149 65.872955 -0.9287411
57.829002 66.175476 -0.90262949
56.474918 66.65284 -0.88379294
54.459152 67.363464 -0.84327066
57.612686 66.25174 -0.37744096
55.311119 67.063118 -0.25730148
55.418972 67.025093 0
39.005714 72.81131 0.74014884
58.703545 65.859985 -0.9254812
57.797985 66.177994 -0.90678114
56.452538 66.650482 -0.88604444
54.440575 67.357033 -0.84455335
57.605095 66.245728 -0.37772897
55.248581 67.07328 -0.25904316
55.488972 66.988861 0
39.009781 72.77594 0.73971385
58.691978 65.856842 -0.9271096
57.80957 66.165527 -0.90470397
56.468529 66.634644 -0.88379294
54.504364 67.321747 -0.83856261
57.58773 66.243126 -0.37859413
55.279221 67.05069 -0.25802705
55.382198 67.014664 0
38.999199 72.745735 0.73971385
58.671066 65.856934 -0.93036944
57.754833 66.176208 -0.91231841
56.450951 66.630562 -0.88548213
54.422783 67.337303 -0.84541011
57.589924 66.233673 -0.37830502
55.280441 67.038437 -0.25788203
55.412971 66.992256 0
38.934681 72.734329 0.74131
58.794899 65.806732 -0.90836769
57.676369 66.194984 -0.92339301
56.462185 66.61644 -0.88379294
54.423622 67.324036 -0.8449809
57.587231 66.225922 -0.37830502
55.301319 67.019386 -0.25715646
55.49295 66.952866 0
38.963421 72.690399 0.74014884
58.681709 65.842422 -0.9279269
57.774601 66.156677 -0.9088583
56.537434 66.585266 -0.87478673
56.687035 66.53344 -0.64513129
57.590771 66.22036 -0.37801698
55.324043 67.005623 -0.25643092
55.496082 66.946022 0
38.992535 72.663368 0.7391333
58.707535 65.826317 -0.9230355
57.771999 66.149147 -0.9088583
56.615974 66.548073 -0.86521828
57.072227 66.390625 -0.61089551
57.534298 66.231178 -0.38118848
55.394112 66.969711 -0.25425369
55.453167 66.949333 0
38.967361 72.638229 0.73956829
58.658573 65.835991 -0.93118674
57.745686 66.14978 -0.91231841
56.742645 66.494553 -0.85002202
57.30238 66.302155 -0.59035474
57.512039 66.230087 -0.38234165
64 64 -0
55.444691 66.940689 0
38.873398 72.636688 0.74203551
58.735859 65.802315 -0.91733313
57.809544 66.119469 -0.90262949
56.927128 66.421585 -0.82807112
57.338463 66.280754 -0.58693099
57.445728 66.244026 -0.38608918
64 64 -0
55.455921 66.925293 0
38.82856 72.618111 0.74305165
58.700947 65.807121 -0.9230355
57.830746 66.103882 -0.8991667
57.001163 66.386795 -0.81906497
57.350292 66.267731 -0.58564669
57.423439 66.242783 -0.38724235
64 64 -0
55.442532 66.918327 0
44.267845 70.729202 0.58224547
58.740891 65.786407 -0.91570163
57.737934 66.12709 -0.91231841
57.00309 66.376701 -0.8185026
57.279507 66.282806 -0.59163743
57.38155 66.248146 -0.38954869
56.51157 66.543663 -0.22087356
55.512943 66.882874 0
64 64 0
58.612301 65.82283 -0.93770647
57.787655 66.101837 -0.90470397
57.04837 66.351959 -0.81287265
64 64 -0
57.192642 66.303146 -0.40050325
56.602039 66.502968 -0.21811576
55.529186 66.865944 0
64 64 0
58.647579 65.803688 -0.93118674
57.785118 66.094322 -0.90470397
57.045536 66.343552 -0.81287265
64 64 -0
56.983986 66.364296 -0.41261098
56.589161 66.497345 -0.21840633
55.619434 66.824127 0
55.220364 66.958611 0.25874645
58.645405 65.797218 -0.93118674
57.787346 66.08522 -0.9040125
57.047523 66.333534 -0.81231034
64 64 -0
56.917385 66.377213 -0.4163585
56.591072 66.48674 -0.21826133
55.714714 66.780876 0
55.142906 66.972801 0.26092312
58.708878 65.768806 -0.91977566
57.818146 66.066574 -0.8991667
57.05917 66.320297 -0.81062114
64 64 -0
57.01754 66.334213 -0.41030464
56.597939 66.474487 -0.21797077
55.711361 66.770866 0
49.919998 68.706902 0.41461816
58.697357 65.765533 -0.92140716
57.825165 66.055939 -0.8977837
57.046719 66.315125 -0.81174797
64 64 -0
56.980385 66.337212 -0.41232184
56.590031 66.467178 -0.21811576
55.73764 66.750984 0
49.879822 68.70137 0.41563374
58.667084 65.768463 -0.9262954
57.77507 66.064262 -0.90470397
57.068039 66.298721 -0.80893409
64 64 -0
56.918644 66.348267 -0.41578135
56.675835 66.428787 -0.21550354
55.81337 66.71479 0
49.849472 68.69249 0.41635984
58.627399 65.774414 -0.93281513
57.715408 66.075623 -0.91300994
57.10387 66.277596 -0.80443102
64 64 -0
56.778275 66.385132 -0.42385355
56.667976 66.421562 -0.21564853
55.795284 66.709785 0
49.833954 68.678642 0.41664985
58.705082 65.741669 -0.91896147
57.789165 66.042946 -0.90193534
57.154228 66.251793 -0.79823875
64 64 -0
56.534637 66.455597 -0.43797848
56.689732 66.404579 -0.21492298
55.796955 66.698242 0
49.867805 68.648529 0.41548872
58.721771 65.729111 -0.91570163
57.781918 66.037003 -0.90262949
57.13702 66.248268 -0.79992795
64 64 -0
56.54641 66.44175 -0.43711445
56.602879 66.423248 -0.21739021
55.828308 66.676994 0
49.862198 68.631454 0.41548872
58.691483 65.731934 -0.92059296
57.760399 66.035706 -0.90539545
57.134308 66.239975 -0.79992795
64 64 -0
56.366444 66.490494 -0.44749185
56.614784 66.40947 -0.21695465
55.825081 66.667114 0
64 64 0
58.670589 65.731628 -0.92385286
57.724537 66.039024 -0.91024125
57.208939 66.206551 -0.79092181
64 64 -0
56.368355 66.479675 -0.44720384
56.631649 66.394119 -0.2163741
55.831776 66.654015 0
64 64 0
58.668499 65.725189 -0.92385286
57.798458 66.006721 -0.8991667
57.346485 66.152969 -0.77459866
64 64 -0
56.399818 66.459297 -0.44518551
56.643581 66.380424 -0.21593909
55.883034 66.626526 0
64 64 0
58.737 65.695999 -0.91162759
57.791248 66.000771 -0.89986086
57.387417 66.130905 -0.76953328
64 64 -0
56.377159 66.456459 -0.44633868
56.655552 66.366745 -0.21550354
55.850151 66.626289 0
49.924061 68.535973 0.4130215
58.717152 65.698875 -0.91488743
57.770935 66.003166 -0.90262949
57.550606 66.07402 -0.75039625
64 64 -0
56.419994 66.437607 -0.44374433
56.668972 66.357536 -0.21506798
55.878288 66.611809 0
49.916382 68.529053 0.41316649
58.668034 65.707565 -0.9230355
57.754196 66.000221 -0.90470397
57.499718 66.081718 -0.756024
64 64 -0
56.495876 66.403198 -0.43913165
56.705723 66.335999 -0.21390687
55.894966 66.595642 0
49.905956 68.513626 0.41331205
58.675385 65.69812 -0.92140716
57.809151 65.97438 -0.89639801
57.60371 66.039894 -0.74364161
64 64 -0
56.630955 66.350128 -0.43106058
56.821716 66.289291 -0.21042408
55.891834 66.585846 0
49.900513 68.49659 0.41331205
58.59325 65.717117 -0.93526077
57.706348 65.998787 -0.91093278
57.625465 66.024475 -0.74082774
64 64 -0
56.711929 66.314606 -0.42615989
56.759518 66.299492 -0.21216574
55.898647 66.572891 0
49.895088 68.479553 0.41331205
58.633591 65.697174 -0.9279269
57.651306 66.007828 -0.91854721
57.569717 66.03363 -0.74702001
64 64 -0
56.768326 66.287079 -0.42270038
56.811253 66.273499 -0.21056907
55.855843 66.575661 0
49.899605 68.459366 0.4130215
58.739994 65.656532 -0.90918189
57.739822 65.971519 -0.90539545
57.702988 65.983116 -0.73125923
64 64 -0
56.933315 66.22551 -0.41289899
56.813465 66.263252 -0.21042408
55.966908 66.529861 0
49.854572 68.454819 0.4141826
58.709686 65.659058 -0.91407329
57.732643 65.965454 -0.9060896
57.589081 66.010475 -0.74420398
64 64 -0
56.901028 66.226257 -0.41462818
56.845451 66.243683 -0.20940796
55.968838 66.518593 0
64 64 0
58.462341 65.729279 -0.95644832
57.672798 65.97583 -0.91439557
57.523602 66.022423 -0.75152093
64 64 -0
56.947708 66.202255 -0.41174582
56.788174 66.252075 -0.21100463
55.98069 66.504234 0
64 64 0
58.582973 65.684425 -0.93526077
57.771027 65.936897 -0.89986086
57.564831 66.001015 -0.74645549
64 64 -0
56.806763 66.23674 -0.41981691
56.810265 66.235649 -0.21027908
55.992588 66.489906 0
49.828602 68.406593 0.41447261
58.585659 65.676414 -0.93444663
57.677639 65.957565 -0.91300994
57.591537 65.984222 -0.7430793
64 64 -0
56.94241 66.185211 -0.41174582
56.832405 66.219269 -0.20955296
55.974663 66.484848 0
49.843124 68.383324 0.4138926
58.5742 65.672783 -0.93607497
57.699245 65.942535 -0.90954977
57.545441 65.989952 -0.74814469
64 64 -0
57.083126 66.132484 -0.40338561
56.789997 66.222855 -0.21071407
55.877174 66.50428 0
49.827919 68.369278 0.4141826
58.524937 65.680733 -0.94422305
57.706505 65.931969 -0.90816414
57.55275 65.979172 -0.74702001
64 64 -0
56.897587 66.18029 -0.41405216
56.767445 66.220245 -0.21129464
55.874153 66.494461 0
49.797813 68.359772 0.41490817
58.615452 65.638718 -0.9279269
57.668251 65.926987 -0.91300994
57.407021 66.006485 -0.76334095
64 64 -0
56.981426 66.136009 -0.40886235
56.712376 66.217888 -0.21274631
56.102173 66.403595 0
49.787319 68.325439 0.41490817
58.57563 65.643677 -0.93444663
57.766762 65.888779 -0.89847517
57.545616 65.955788 -0.74702001
64 64 -0
56.944191 66.138031 -0.41088066
56.6749 66.219627 -0.21376187
55.90004 66.454422 0
49.772148 68.311279 0.41519871
58.682503 65.604279 -0.91570163
57.678028 65.907326 -0.91093278
57.514076 65.956787 -0.75039625
64 64 -0
56.996078 66.113068 -0.40771028
56.667252 66.212273 -0.21390687
55.936928 66.432617 0
49.78685 68.288078 0.41461816
58.59536 65.623451 -0.93036944
57.757416 65.875153 -0.8991667
57.604195 65.921173 -0.73970091
64 64 -0
57.048031 66.088234 -0.40453878
56.644676 66.209396 -0.21448742
55.938992 66.421364 0
49.766762 68.275383 0.41505316
58.626541 65.607002 -0.924667
57.759956 65.866165 -0.89847517
57.558044 65.926552 -0.7447685
64 64 -0
57.189236 66.03685 -0.39617857
56.557373 66.225815 -0.21695465
56.01086 66.389259 0
49.761604 68.258186 0.41505316
58.620838 65.605171 -0.9254812
57.672295 65.888222 -0.91093278
57.366982 65.979332 -0.76671934
64 64 -0
57.267319 66.009071 -0.39156589
56.541084 66.225777 -0.21739021
55.919647 66.411217 0
49.749065 68.252556 0.41534373
58.689983 65.577553 -0.91325593
57.771019 65.850571 -0.89639801
57.457153 65.943817 -0.756024
64 64 -0
57.433483 65.950844 -0.3817645
56.443745 66.244888 -0.220148
55.901768 66.405899 0
64 64 0
58.526924 65.618805 -0.94096321
57.788033 65.837349 -0.89362937
57.55714 65.90564 -0.74420398
64 64 -0
57.426174 65.944374 -0.38205254
56.475925 66.225433 -0.21913189
55.819008 66.419739 0
64 64 0
58.605579 65.588455 -0.9271096
57.665493 65.865273 -0.91093278
57.491474 65.916512 -0.75152093
64 64 -0
57.627258 65.876526 -0.37023392
56.488201 66.211937 -0.21869633
55.861042 66.396614 0
64 64 0
58.617882 65.577766 -0.924667
57.711384 65.843506 -0.9040125
57.57206 65.884346 -0.74195242
64 64 -0
57.580326 65.88192 -0.37282827
56.485535 66.202858 -0.21869633
55.903099 66.373604 0
64 64 0
58.611237 65.572647 -0.9254812
57.65136 65.852768 -0.91231841
57.56979 65.876579 -0.74195242
64 64 -0
57.627705 65.859673 -0.36994591
64 64 -0
55.870247 66.372566 0
64 64 0
58.566624 65.578545 -0.93281513
57.658772 65.8423 -0.91093278
57.504089 65.887238 -0.74926943
64 64 -0
57.695019 65.831764 -0.36590925
64 64 -0
55.937374 66.342407 0
64 64 0
58.507736 65.588455 -0.94259471
57.685463 65.826271 -0.90678114
57.584801 65.855385 -0.73970091
64 64 -0
57.553669 65.864388 -0.37398145
64 64 -0
64 64 0
64 64 0
58.425072 65.605064 -0.95644832
57.528965 65.86306 -0.92893028
57.509308 65.868721 -0.74814469
64 64 -0
57.829781 65.776459 -0.35783818
64 64 -0
56.96706 66.024841 0
64 64 0
58.632202 65.538414 -0.92059296
57.599075 65.834503 -0.91854721
57.546135 65.849678 -0.74364161
64 64 -0
57.623779 65.827423 -0.3696568
64 64 -0
64 64 0
64 64 0
58.563805 65.550911 -0.93200094
57.664402 65.807503 -0.9088583
57.52924 65.846062 -0.74533081
64 64 -0
57.716076 65.792763 -0.36418006
56.989464 66.000053 -0.20360294
57.012234 65.993561 0
64 64 0
58.723602 65.498428 -0.90429366
57.580177 65.823143 -0.92062438
57.419476 65.868782 -0.7577132
64 64 -0
57.708942 65.786575 -0.36446807
57.19701 65.931961 -0.19750735
57.215111 65.926819 0
64 64 0
58.498241 65.555244 -0.94259471
57.703506 65.7799 -0.90262949
56.40501 66.146965 -0.87422442
64 64 -0
57.721725 65.77475 -0.36360294
57.254692 65.906776 -0.19576569
55.765327 66.327789 0
64 64 0
58.577255 65.525833 -0.9287411
57.653069 65.785881 -0.90954977
56.343719 66.154305 -0.880979
64 64 -0
57.580158 65.806396 -0.3716751
57.302429 65.884544 -0.19431402
55.637268 66.353081 0
64 64 0
58.461174 65.551277 -0.94830024
57.612263 65.78904 -0.91508704
56.346008 66.143677 -0.88041669
64 64 -0
57.677605 65.770737 -0.36590925
57.325172 65.869446 -0.19358845
55.569275 66.361221 0
64 64 0
58.592628 65.507416 -0.9254812
57.701942 65.755714 -0.90193534
56.289593 66.149437 -0.88660681
64 64 -0
57.690407 65.758934 -0.36504522
57.332924 65.858589 -0.19329846
55.481201 66.374794 0
64 64 0
58.505081 65.524673 -0.94014901
57.665974 65.7575 -0.90678114
56.326176 66.12925 -0.88210374
64 64 -0
57.703243 65.747154 -0.36418006
57.375748 65.838028 -0.19199234
55.282745 66.41877 0
64 64 0
58.569942 65.499611 -0.9287411
56.308907 66.124039 -0.88379294
64 64 -0
57.6413 65.756073 -0.36763957
57.378555 65.828636 -0.19184677
55.164448 66.440102 0
64 64 0
58.534767 65.50222 -0.93444663
56.355339 66.101273 -0.87816513
64 64 -0
57.634201 65.749756 -0.36792758
64 64 -0
55.08622 66.450119 0
64 64 0
58.648273 65.467545 -0.91488743
56.305073 66.110092 -0.88379294
64 64 -0
64 64 -0
64 64 -0
55.160042 66.42408 0
64 64 0
58.622662 65.467583 -0.91896147
56.351543 66.087418 -0.87816513
64 64 -0
64 64 -0
64 64 -0
55.096863 66.42984 0
64 64 0
58.535034 65.484406 -0.93362927
56.358845 66.075508 -0.8770383
64 64 -0
64 64 -0
64 64 -0
55.159225 66.401344 0
64 64 0
64 64 -0
56.366142 66.063622 -0.87591362
64 64 -0
57.646832 65.717422 -0.36677441
64 64 -0
55.191509 66.381157 0
64 64 0
64 64 -0
56.334221 66.062317 -0.87928987
64 64 -0
57.634781 65.712425 -0.36735046
64 64 -0
55.274078 66.347527 0
49.593571 67.87574 0.41664985
58.596535 65.446686 -0.92222136
56.26302 66.071449 -0.88716912
64 64 -0
57.637711 65.7034 -0.36706242
64 64 -0
55.241074 66.345055 0
49.59893 67.855644 0.41635984
58.556576 65.45034 -0.9287411
56.339073 66.041168 -0.87816513
64 64 -0
57.600662 65.705032 -0.36908075
64 64 -0
55.278481 66.323753 0
49.614368 67.832893 0.41577929
58.669502 65.413353 -0.90918189
56.258038 66.052742 -0.88716912
64 64 -0
57.608616 65.694649 -0.36850363
64 64 -0
55.305859 66.305206 0
49.654972 67.803513 0.41447261
58.519623 65.446007 -0.93444663
56.329254 66.023941 -0.8787275
64 64 -0
57.571556 65.696159 -0.37052193
64 64 -0
55.358444 66.280098 0
49.745846 67.760994 0.41171539
58.661324 65.401726 -0.90999609
56.307152 66.019836 -0.880979
64 64 -0
57.674576 65.660805 -0.36446807
64 64 -0
55.365772 66.267006 0
64 64 0
58.640507 65.400269 -0.91325593
56.260471 66.022102 -0.88604444
64 64 -0
57.582493 65.676697 -0.3696568
64 64 -0
55.332817 66.264465 0
64 64 0
58.533554 65.421158 -0.93118674
56.267879 66.010185 -0.88491762
64 64 -0
64 64 -0
64 64 -0
55.340172 66.251373 0
64 64 0
58.507919 65.420746 -0.93526077
56.265457 66.000847 -0.88491762
64 64 -0
64 64 -0
64 64 -0
55.352558 66.237 0
64 64 0
58.420048 65.436279 -0.94992858
56.228588 66.000366 -0.88885832
64 64 -0
64 64 -0
64 64 -0
55.380116 66.218765 0
64 64 0
58.514088 65.405014 -0.93362927
56.304943 65.970802 -0.87985218
64 64 -0
64 64 -0
64 64 -0
55.372383 66.209641 0
64 64 0
58.49802 65.402046 -0.93607497
56.268093 65.970284 -0.88379294
64 64 -0
64 64 -0
64 64 -0
49.574696 67.675934 0
49.543331 67.683922 0.41664985
58.486736 65.397827 -0.93770647
56.310047 65.949699 -0.8787275
64 64 -0
64 64 -0
64 64 -0
49.454216 67.68792 0
49.513706 67.672836 0.41737539
58.504223 65.38633 -0.93444663
56.233799 65.959053 -0.88716912
64 64 -0
64 64 -0
64 64 -0
64 64 0
49.504246 67.656601 0.4175204
58.560913 65.36853 -0.924667
56.198112 65.963036 -0.89110988
64 64 -0
64 64 -0
64 64 -0
64 64 0
64 64 0
64 64 -0
56.254906 65.938805 -0.88435525
64 64 -0
64 64 -0
64 64 -0
64 64 0
64 64 0
64 64 -0
56.272293 65.92453 -0.88210374
64 64 -0
64 64 -0
64 64 -0
64 64 0
64 64 0
64 64 -0
57.721855 65.555473 -0.89224637
56.314362 65.90419 -0.8770383
64 64 -0
64 64 -0
64 64 -0
64 64 0
