# .PCD v0.7 - Point Cloud Data file format
VERSION 0.7
FIELDS x y z
SIZE 4 4 4
TYPE F F F
COUNT 1 1 1
WIDTH 1635
HEIGHT 1
VIEWPOINT 0 0 0 1 0 0 0
POINTS 1635
DATA ascii
67.921547 82.376625 -0.52477974
71.756897 100.34932 0
67.079903 78.43261 0.41215092
67.474998 80.381027 -0.93323994
67.898262 82.376266 -0.52463472
71.717285 100.37903 0
67.062462 78.436325 0.41215092
67.453064 80.375084 -0.93266279
67.880341 82.401306 -0.52521527
71.670105 100.37305 0
67.047157 78.450172 0.41244093
67.42691 80.348877 -0.93093359
67.858109 82.405983 -0.52521527
71.631485 100.40775 0
67.029694 78.453842 0.41244093
67.409264 80.363129 -0.93150961
67.830566 82.385193 -0.5244897
71.589615 100.42715 0
67.018585 78.488029 0.41331205
67.385292 80.34697 -0.93035644
67.810455 82.399979 -0.52477974
71.547699 100.44647 0
67.005295 78.512024 0.4138926
67.364502 80.345985 -0.93006843
67.789261 82.409653 -0.5249247
71.507858 100.47597 0
66.987755 78.51564 0.4138926
67.338524 80.319641 -0.92833924
67.765976 82.409134 -0.52477974
71.465866 100.49522 0
66.968132 78.509048 0.41360205
67.318802 80.323662 -0.92833924
67.743729 82.413673 -0.52477974
71.421761 100.50421 0
66.957848 78.548279 0.41461816
67.294983 80.307381 -0.92718607
67.718391 82.402893 -0.52434415
71.381775 100.53356 0
66.942322 78.562019 0.41490817
67.274254 80.306259 -0.92689693
67.698196 82.417572 -0.52463472
71.338646 100.54755 0
66.930862 78.596146 0.41577929
66.344269 75.748337 -0.99861336
67.255562 80.315292 -0.92718607
67.676956 82.427124 -0.52477974
71.289391 100.53088 0
71.291962 100.54375 1.0407172
66.321083 75.705833 -0.99476206
67.231819 80.29892 -0.9260329
67.653679 82.426453 -0.52463472
71.250305 100.56518 0
71.258919 100.60862 1.0423139
66.298996 75.668335 -0.99133831
67.209122 80.287582 -0.92516774
67.630409 82.425766 -0.5244897
71.211143 100.59944 0
71.211662 100.60207 1.0418783
66.255112 75.593239 -0.98449248
67.16185 80.254669 -0.9228614
67.586861 82.439583 -0.52463472
71.128639 100.64741 0
71.1222 100.61429 1.0417334
66.240288 75.554276 -0.98106873
67.150063 80.246429 -0.92228538
67.575722 82.441742 -0.52463472
71.106499 100.6517 0
71.106995 100.65428 1.0427489
66.223412 75.541847 -0.97978443
67.109886 80.143555 -0.91623151
67.553436 82.446053 -0.52463472
71.065163 100.67561 0
71.059753 100.64754 1.0423139
66.205605 75.524353 -0.97807252
67.083565 80.111732 -0.91421318
67.52919 82.440109 -0.52434415
71.018883 100.6739 0
71.019379 100.67647 1.0428945
66.185928 75.496758 -0.97550559
67.055405 80.069717 -0.91161883
67.507874 82.449486 -0.5244897
70.971649 100.66701 0
70.971176 100.66451 1.0423139
66.169174 75.484253 -0.97422123
67.03022 80.042908 -0.90988964
67.48365 82.443481 -0.52419919
70.932167 100.70097 0
70.936508 100.72395 1.0437651
66.152451 75.471725 -0.97293693
64 64 -0
67.46328 82.457909 -0.5244897
70.882065 100.67863 0
70.882553 100.68124 1.0423139
66.135765 75.459167 -0.97165263
66.996185 80.075607 -0.91133082
67.439072 82.451851 -0.52419919
71.312645 103.23499 0
70.827744 100.63333 1.0407172
66.116318 75.431458 -0.96908563
66.972046 80.053787 -0.90988964
67.416771 82.455994 -0.52419919
71.25576 103.19263 0
71.212006 102.95628 1.1064619
66.104362 75.444115 -0.96994239
66.961067 80.103149 -0.91248399
67.39447 82.460106 -0.52419919
71.207458 103.19625 0
71.164932 102.96497 1.1064619
66.086838 75.426453 -0.96823055
66.943466 80.116882 -0.91306001
67.371231 82.459091 -0.52405417
71.164764 103.23053 0
71.123444 103.00429 1.1073331
66.068451 75.403687 -0.96608949
66.93322 80.171318 -0.91594237
67.350777 82.473366 -0.52434415
71.119217 103.2494 0
71.07724 103.01797 1.107478
66.051025 75.385971 -0.96437758
66.919182 80.205406 -0.91767269
67.322922 82.446724 -0.52347362
71.077324 103.28871 0
71.031929 103.03671 1.1077681
66.031845 75.358124 -0.96181065
66.899597 80.208923 -0.91767269
66.79184 79.606537 -0.44277996
71.032593 103.31261 0
70.986588 103.05542 1.1080586
66.01722 75.355522 -0.96138304
66.87458 80.181839 -0.91594237
66.780251 79.650833 -0.44394109
70.982353 103.30569 0
70.942123 103.07919 1.1084942
66.00885 75.388275 -0.96395004
66.855927 80.190414 -0.91623151
66.75412 79.613243 -0.44277996
70.937569 103.32948 0
70.899406 103.11314 1.1092197
65.994202 75.385643 -0.96352249
66.831009 80.163269 -0.91450119
66.732559 79.601212 -0.44234496
70.894531 103.36347 0
70.848557 103.10097 1.1086391
65.976921 75.367813 -0.96181065
66.812363 80.171791 -0.91479033
66.728844 79.691544 -0.44481221
70.839828 103.33075 0
70.802193 103.11433 1.1087842
65.964058 75.375244 -0.96223819
66.784897 80.129288 -0.91219485
66.70723 79.679459 -0.44437665
70.790527 103.32872 0
70.762001 103.16349 1.1099453
65.952049 75.387741 -0.96309495
66.769775 80.158142 -0.91363716
66.689156 79.687836 -0.44452164
67.811249 86.233788 0
70.717308 103.187 1.1103809
65.934845 75.36985 -0.96138304
66.750252 80.161484 -0.91363716
66.670204 79.691071 -0.44452164
67.783508 86.233253 0
70.669952 103.19509 1.1103809
65.92025 75.367119 -0.9609555
66.72641 80.139275 -0.91219485
66.651237 79.69429 -0.44452164
67.746231 86.176224 0
70.621727 103.19798 1.1102353
65.903114 75.349182 -0.95924366
66.706909 80.142555 -0.91219485
66.631416 79.69236 -0.44437665
66.607346 79.548805 0
69.198441 95.000732 0.87787938
65.886871 75.336273 -0.95795935
66.682304 80.115204 -0.91046566
66.604774 79.649399 -0.44307053
66.580009 79.50061 0
69.144768 94.909576 0.87512159
65.871498 75.3284 -0.9571026
66.661148 80.108238 -0.90988964
66.585861 79.652534 -0.44307053
66.571457 79.565338 0
69.092171 94.823486 0.87250936
65.866325 75.339676 -0.95795935
66.650574 80.104721 -0.9096005
64 64 -0
66.562057 79.566895 0
69.054977 94.71376 0.86931658
65.85096 75.331772 -0.9571026
66.629448 80.097717 -0.90902448
64 64 -0
66.537369 79.534012 0
69.008644 94.663422 0.86771989
65.840553 75.354279 -0.95881444
66.614128 80.126404 -0.91046566
66.215935 77.669952 -0.38675919
68.95295 94.554459 0
68.962448 94.613037 0.8661238
65.826019 75.351425 -0.9583869
66.590538 80.104019 -0.90902448
64 64 -0
68.921814 94.596397 0
68.927925 94.634384 0.86655879
65.808258 75.328278 -0.95624745
66.569443 80.096916 -0.90844733
64 64 -0
68.881561 94.581764 0
68.890907 94.64032 0.86655879
65.79216 75.315239 -0.95496315
66.554039 80.125565 -0.90988964
64 64 -0
68.830765 94.500252 0
68.853073 94.641083 0.86641377
65.779282 75.322464 -0.95539069
66.529732 80.097969 -0.90815932
66.141769 77.629173 -0.38530809
66.457207 79.636467 0
68.819267 94.667458 0.86699432
65.767975 75.339828 -0.95667499
66.189156 78.041306 -0.79198384
66.141312 77.734428 -0.3882103
66.4319 79.598282 0
68.783813 94.683517 0.86728436
65.751915 75.326729 -0.95539069
66.177719 78.079712 -0.79400104
66.092148 77.526466 -0.38226029
66.421799 79.657799 0
68.747528 94.694427 0.86742991
65.735893 75.313629 -0.95410806
66.164627 78.107918 -0.79544336
66.082893 77.575211 -0.38356641
66.39183 79.588692 0
68.711227 94.705269 0.86757493
65.724533 75.330933 -0.95539069
66.148361 78.115631 -0.79573137
66.051636 77.480095 -0.38080862
66.372993 79.591576 0
68.677246 94.731491 0.86815548
65.706245 75.302559 -0.9528237
66.127441 78.092644 -0.79429018
66.030693 77.451736 -0.37993807
66.367363 79.681915 0
68.64399 94.76281 0.86888105
65.693352 75.309685 -0.9532513
66.111176 78.100319 -0.79457819
66.015205 77.45932 -0.38008305
66.332222 79.576668 0
68.606049 94.76326 0.86873603
65.678177 75.301575 -0.95239615
66.088058 78.06192 -0.79227185
66.007339 77.518295 -0.38167974
66.310341 79.558884 0
68.570396 94.779076 0.86902601
65.666016 75.313744 -0.9532513
66.364212 80.055145 -0.90441179
65.987213 77.49501 -0.38095418
66.269554 79.412331 0
68.533958 94.789719 0.86917102
65.650856 75.305595 -0.95239615
66.333595 79.981209 -0.90008712
65.967903 77.47683 -0.38037363
66.251678 79.420212 0
68.502007 94.831177 0.87018716
65.637199 75.307579 -0.95239615
66.314285 79.984016 -0.90008712
65.954597 77.499771 -0.38095418
66.221855 79.345642 0
68.462517 94.821152 0.86975157
65.62207 75.299377 -0.9515394
66.026688 78.117928 -0.7948662
65.936806 77.491821 -0.3806636
66.212929 79.415314 0
68.42675 94.836823 0.87004215
65.609146 75.306427 -0.95196861
66.006714 78.099884 -0.79371303
65.927094 77.540459 -0.38196972
66.195038 79.423126 0
68.389488 94.842148 0.87004215
65.594048 75.298187 -0.95111185
65.995453 78.143272 -0.79601938
64 64 -0
66.16404 79.33815 0
66.648308 82.770554 0.52941751
65.5811 75.305183 -0.9515394
65.976212 78.130302 -0.79515421
64 64 -0
66.146225 79.345901 0
66.622025 82.748009 0.52869195
65.566032 75.296921 -0.95068431
65.951324 78.076332 -0.79198384
64 64 -0
66.127678 79.348488 0
66.595093 82.720261 0.52782083
65.551682 75.293724 -0.95025676
65.934319 78.078674 -0.79198384
65.851723 77.477539 -0.37993807
66.109131 79.351044 0
66.568222 82.692505 0.52695024
65.538597 75.248886 -0.94640547
65.9188 78.02858 -0.78910035
65.839355 77.447777 -0.37906751
66.099152 79.347168 0
66.553413 82.668312 0.52622473
65.530518 75.29142 -0.94982755
65.888649 77.93351 -0.78362364
65.822403 77.444824 -0.37892196
66.086197 79.390953 0
66.523872 82.619881 0.524773
65.51619 75.288177 -0.94940001
65.86837 77.910149 -0.78218246
65.804779 77.436722 -0.37863195
66.066216 79.383133 0
66.498604 82.60231 0.52419245
65.501877 75.284912 -0.9489724
65.839958 77.825233 -0.77728176
65.787857 77.433746 -0.37848693
66.041443 79.339188 0
66.472694 82.579567 0.52346694
65.487564 75.281639 -0.94854486
65.804993 77.688965 -0.76949757
65.770264 77.425583 -0.37819639
66.022911 79.341644 0
66.450241 82.582535 0.52346694
65.469276 75.247787 -0.94554871
65.779068 77.619339 -0.76546204
65.751343 77.407104 -0.37761584
66.017181 79.442146 0
66.422401 82.544258 0.52230579
65.457008 75.259743 -0.94640547
65.757301 77.580437 -0.7631557
65.731148 77.378296 -0.37674525
66.001862 79.470375 0
66.397995 82.531708 0.52187026
65.444054 75.266586 -0.94683301
65.734314 77.53125 -0.76027334
65.714981 77.380371 -0.37674525
65.969269 79.364372 0
66.374939 82.529442 0.52172524
65.431732 75.278496 -0.9476881
65.710144 77.471756 -0.75681382
65.700119 77.392738 -0.37703526
65.942184 79.299622 0
66.353203 82.537445 0.52187026
65.416183 75.264954 -0.94640547
65.691933 77.458405 -0.75594866
65.681992 77.379326 -0.37660027
65.928238 79.338089 0
66.330154 82.535126 0.52172524
65.401299 75.256454 -0.94554871
65.673752 77.445053 -0.75508463
65.669029 77.407135 -0.37732583
65.901985 79.278427 0
66.305191 82.517303 0.52114469
65.388954 75.268341 -0.94640547
65.658142 77.452194 -0.75537264
65.650925 77.393661 -0.37689027
65.880981 79.260071 0
66.280907 82.504616 0.52070969
65.375336 75.270012 -0.94640547
65.641884 77.454193 -0.75537264
65.633484 77.385338 -0.37660027
65.861908 79.257149 0
66.261063 82.527992 0.52129024
65.359871 75.256371 -0.94512111
65.625626 77.456161 -0.75537264
65.619171 77.402763 -0.37703526
65.840973 79.238724 0
66.238678 82.530708 0.52129024
65.347488 75.268188 -0.94597626
65.613663 77.494057 -0.75738984
65.602364 77.399559 -0.37689027
65.818237 79.204773 0
66.214432 82.517914 0.52085471
65.317268 75.245926 -0.94383681
65.593086 77.600677 -0.7631557
65.569977 77.403389 -0.37689027
65.783302 79.224617 0
66.169678 82.523209 0.52085471
65.304863 75.257713 -0.94469357
65.587967 77.700226 -0.76863354
65.553185 77.400116 -0.37674525
65.7715 79.283638 0
66.144897 82.505173 0.5202741
65.288918 75.238884 -0.94298172
65.585556 77.825462 -0.77555144
65.53817 77.4123 -0.37703526
65.747688 79.239227 0
64 64 0
65.274178 75.230217 -0.94212496
65.569435 77.83252 -0.77584058
65.525482 77.445145 -0.37790638
65.7416 79.349937 0
64 64 0
65.260033 75.226654 -0.94169742
65.561951 77.916641 -0.78045213
65.508652 77.441795 -0.37776083
65.726532 79.383057 0
64 64 0
65.248734 75.248581 -0.94340926
65.547417 77.939079 -0.7816053
65.498718 77.500435 -0.37935749
66.083511 82.76825 0
66.05085 82.473999 0.519113
65.231216 75.214348 -0.94041306
65.530006 77.935806 -0.78131729
65.482971 77.507393 -0.37950251
66.058563 82.750053 0
66.029655 82.486786 0.51940298
65.223885 75.209991 -0.93998551
65.526077 77.977867 -0.78362364
65.475372 77.513474 -0.37964806
66.048363 82.761635 0
66.019615 82.498352 0.51969355
65.208138 75.191048 -0.93827367
65.503082 77.923119 -0.78045213
65.458488 77.510063 -0.37950251
66.026253 82.769287 0
65.997261 82.500778 0.51969355
65.194069 75.187393 -0.93784612
65.483513 77.899216 -0.77901095
65.443268 77.522156 -0.37979305
65.999153 82.730316 0
65.975456 82.508339 0.51983857
65.178398 75.168411 -0.93613422
65.672424 79.850632 -0.88826853
65.428017 77.534218 -0.38008305
65.980888 82.774124 0
65.952545 82.505554 0.51969355
65.165962 75.180023 -0.93698937
65.649513 79.81662 -0.8862502
65.412201 77.5411 -0.38022804
65.961975 82.812729 0
65.932343 82.528572 0.5202741
65.151924 75.176323 -0.93656176
65.634117 79.85463 -0.88826853
65.399033 77.573822 -0.38109916
65.933372 82.758148 0
65.911018 82.541222 0.52056414
65.138939 75.182816 -0.93698937
65.61338 79.841148 -0.88740337
65.390526 77.653038 -0.38327584
65.913872 82.791534 0
65.888611 82.543518 0.52056414
65.125946 75.189301 -0.93741852
65.594757 79.848228 -0.88769138
65.377151 77.685745 -0.38414696
65.891685 82.799004 0
65.866203 82.545792 0.52056414
65.110901 75.175323 -0.93613422
65.577141 79.865593 -0.88855654
65.365753 77.739105 -0.38559809
65.872063 82.832359 0
65.846878 82.579071 0.52143526
65.097397 75.176659 -0.93613422
65.557968 79.867485 -0.88855654
65.349152 77.740746 -0.38559809
65.848282 82.824242 0
65.820877 82.545074 0.52041912
65.082405 75.162643 -0.93484992
65.5383 79.864212 -0.88826853
65.33255 77.742363 -0.38559809
65.828049 82.852379 0
65.801476 82.578308 0.52129024
65.070381 75.179276 -0.93613422
65.518143 79.855751 -0.88769138
65.315453 77.738792 -0.38545308
65.805763 82.859749 0
65.778526 82.575287 0.52114469
65.056389 75.175453 -0.93570668
65.498985 79.857574 -0.88769138
65.293465 77.683456 -0.38385642
65.781013 82.841187 0
65.759506 82.61364 0.52216083
65.042412 75.1716 -0.93527746
65.480782 79.869682 -0.88826853
65.277901 77.695374 -0.38414696
65.759216 82.853683 0
65.737495 82.620926 0.52230579
65.028442 75.16774 -0.93484992
65.460182 79.856003 -0.88740337
65.259445 77.676201 -0.38356641
65.736916 82.860992 0
65.713089 82.60231 0.52172524
65.0168 75.18943 -0.93656176
65.441025 79.857758 -0.88740337
65.70192 82.728821 -0.52521527
65.71553 82.878616 0
65.692024 82.619896 0.52216083
65.000069 75.154846 -0.93356562
65.424171 79.885239 -0.88884455
65.681145 82.751564 -0.52579582
65.697372 82.932526 0
65.67231 82.652969 0.52303135
64.988403 75.176506 -0.93527746
65.40361 79.871506 -0.88798052
65.658485 82.753586 -0.52579582
65.669449 82.877525 0
65.651138 82.670517 0.52346694
64.973114 75.157234 -0.93356562
65.38623 79.893806 -0.88913369
65.637634 82.776283 -0.52637643
65.650703 82.926193 0
65.627678 82.662155 0.52317691
64.958313 75.143066 -0.93228292
65.36525 79.874855 -0.88798052
64 64 -0
65.626945 82.917809 0
65.604683 82.658913 0.52303135
64.943977 75.13398 -0.93142617
65.347816 79.89711 -0.88913369
65.589615 82.7491 -0.5255053
65.604523 82.924942 0
65.58477 82.691917 0.52390248
64.93811 75.144791 -0.93228292
65.337341 79.887604 -0.88855654
64 64 -0
65.595711 82.957016 0
65.572601 82.682503 0.5236119
64.923798 75.135666 -0.93142617
65.317719 79.884056 -0.88826853
65.553917 82.731239 -0.5249247
65.573235 82.964134 0
65.550461 82.68959 0.52375746
64.910759 75.141891 -0.93185371
65.299362 79.895935 -0.88884455
65.529587 82.712387 -0.52434415
65.549896 82.960815 0
65.529144 82.70697 0.52419245
64.896469 75.132759 -0.93099862
65.279739 79.892342 -0.88855654
65.506142 82.703865 -0.52405417
65.529488 82.99382 0
65.506538 82.708801 0.52419245
64.885048 75.159416 -0.93313807
65.262177 79.914505 -0.88970971
65.485596 82.731567 -0.52477974
65.505714 82.98526 0
65.483932 82.710609 0.52419245
64.869164 75.129776 -0.93057108
65.241333 79.895386 -0.88855654
65.461746 82.717804 -0.52434415
65.482773 82.987068 0
65.462135 82.722763 0.52448303
64.856895 75.146164 -0.93185371
65.223709 79.917511 -0.88970971
65.439125 82.719559 -0.52434415
65.460632 82.999237 0
65.441101 82.745239 0.52506357
64.84343 75.147186 -0.93185371
65.202522 79.893188 -0.88826853
65.415329 82.70575 -0.52390915
65.438454 83.01136 0
65.418449 82.746971 0.52506357
64.829582 75.143082 -0.93142617
65.184471 79.91011 -0.88913369
65.393112 82.712624 -0.52405417
65.415482 83.013084 0
65.396957 82.764206 0.52549857
64.814613 75.123596 -0.92971432
65.16449 79.901199 -0.88855654
65.369362 82.698746 -0.52361858
65.395927 83.061493 0
65.37542 82.781433 0.52593416
64.801544 75.129707 -0.93014354
65.145279 79.902603 -0.88855654
65.347519 82.710754 -0.52390915
65.371025 83.037216 0
65.353844 82.79863 0.52636969
64.788452 75.135788 -0.93057108
65.124603 79.883331 -0.88740337
65.322334 82.676079 -0.52289307
65.34729 83.028481 0
65.330399 82.789879 0.52607912
64.775711 75.146965 -0.93142617
65.104332 79.869194 -0.88653821
65.300491 82.688026 -0.52318305
65.324295 83.030098 0
65.307327 82.786293 0.52593416
64.760841 75.127403 -0.92971432
65.082687 79.834404 -0.88452101
65.276138 82.663666 -0.52245748
65.304138 83.073227 0
65.284981 82.793037 0.52607912
64.747742 75.133453 -0.93014354
65.063896 79.840858 -0.88480902
65.079468 80.072723 -0.44989166
65.278648 83.038429 0
65.264709 82.830879 0.52709526
64.735977 75.159958 -0.93228292
65.045097 79.84729 -0.88509703
65.058678 80.053268 -0.44931111
65.258385 83.081512 0
65.241615 82.827209 0.52695024
64.721825 75.150581 -0.93142617
65.024277 79.822731 -0.88365585
65.035927 80.002686 -0.44785997
65.234322 83.067429 0
65.2192 82.833878 0.52709526
64.708679 75.156563 -0.93185371
65.005157 79.823959 -0.88365585
65.018898 80.040222 -0.44887555
65.212929 83.094879 0
65.197105 82.845703 0.52738523
64.695839 75.167671 -0.93271047
64.985397 79.814842 -0.88307983
64.996605 79.994759 -0.44756943
65.191154 83.117111 0
65.17627 82.878265 0.52825636
64.68203 75.163383 -0.93228292
64.965019 79.795372 -0.88192666
64.979813 80.037453 -0.44873053
65.168053 83.11853 0
65.153145 82.874496 0.5281114
64.667618 75.148819 -0.93099862
64.945938 79.796524 -0.88192666
64.965714 80.126808 -0.45119777
65.145264 83.125122 0
65.130959 82.886238 0.52840137
64.655647 75.17524 -0.93313807
64.926544 79.79248 -0.88163751
64.951401 80.216156 -0.45366502
65.122154 83.126488 0
65.108437 82.892776 0.52854639
64.649498 75.185898 -0.93399483
64.918205 79.81369 -0.88279068
64.940697 80.201157 -0.45322946
65.111198 83.137566 0
65.096725 82.88826 0.52840137
64.635399 75.176414 -0.93313807
64.897331 79.783813 -0.88106149
64.916107 80.114082 -0.45076221
65.087486 83.128494 0
65.073608 82.884384 0.52825636
64.621323 75.166931 -0.93228292
64.87912 79.800385 -0.88192666
64.887688 79.954338 -0.44626331
65.066391 83.166176 0
65.052521 82.916794 0.52912694
64.60894 75.188179 -0.93399483
64.859749 79.796257 -0.88163751
64.862762 79.851616 -0.44336051
65.043518 83.172646 0
65.03051 82.933624 0.52956247
64.594879 75.178642 -0.93313807
64.843132 79.843765 -0.88423187
64.840569 79.795578 -0.44176441
65.02063 83.1791 0
65.006523 82.914093 0.52898192
64.581635 75.184479 -0.93356562
64.825066 79.86544 -0.88538504
64.821487 79.796577 -0.44176441
64.997719 83.185516 0
64.986099 82.961998 0.53028804
64.569427 75.210823 -0.93570668
64.806946 79.887093 -0.88653821
64.79818 79.714516 -0.43944219
64.973747 83.171104 0
64.963448 82.968361 0.53043306
64.555878 75.211502 -0.93570668
64.788261 79.898399 -0.88711536
64.775841 79.647995 -0.43755549
64.952644 83.21386 0
64.940529 82.969513 0.53043306
64.54258 75.217285 -0.93613422
64.768295 79.883835 -0.8862502
64.752922 79.565872 -0.43523327
64.811745 80.782021 0
64.918106 82.981026 0.53072363
64.528786 75.212814 -0.93570668
64.748619 79.87442 -0.88567418
64.732643 79.535629 -0.43436271
64.797104 80.902573 0
64.89566 82.992493 0.53101361
64.515236 75.21344 -0.93570668
64.729439 79.87532 -0.88567418
64.712677 79.510551 -0.43363714
64.77668 80.903526 0
64.873909 83.019531 0.53173971
64.502831 75.2397 -0.93784612
64.710716 79.886513 -0.8862502
64.693474 79.501007 -0.4333466
64.753235 80.836861 0
64.849533 82.989418 0.53086859
64.488358 75.21978 -0.93613422
64.689941 79.851181 -0.88423187
64.676323 79.538185 -0.43436271
64.732437 80.827347 0
64.828171 83.026779 0.53188473
64.461662 75.231178 -0.93698937
64.652061 79.863144 -0.88480902
64.636421 79.482651 -0.43276605
64.793304 83.29924 0
64.782829 83.044312 0.53232026
64.447479 75.216354 -0.93570668
64.634544 79.905273 -0.88711536
64.616264 79.447052 -0.43174991
64.770813 83.320992 0
64.760643 83.065994 0.53290027
64.434723 75.237404 -0.93741852
64.615326 79.906029 -0.88711536
64.597198 79.437408 -0.43145993
64.747269 83.316689 0
64.737404 83.061707 0.53275526
64.421524 75.248169 -0.93827367
64.595139 79.88092 -0.88567418
64.573677 79.308296 -0.42783156
64.723923 83.317581 0
64.715538 83.09375 0.53362638
64.408302 75.258942 -0.93913043
64.576698 79.902306 -0.88682735
64.548775 79.132408 -0.4228971
64.699455 83.287239 0
64.692657 83.099792 0.5337714
64.394165 75.244034 -0.93784612
64.556572 79.877129 -0.88538504
64.516472 78.73317 -0.41172206
64.67688 83.308884 0
64.668846 83.079842 0.53319085
64.380745 75.249626 -0.93827367
64.537567 79.882973 -0.88567418
64.491814 78.531235 -0.40606204
64.567451 80.766022 0
64.646675 83.106598 0.53391641
64.366821 75.239822 -0.93741852
64.517532 79.857742 -0.88423187
64.472389 78.474678 -0.40446538
64.547028 80.761497 0
64.623756 83.112556 0.53406137
64.353401 75.245392 -0.93784612
64.498207 79.853195 -0.88394386
64.455879 78.506393 -0.40533593
64.525787 80.730942 0
64.601639 83.14447 0.53493249
64.34613 75.230202 -0.93656176
64.484642 79.724236 -0.87673682
64.444717 78.428764 -0.40315926
64.513596 80.663605 0
64.590073 83.144836 0.53493249
64.332413 75.225479 -0.93613422
64.434715 78.680397 -0.81850564
64.426048 78.387733 -0.40199813
64.490379 80.560181 0
64.567245 83.155914 0.53522253
64.318848 75.225876 -0.93613422
64.414925 78.608505 -0.81446898
64.406601 78.315521 -0.39996648
64.469193 80.519135 0
64.54425 83.161774 0.53536749
64.305702 75.241653 -0.93741852
64.395164 78.531448 -0.81014544
64.387894 78.264046 -0.39851481
64.446686 80.426048 0
64.520531 83.141655 0.53478754
64.29158 75.221489 -0.93570668
64.37693 78.506065 -0.80870426
64.372276 78.326843 -0.40025645
64 64 0
64.499428 83.220184 0.53696418
64.278152 75.226959 -0.93613422
64.359146 78.496155 -0.80812711
64.353806 78.280533 -0.39895034
64 64 0
64.475945 83.210388 0.5366742
64.264465 75.22216 -0.93570668
64.340416 78.44487 -0.80524474
64.337036 78.301727 -0.39953092
64 64 0
64.453346 83.236923 0.53739977
64.251366 75.242996 -0.93741852
64.322723 78.434921 -0.80466759
64.316856 78.172241 -0.39590257
64 64 0
64.430565 83.25824 0.53798032
64.237129 75.212486 -0.93484992
64.304741 78.409447 -0.80322641
64.300392 78.203781 -0.39677313
64 64 0
64.407181 83.253555 0.5378353
64.223579 75.212769 -0.93484992
64.286606 78.373596 -0.80120808
64.282913 78.18856 -0.39633814
64 64 0
64.3862 83.368332 0.54102808
64.21032 75.228432 -0.93613422
64.268944 78.358429 -0.80034405
64.264992 78.147324 -0.39517701
64.298569 79.940063 0
64.364548 83.462303 0.54364032
64.197289 75.259468 -0.93870121
64.251144 78.33287 -0.79890174
64.248077 78.158012 -0.39546701
64 64 0
64.341301 83.478325 0.54407591
64.183601 75.25457 -0.93827367
64.232979 78.281448 -0.79601938
64.230377 78.121948 -0.39445144
64.260727 79.982376 0
64.317513 83.463127 0.54364032
64.170624 75.295853 -0.94169742
64.214706 78.214485 -0.79227185
64.213394 78.127403 -0.39459646
64 64 0
64.293915 83.458305 0.5434953
64.156693 75.275513 -0.93998551
64.197243 78.194046 -0.79111868
64.197044 78.179604 -0.39604756
64.223404 80.07663 0
64.270622 83.47422 0.54393035
64.143196 75.285957 -0.94084066
64.179306 78.132202 -0.78765917
64.179253 78.127876 -0.39459646
64.203056 80.004028 0
64.247093 83.474533 0.54393035
64.129791 75.306656 -0.94255251
64.161873 78.101379 -0.78592998
64.162834 78.185234 -0.39619255
64.184135 80.040703 0
64.223618 83.480026 0.54407591
64.115921 75.28627 -0.94084066
64.144623 78.080872 -0.78477681
64.146126 78.22699 -0.39735368
64.164009 79.968056 0
64.200722 83.542648 0.54581755
64.102608 75.322342 -0.94383681
64.127373 78.055183 -0.78333563
64.129456 78.284325 -0.39895034
64.145134 80.015083 0
64.176918 83.522087 0.545237
64.088928 75.322456 -0.94383681
64.110352 78.05014 -0.78304648
64.113747 78.481941 -0.40446538
64.125008 79.916351 0
64.15345 83.537865 0.545672
64.075211 75.317429 -0.94340926
64.093338 78.04509 -0.78275847
64.097488 78.669128 -0.40968984
64.105881 79.932106 0
64.13002 83.564011 0.54639757
64.061592 75.327766 -0.94426435
64.076256 78.024506 -0.7816053
64.080132 78.736809 -0.41157708
64.086662 79.937424 0
64.106209 83.532982 0.54552698
64.047905 75.327835 -0.94426435
64.059288 78.019417 -0.78131729
64.062279 78.726494 -0.4112865
64.067245 79.901077 0
64.08287 83.595459 0.54726869
64.041115 75.343269 -0.94554871
64.050781 78.009117 -0.78074127
64.053383 78.726532 -0.4112865
64.057884 79.968796 0
64.070862 83.548737 0.54596257
64.027397 75.338181 -0.94512111
64.033844 78.003975 -0.78045213
64.035591 78.726578 -0.4112865
64.038719 80.020889 0
64.047279 83.564384 0.54639757
64.01371 75.348465 -0.94597626
64.016937 78.019531 -0.78131729
64.017754 78.690231 -0.41027039
64.019646 80.260345 0
64.023712 83.626793 0.54813921
64 75.358749 -0.94683301
64 78.024712 -0.7816053
64 78.659073 -0.40939984
64 80.171883 0
64 83.590439 0.54712367
63.986282 75.353615 -0.94640547
63.983078 78.004005 -0.78045213
63.98233 78.622673 -0.40838373
63.980297 80.30719 0
63.97633 83.590431 0.54712367
63.972599 75.338181 -0.94512111
63.966156 78.003975 -0.78045213
63.964764 78.58107 -0.4072226
63.960667 80.275909 0
63.952545 83.637154 0.54842979
63.958881 75.343269 -0.94554871
63.949238 78.003929 -0.78045213
63.947239 78.555038 -0.40649706
63.941132 80.239433 0
63.928741 83.657867 0.54901034
63.945126 75.353493 -0.94640547
63.932415 77.983162 -0.77929896
63.929977 78.487411 -0.40461037
63.921764 80.187286 0
63.905113 83.63179 0.54828477
63.931595 75.322601 -0.94383681
63.898739 80.760757 -0.93410397
63.912724 78.44574 -0.40344927
63.885128 83.013313 0
63.881142 83.673218 0.54944533
63.917652 75.358452 -0.94683301
63.878338 80.781319 -0.93525714
63.895458 78.419647 -0.4027237
63.861553 83.096436 0
63.857296 83.683456 0.5497359
63.923702 73.020401 -0.99917942
63.903927 75.358345 -0.94683301
64 64 -0
63.878605 78.351952 -0.40083703
63.838127 83.137894 0
63.833687 83.662491 0.54915535
63.889904 75.389015 -0.94940001
64 64 -0
63.861767 78.299843 -0.3993859
63.815254 83.111649 0
63.809326 83.724632 0.550897
63.901905 73.020187 -0.99917942
63.876366 75.36834 -0.9476881
63.817562 80.775597 -0.93496913
63.844772 78.273682 -0.39866036
63.791706 83.153046 0
63.785549 83.719193 0.55075204
63.862881 75.347641 -0.94597626
63.79723 80.780533 -0.93525714
63.827148 78.304657 -0.39953092
63.768188 83.184021 0
63.761597 83.729309 0.55104202
63.880104 73.019928 -0.99917942
63.848827 75.373138 -0.94811565
63.776611 80.806152 -0.93669945
63.810207 78.278458 -0.39880535
63.744663 83.209747 0
63.737759 83.729004 0.55104202
63.869205 73.019775 -0.99917942
63.835678 75.331894 -0.94469357
63.756454 80.795517 -0.9361223
63.792881 78.283409 -0.39895034
63.721375 83.214622 0
63.713696 83.744263 0.55147755
63.858788 72.989113 -0.99580103
63.821423 75.367607 -0.9476881
63.735672 80.826233 -0.93785149
63.775948 78.262367 -0.39836979
63.69865 83.183052 0
63.68943 83.769882 0.55220312
63.847412 73.019432 -0.99917942
63.807949 75.351997 -0.94640547
63.714642 80.867279 -0.94015783
63.759769 78.19973 -0.39662811
63.675735 83.167053 0
63.665455 83.774681 0.55234814
63.837067 72.988747 -0.99580103
63.79414 75.356888 -0.94683301
63.694073 80.877274 -0.94073498
63.744778 78.079933 -0.39329034
63.652859 83.151031 0
63.641373 83.784668 0.55263871
63.825615 73.019035 -0.99917942
63.77972 75.392548 -0.94982755
63.673679 80.876892 -0.94073498
63.728973 78.017265 -0.39154866
63.631729 83.046539 0
63.617268 83.794601 0.55292869
63.814823 73.013725 -0.99861491
63.766376 75.371742 -0.94811565
63.653393 80.871323 -0.94044697
63.712784 77.980553 -0.39053255
63.607647 83.098114 0
63.593029 83.809715 0.55336428
63.803818 73.018593 -0.99917942
63.75275 75.366318 -0.9476881
63.632446 80.896744 -0.94188815
63.697021 77.928253 -0.38908142
63.584118 83.118439 0
63.569431 83.793617 0.55292869
63.793507 72.992928 -0.9963634
63.739014 75.366013 -0.9476881
63.61203 80.896286 -0.94188815
63.680073 77.93306 -0.38922644
63.559105 83.20118 0
63.544323 83.845032 0.55437982
63.788792 72.962326 -0.99298716
63.732029 75.370979 -0.94811565
63.601944 80.890884 -0.94160014
63.67141 77.943268 -0.38951698
63.546158 83.258133 0
63.53368 83.787613 0.55278367
63.777584 72.97731 -0.99467635
63.718288 75.370651 -0.94811565
63.581665 80.885201 -0.941311
63.65456 77.942863 -0.38951698
63.523663 83.226364 0
62.999954 104.36458 1.1276515
63.766209 72.99736 -0.99692792
63.704681 75.365173 -0.9476881
63.561398 80.879517 -0.94102299
63.637848 77.937225 -0.38937142
63.502052 83.16333 0
62.950237 104.39969 1.128667
63.755478 72.991974 -0.9963634
63.691647 75.339149 -0.94554871
63.540718 80.889328 -0.94160014
63.620445 77.957558 -0.38995197
63.481728 83.058655 0
62.90086 104.41917 1.1292475
63.745476 72.961205 -0.99298716
63.676781 75.379829 -0.9489724
63.520458 80.883575 -0.941311
63.602104 78.009048 -0.39140365
63.456631 83.130867 0
62.851871 104.42302 1.1293931
63.734497 72.965965 -0.99354953
63.663944 75.348648 -0.94640547
63.499447 80.903664 -0.94246417
63.585022 78.013741 -0.39154866
63.432899 83.150986 0
62.802261 104.44757 1.1301187
63.72398 72.95549 -0.99242479
63.649597 75.368744 -0.94811565
63.479023 80.903046 -0.94246417
63.568092 78.013229 -0.39154866
63.411041 83.108688 0
62.75275 104.46687 1.1306993
63.713322 72.950058 -0.99186033
63.63586 75.368309 -0.94811565
63.457935 80.923088 -0.94361734
63.550159 78.043854 -0.39241922
63.389954 83.045532 0
62.703354 104.48091 1.1311343
63.691692 72.949333 -0.99186033
63.608566 75.362267 -0.9476881
63.416149 80.947571 -0.94505852
63.516224 78.042725 -0.39241922
63.348946 82.898346 0
62.604637 104.50364 1.1318604
63.680336 72.964195 -0.99354953
63.596302 75.32074 -0.94426435
63.395859 80.941689 -0.94477051
62.898483 94.889313 -0.86322767
63.325554 82.913162 0
62.554218 104.54346 1.1330209
63.670815 72.928253 -0.98960876
63.583 75.309998 -0.94340926
63.374817 80.956467 -0.94563568
62.859245 94.93988 -0.8646788
63.30328 82.896721 0
62.504654 104.55727 1.1334565
63.658672 72.963402 -0.99354953
63.568554 75.330002 -0.94512111
63.354523 80.950531 -0.94534767
62.821861 94.938477 -0.8646788
63.280048 82.906281 0
62.456242 104.53984 1.1330209
63.650036 72.907135 -0.9873594
63.555672 75.308952 -0.94340926
63.333839 80.954903 -0.94563568
62.783051 94.973389 -0.86569494
63.256386 82.926193 0
62.40889 104.49642 1.1318604
63.639687 72.896545 -0.98623252
63.541592 75.318657 -0.94426435
63.313984 80.938576 -0.94477051
62.744156 95.008224 -0.86671048
63.233521 82.925285 0
62.260914 106.94007 1.2002172
63.629574 72.880867 -0.98454332
63.528343 75.307846 -0.94340926
63.293514 80.937729 -0.94477051
62.706257 95.017082 -0.86700106
63.210651 82.924347 0
62.208595 106.94833 1.2005079
63.617317 72.915955 -0.98848408
63.51358 75.332909 -0.94554871
63.27438 80.905869 -0.94304132
62.669003 95.010307 -0.86685604
62.570004 97.316803 0
62.157818 106.92017 1.1997818
63.607441 72.89518 -0.98623252
63.50079 75.311798 -0.94383681
63.254639 80.889465 -0.94217616
62.630386 95.03463 -0.86758161
64 64 0
62.105499 106.9283 1.2000723
63.596691 72.894699 -0.98623252
63.488285 75.285545 -0.94169742
63.236107 80.847214 -0.93986982
62.593361 95.02256 -0.86729103
64 64 0
62.051514 106.97269 1.2013783
63.586182 72.88913 -0.98567021
63.473934 75.300308 -0.94298172
63.217915 80.799774 -0.93727547
62.552734 95.088318 -0.8691777
64 64 0
61.996929 107.02742 1.202975
63.574955 72.898766 -0.98679489
63.458076 75.345818 -0.94683301
63.199589 80.757484 -0.93496913
62.513187 95.128075 -0.8703388
62.42141 97.049561 0
61.944942 107.02496 1.202975
63.562962 72.923622 -0.98960876
63.443863 75.3554 -0.9476881
63.180859 80.72551 -0.93323994
62.473034 95.178177 -0.87179053
62.385296 96.969666 0
61.891685 107.0484 1.2037007
63.55447 72.877411 -0.98454332
63.431431 75.329086 -0.94554871
63.162468 80.688339 -0.9312216
62.432758 95.228203 -0.8732416
62.348068 96.91571 0
61.838367 107.07177 1.2044262
63.547302 72.912674 -0.98848408
63.426147 75.297989 -0.94298172
63.153435 80.667168 -0.93006843
62.411259 95.279137 -0.87469274
62.330559 96.867905 0
61.812347 107.07045 1.2044262
63.538116 72.881683 -0.98510784
63.412766 75.292145 -0.94255251
63.135178 80.629967 -0.9280501
62.372654 95.29277 -0.87512827
62.290848 96.865868 0
61.759499 107.08336 1.2048618
63.527115 72.886185 -0.98567021
63.397755 75.31707 -0.94469357
63.116459 80.603088 -0.92660892
62.334293 95.301147 -0.87541831
62.251411 96.858582 0
61.704956 107.12732 1.2061678
63.516933 72.87545 -0.98454332
63.384083 75.316338 -0.94469357
63.098362 80.565865 -0.92459172
62.295341 95.31987 -0.87599885
62.211994 96.851257 0
61.650871 107.16083 1.2071835
63.506493 72.869789 -0.98398101
63.372688 75.274574 -0.94126981
63.080647 80.523438 -0.92228538
62.255188 95.359299 -0.87715995
62.171432 96.86467 0
61.599876 107.13719 1.2066028
63.496349 72.859055 -0.98285633
63.357029 75.309677 -0.94426435
63.060978 80.517136 -0.92199624
62.218479 95.336418 -0.8765794
62.128475 96.919586 0
62.785404 85.364365 0.59762943
63.485058 72.868576 -0.98398101
63.342472 75.324272 -0.94554871
63.041618 80.505676 -0.92142022
62.179413 95.354996 -0.87715995
62.08749 96.93808 0
62.760796 85.342133 0.59704888
63.47765 72.812157 -0.97779089
63.3297 75.30809 -0.94426435
63.02137 80.509659 -0.92170823
62.140602 95.36834 -0.87759554
62.045231 96.97731 0
62.737164 85.304298 0.59603274
63.463932 72.862236 -0.98341864
63.316036 75.307266 -0.94426435
63.002045 80.498154 -0.92113221
62.432156 89.919571 -0.72520715
62.005383 96.97493 0
64 64 0
63.453854 72.851425 -0.98229182
63.302376 75.306435 -0.94426435
62.984661 80.455627 -0.91882586
62.400837 89.917656 -0.72520715
61.966183 96.962112 0
62.690163 85.228577 0.59400105
63.444435 72.830475 -0.98004025
63.289036 75.300461 -0.94383681
62.964779 80.454391 -0.91882586
62.372787 89.863831 -0.72375548
61.926682 96.954422 0
62.666142 85.20105 0.59327549
63.435715 72.799377 -0.97666407
63.274395 75.314972 -0.94512111
62.944565 80.458282 -0.91911387
62.342201 89.851479 -0.7234655
61.887199 96.946701 0
62.63953 85.214989 0.59371108
63.425083 72.798691 -0.97666407
63.262398 75.288475 -0.94298172
62.925694 80.441505 -0.91824871
62.313335 89.813156 -0.72244936
61.847054 96.949318 0
62.612541 85.23407 0.59429163
63.415466 72.782768 -0.97497487
63.248756 75.287575 -0.94298172
62.906857 80.424728 -0.91738468
62.283875 89.785172 -0.72172379
61.806202 96.96228 0
62.585506 85.253098 0.59487164
63.40176 72.827682 -0.98004025
63.236507 75.266174 -0.94126981
62.889458 80.38726 -0.91536635
62.253773 89.767517 -0.72128826
61.76321 97.006332 0
62.557716 85.282494 0.59574276
63.390396 72.837105 -0.98116714
63.221481 75.285728 -0.94298172
62.870728 80.370422 -0.91450119
62.225143 89.729111 -0.72027272
61.720821 97.039963 0
62.528069 85.337769 0.59733945
63.382919 72.790741 -0.9761017
63.206768 75.300133 -0.94426435
62.852036 80.353577 -0.91363716
62.195145 89.711395 -0.71983713
61.681629 97.026794 0
62.498283 85.39299 0.59893554
63.371212 72.805199 -0.97779089
63.195675 75.263329 -0.94126981
62.83559 80.305725 -0.91104168
62.166672 89.672905 -0.71882105
61.643948 96.992828 0
62.471695 85.401535 0.59922612
63.363888 72.758804 -0.97272331
63.181324 75.272583 -0.94212496
62.817387 80.283691 -0.90988964
62.138664 89.629204 -0.71765989
61.606346 96.958817 0
60.837032 107.55171 1.2195196
63.351433 72.783386 -0.97553933
63.164677 75.312546 -0.94554871
62.797714 80.282249 -0.90988964
62.111141 89.580292 -0.71635377
61.569206 96.919556 0
60.785175 107.53751 1.2192296
63.342342 72.762321 -0.97328782
63.154469 75.265457 -0.94169742
62.782299 80.224037 -0.90671813
62.085289 89.510628 -0.71446711
61.532551 96.875076 0
60.732182 107.53876 1.2193745
63.338966 72.736572 -0.97047174
63.147663 75.264938 -0.94169742
62.772499 80.223297 -0.90671813
62.071838 89.483566 -0.71374154
61.513081 96.868393 0
60.703918 107.56268 1.2201002
63.330357 72.710442 -0.96765786
63.131294 75.299744 -0.94469357
62.755276 80.190865 -0.90498894
62.045429 89.42421 -0.71214491
61.472172 96.88092 0
60.650089 107.57422 1.2205358
63.318645 72.724831 -0.96934706
63.123238 75.227013 -0.93870121
62.737324 80.168716 -0.90383577
62.017139 89.390755 -0.71127433
61.437305 96.815582 0
60.595013 107.60124 1.2214068
63.306496 72.744263 -0.97159863
63.106426 75.266891 -0.94212496
62.719421 80.146553 -0.9026826
61.987282 89.377991 -0.71098435
61.394363 96.853973 0
60.539867 107.62817 1.2222774
63.296745 72.733276 -0.97047174
63.094463 75.245331 -0.94041306
62.700329 80.139824 -0.90239346
61.957035 89.370346 -0.71083879
61.349655 96.91304 0
60.48465 107.65503 1.223148
63.287022 72.722305 -0.96934706
63.079201 75.264702 -0.94212496
62.683357 80.107315 -0.90066427
61.928921 89.336792 -0.70996821
61.306072 96.956497 0
60.429787 107.67666 1.2238741
63.279846 72.680916 -0.96484399
63.063469 75.289154 -0.94426435
62.663895 80.105713 -0.90066427
61.897881 89.339439 -0.71011323
61.263672 96.984352 0
60.373577 107.71373 1.2250346
63.268929 72.685104 -0.96540636
63.054134 75.236862 -0.93998551
62.64357 80.114388 -0.90124029
62.463993 82.247765 -0.51142746
61.222073 97.00177 0
60.320324 107.71451 1.2251801
63.254547 72.729774 -0.97047174
63.037937 75.266396 -0.94255251
62.62542 80.09729 -0.90037626
62.44548 82.204468 -0.51026636
61.179981 97.024315 0
60.266624 107.72037 1.2254702
63.247066 72.693443 -0.96653318
63.025654 75.249893 -0.94126981
62.605076 80.105911 -0.90095228
62.427071 82.161179 -0.5091058
61.142326 96.994965 0
60.212452 107.73137 1.2259058
63.234783 72.712776 -0.96878475
63.011612 75.253822 -0.94169742
62.588333 80.073311 -0.89922309
62.40831 82.123016 -0.50808966
61.102463 96.991486 0
60.153252 107.79922 1.2279373
63.226509 72.686539 -0.96597087
62.998928 75.242378 -0.94084066
62.56937 80.066444 -0.89893508
62.389641 82.084839 -0.50707352
61.063061 96.98278 0
60.096642 107.83595 1.2290986
63.2183 72.660278 -0.96315479
62.983959 75.256508 -0.94212496
62.551819 80.044098 -0.89778191
62.369659 82.06218 -0.50649297
62.347809 82.304268 0
60.041809 107.85191 1.2296791
63.206448 72.674515 -0.96484399
62.972694 75.229713 -0.93998551
62.531021 80.05777 -0.89864594
62.349731 82.039497 -0.50591242
62.330433 82.250435 0
59.985985 107.87814 1.2305496
63.200657 72.622963 -0.95921624
62.958179 75.238678 -0.94084066
62.51162 80.055984 -0.89864594
62.330811 82.006454 -0.5050419
62.307903 82.253578 0
59.932972 107.87326 1.2305496
63.185963 72.667519 -0.96428168
62.94508 75.232307 -0.94041306
62.493187 80.043884 -0.89806992
62.310028 81.994064 -0.50475132
62.293148 82.173782 0
59.878502 107.88383 1.2309852
63.176453 72.656403 -0.96315479
62.929565 75.251465 -0.94212496
62.474289 80.036911 -0.89778191
62.289761 81.976501 -0.50431633
62.271191 82.171707 0
59.823513 107.89952 1.2315657
63.164532 72.670578 -0.96484399
62.917938 75.229721 -0.94041306
62.455906 80.02475 -0.89720476
62.270535 81.948563 -0.50359076
62.252728 82.133354 0
59.767479 107.92549 1.2324369
63.157509 72.634155 -0.96090329
62.903873 75.233513 -0.94084066
62.436546 80.022865 -0.89720476
62.249355 81.941269 -0.50344521
62.234863 82.089783 0
59.709866 107.96689 1.233743
63.144577 72.658432 -0.96371931
62.89333 75.20153 -0.93827367
62.418201 80.010681 -0.89662874
62.230743 81.908127 -0.50257462
62.213005 82.087639 0
59.656746 107.96167 1.233743
63.138161 72.616936 -0.95921624
62.87775 75.220627 -0.93998551
62.397316 80.024185 -0.89749277
62.21014 81.895622 -0.50228411
62.191669 82.080292 0
59.600525 107.98741 1.2346135
63.12775 72.615891 -0.95921624
62.863159 75.229462 -0.94084066
62.375347 80.047989 -0.89893508
62.191658 81.862434 -0.50141352
62.170876 82.067726 0
59.540051 108.05444 1.2366452
63.118896 72.599663 -0.95752704
62.848545 75.238312 -0.94169742
62.357014 80.035706 -0.89835793
62.168488 81.875748 -0.50184906
62.149044 82.065506 0
59.486294 108.0542 1.2367908
63.109028 72.593536 -0.95696467
62.834438 75.242012 -0.94212496
62.336037 80.049149 -0.89922309
62.149033 81.852844 -0.50126851
62.130436 82.032204 0
59.429314 108.08488 1.2378063
63.098042 72.648582 -0.96315479
62.830841 75.210678 -0.93955797
62.325806 80.053284 -0.8995111
62.139324 81.841377 -0.50097799
62.119541 82.031067 0
59.399445 108.11314 1.2386774
63.089188 72.632339 -0.96146774
62.817833 75.204155 -0.93913043
62.306408 80.051254 -0.8995111
62.119404 81.823624 -0.50054294
62.099941 82.00808 0
59.345604 108.11272 1.2388225
63.0793 72.626167 -0.96090329
62.803207 75.212921 -0.93998551
62.284271 80.074905 -0.90095228
62.097317 81.826508 -0.50068796
62.080944 81.979897 0
59.286236 108.1639 1.2404191
63.066696 72.645256 -0.96315479
62.789661 75.211464 -0.93998551
62.266514 80.057388 -0.90008712
62.076336 81.819031 -0.50054294
62.056427 82.003433 0
59.231762 108.1685 1.2407091
63.044689 72.653091 -0.96428168
62.767639 75.162582 -0.93613422
62.222607 80.099442 -0.9026826
62.03442 81.803986 -0.50025243
62.017494 81.957298 0
59.117058 108.22916 1.2427408
63.030293 72.687263 -0.96822023
62.753014 75.17128 -0.93698937
62.202579 80.102417 -0.90297061
62.011181 81.817101 -0.50068796
61.996376 81.949722 0
59.059006 108.26454 1.2439018
63.021503 72.670952 -0.96653318
62.744122 75.128952 -0.93356562
62.180805 80.120796 -0.90412378
61.993153 81.783691 -0.49981683
61.971771 81.973145 0
59.00494 108.2637 1.2440469
63.014484 72.639458 -0.96315479
62.731258 75.12233 -0.93313807
62.163086 80.103165 -0.90325862
61.971664 81.78125 -0.49981683
61.955364 81.924141 0
58.948513 108.28346 1.244773
62.999969 72.673607 -0.96709555
62.717819 75.120789 -0.93313807
62.141262 80.121483 -0.90441179
61.950775 81.773628 -0.49967185
61.930729 81.947502 0
58.896202 108.26699 1.2444825
62.994194 72.632011 -0.96259248
62.709137 75.07843 -0.92971432
62.119389 80.139778 -0.90556496
61.930504 81.760826 -0.49938184
61.910248 81.934639 0
59.122391 105.8606 1.1769961
62.978416 72.676208 -0.96765786
62.69455 75.087074 -0.93057108
62.102909 80.111816 -0.90412378
61.909653 81.753136 -0.49923629
61.887363 81.942451 0
59.068165 105.88565 1.1778672
62.976337 72.604324 -0.95977855
62.684185 75.059998 -0.92843163
62.084667 80.099228 -0.90354663
61.886974 81.760925 -0.49952686
61.865685 81.939888 0
59.019402 105.86417 1.1774317
62.95927 72.658592 -0.96597087
62.673275 75.03801 -0.92671978
62.066448 80.086639 -0.90297061
61.864277 81.768669 -0.49981683
61.844627 81.932129 0
58.977501 105.7859 1.1754
62.949425 72.652267 -0.96540636
62.661797 75.021111 -0.92543548
62.049507 80.063751 -0.90181744
61.843433 81.760925 -0.49967185
61.821083 81.945 0
58.930149 105.75399 1.1746739
62.93959 72.64595 -0.96484399
62.645355 75.04496 -0.92757487
62.033878 80.030563 -0.90008712
61.820076 81.773788 -0.50010741
61.798767 81.947533 0
58.887291 105.68596 1.1729327
62.926643 72.664841 -0.96709555
62.629486 75.06369 -0.92928678
62.015781 80.017921 -0.8995111
61.800518 81.755661 -0.49967185
61.775803 81.955185 0
58.838203 105.66942 1.1726422
62.919327 72.638329 -0.96428168
62.624401 74.995804 -0.92372358
61.998356 80.000107 -0.89864594
61.778419 81.758141 -0.49981683
61.753464 81.957642 0
58.800758 105.56002 1.1697394
62.910168 72.626923 -0.96315479
62.605968 75.034882 -0.92714733
61.979023 79.997673 -0.89864594
61.757618 81.75029 -0.49967185
61.731766 81.95491 0
58.760315 105.47638 1.1675627
62.902317 72.605438 -0.96090329
62.591988 75.038284 -0.92757487
61.967548 79.933647 -0.89518642
61.73354 81.768188 -0.50025243
61.713367 81.926346 0
58.714806 105.43393 1.1665466
62.88932 72.62426 -0.96315479
62.579308 75.031487 -0.92714733
61.946976 79.941452 -0.89576358
61.712734 81.760292 -0.50010741
61.685722 81.970032 0
58.668064 105.40175 1.1658211
62.878902 72.622917 -0.96315479
62.564655 75.039932 -0.92800242
61.930382 79.918442 -0.8946104
61.689266 81.77298 -0.50054294
61.66267 81.977554 0
58.628094 105.31796 1.1636438
62.865173 72.646759 -0.96597087
62.557331 74.992378 -0.92415112
61.915188 79.885162 -0.89288121
61.667793 81.770172 -0.50054294
61.637562 82.000519 0
58.586964 105.24446 1.1617571
62.865265 72.605766 -0.96146774
62.551361 74.98642 -0.92372358
61.906269 79.878754 -0.89259207
61.65638 81.773911 -0.50068796
61.628731 81.983597 0
58.572914 105.15877 1.1594355
62.845486 72.674904 -0.96934706
62.534698 75.010101 -0.92586303
61.888447 79.865967 -0.89201605
61.631477 81.796814 -0.50141352
61.602882 82.011688 0
58.53141 105.09036 1.1576937
62.841091 72.628181 -0.96428168
62.525497 74.977806 -0.92329603
61.869278 79.863403 -0.89201605
61.609974 81.793945 -0.50141352
61.585278 81.977814 0
58.492142 105.00646 1.1555165
62.825207 72.667061 -0.96878475
62.51292 74.970932 -0.92286849
61.852196 79.845436 -0.89115089
61.588474 81.791039 -0.50141352
61.558662 82.010994 0
58.461445 104.86075 1.1515982
62.816799 72.65052 -0.96709555
62.500366 74.964027 -0.92243928
61.835155 79.827446 -0.89028573
61.566277 81.793259 -0.50155854
61.535492 82.018333 0
58.443768 104.62233 1.1450671
62.811214 72.613846 -0.96315479
62.492733 74.921516 -0.91901553
61.818153 79.809464 -0.8894217
61.539097 81.83149 -0.50271964
61.505894 82.072067 0
58.43092 104.35304 1.1376654
62.790993 72.682877 -0.97103626
62.474579 74.955292 -0.92201173
61.796913 79.822174 -0.89028573
61.516834 81.833649 -0.50286466
61.481186 82.089661 0
58.398647 104.22791 1.1343277
62.781918 72.671333 -0.96990943
62.46563 74.922943 -0.91944474
61.782833 79.783653 -0.88826853
61.493118 81.846077 -0.50330019
61.453541 82.127838 0
58.35944 104.15422 1.1324409
62.770012 72.679932 -0.97103626
62.450272 74.936317 -0.92072743
61.756508 79.832169 -0.89115089
61.470829 81.848175 -0.50344521
61.421413 82.196892 0
58.318218 104.09591 1.1309892
62.756649 72.698563 -0.97328782
62.437786 74.929359 -0.92029983
61.741035 79.803848 -0.88970971
61.447792 81.855408 -0.50373578
61.392799 82.240128 0
58.278599 104.02728 1.1292475
62.750492 72.666862 -0.96990943
62.42458 74.92746 -0.92029983
61.721207 79.806221 -0.88999772
61.423996 81.867722 -0.50417078
61.277927 82.880905 0
58.236172 103.97919 1.1280864
62.734173 72.705574 -0.9744125
62.403992 74.976349 -0.92457873
61.703594 79.793228 -0.8894217
61.392685 81.931473 -0.50605798
61.252117 82.898209 0
58.202076 103.8745 1.1253293
62.725128 72.693993 -0.97328782
62.392963 74.95919 -0.92329603
61.684513 79.790443 -0.8894217
61.369514 81.938583 -0.50634801
61.224754 82.925766 0
58.162945 103.80576 1.1235876
62.715366 72.687408 -0.97272331
62.382725 74.93692 -0.92158419
61.662411 79.808105 -0.89057487
61.344799 81.955948 -0.50692856
61.20113 82.927536 0
58.126255 103.72157 1.1214108
62.933651 71.151527 -0.99744964
62.710869 72.645638 -0.96822023
62.364971 74.965416 -0.92415112
61.639496 79.830841 -0.89201605
61.317741 81.988716 -0.50794464
61.180561 82.908714 0
58.08593 103.66304 1.1199592
62.693619 72.689316 -0.97328782
62.355537 74.938057 -0.92201173
61.620369 79.82798 -0.89201605
61.285191 82.057404 -0.50997633
61.157715 82.905296 0
58.05114 103.5685 1.117492
62.681599 72.697769 -0.9744125
62.344631 74.920822 -0.92072743
61.599697 79.835312 -0.89259207
61.223656 82.316139 -0.51737803
61.137215 82.886398 0
58.021248 103.44312 1.1141542
62.673393 72.681099 -0.97272331
62.320576 74.989883 -0.92671978
61.577438 79.852859 -0.89374524
61.146576 82.672371 -0.52753752
61.113613 82.888069 0
57.983013 103.37422 1.1124125
62.900627 71.136368 -0.99606401
62.662132 72.684525 -0.97328782
62.311989 74.95739 -0.92415112
61.559074 79.84481 -0.89345723
61.10186 82.812706 -0.53160083
61.092377 82.87429 0
57.950474 103.26933 1.1096547
62.647739 72.708008 -0.9761017
62.301113 74.940132 -0.92286849
61.537548 79.857185 -0.8943224
61.074345 82.840012 -0.53247195
61.074364 82.83989 0
57.907814 103.23119 1.1087842
62.633289 72.731461 -0.97891557
62.287895 74.938072 -0.92286849
61.51759 79.859306 -0.8946104
61.049976 82.846725 -0.53276199
61.056431 82.805496 0
