# .PCD v0.7 - Point Cloud Data file format
VERSION 0.7
FIELDS x y z
SIZE 4 4 4
TYPE F F F
COUNT 1 1 1
WIDTH 1589
HEIGHT 1
VIEWPOINT 0 0 0 1 0 0 0
POINTS 1589
DATA ascii
73.534943 68.88736 -0.89313358
77.652306 70.99781 -0.85497838
86.93483 75.755775 -0.71976745
92.95137 78.839699 0
92.863243 78.794525 0.90581977
69.258484 66.703384 -0.97479874
70.183006 67.17868 -0.9590503
71.496208 67.853798 -0.93361658
73.52903 68.898872 -0.89313358
77.630035 71.007202 -0.85411322
86.957581 75.80249 -0.72092855
92.993591 78.905609 0
92.873085 78.843651 0.9066909
69.285973 66.725594 -0.98050427
70.174706 67.183853 -0.95835882
71.509613 67.872169 -0.93586814
73.564171 68.931557 -0.89698488
77.621559 71.023666 -0.85411322
86.947922 75.832603 -0.72107357
92.966324 78.93586 0
92.915169 78.909485 0.90857756
69.234367 66.707001 -0.9715389
70.153023 67.182091 -0.95559019
71.518471 67.888245 -0.93755734
73.526291 68.926613 -0.89399034
77.61306 71.040115 -0.85411322
86.947456 75.867485 -0.7215091
93.068451 79.033012 0
92.929436 78.961121 0.90959311
69.24865 66.722427 -0.97479874
70.126907 67.177979 -0.95213002
71.504738 67.892647 -0.93643045
73.538567 68.947571 -0.89570224
77.604546 71.056564 -0.85411322
86.937714 75.897598 -0.72165412
93.077995 79.082504 0
92.952866 79.017609 0.91089982
69.254135 66.733337 -0.97643024
70.17646 67.213158 -0.9604333
71.49102 67.897026 -0.93530577
73.518913 68.951981 -0.89441788
77.614365 71.082542 -0.85526639
86.950974 75.93969 -0.72252464
93.068977 79.122429 0
92.985397 79.078957 0.91249591
69.285889 66.757973 -0.98294997
70.114746 67.190445 -0.95143586
71.477287 67.901367 -0.93417895
73.522018 68.968224 -0.89527303
77.592033 71.091812 -0.85440123
86.918098 75.957794 -0.72194409
64 64 0
93.013245 79.138008 0.91394758
69.243134 66.743736 -0.97561604
70.164238 67.225746 -0.95974183
71.486084 67.917465 -0.93586814
73.50692 68.974976 -0.89441788
77.578873 71.105827 -0.85411322
86.908249 75.987892 -0.72208965
93.106133 79.231247 0
93.031746 79.192322 0.91510814
69.226685 66.743172 -0.9731704
70.169228 67.237862 -0.96112746
71.503838 67.938316 -0.93868202
73.519081 68.996002 -0.89612979
77.547386 71.110214 -0.85267204
86.925949 76.032463 -0.72310519
93.119957 79.283333 0
93.031776 79.237053 0.91568869
69.236488 66.756393 -0.97561604
70.129791 67.226616 -0.95559019
71.48558 67.940277 -0.93699282
73.531212 69.017067 -0.89784163
77.566238 71.141029 -0.85440123
86.943588 76.077103 -0.72412133
93.073845 79.303963 0
93.027145 79.279388 0.91612428
69.215668 66.753494 -0.9723562
70.156937 67.250412 -0.9604333
71.467339 67.942207 -0.93530577
73.516052 69.023781 -0.89698488
77.557602 71.157417 -0.85440123
86.928978 76.10482 -0.72412133
93.133575 79.380394 0
93.068405 79.345985 0.91801095
69.190498 66.74823 -0.96828216
70.135269 67.248459 -0.95766467
71.458084 67.948853 -0.93474346
73.509979 69.035271 -0.89698488
77.544373 71.171379 -0.85411322
86.923523 76.137383 -0.7244119
93.165573 79.442375 0
93.137108 79.427307 0.92076874
69.1959 66.759132 -0.9699105
70.104759 67.241753 -0.95351303
71.480232 67.97216 -0.93811965
73.50843 69.049179 -0.89741409
77.503716 71.170753 -0.85209489
86.931793 76.177254 -0.72513747
93.225037 79.519104 0
93.173523 79.491745 0.92251039
69.231827 66.786316 -0.97724444
70.114128 67.256203 -0.95559019
71.475426 67.981194 -0.93811965
73.502327 69.060661 -0.89741409
77.51786 71.199219 -0.85353607
86.930809 76.21228 -0.72557247
93.229233 79.566635 0
93.209808 79.55629 0.9242515
69.199608 66.773193 -0.9715389
70.121002 67.264618 -0.95697314
71.459564 67.978531 -0.93643045
73.499268 69.066399 -0.89741409
77.536346 71.219566 -0.85497838
86.941765 76.235916 -0.72615302
93.279526 79.616135 0
93.250854 79.600838 0.92584819
69.187538 66.774811 -0.9699105
70.112633 67.269646 -0.95628166
71.481644 68.00193 -0.93980885
73.506706 69.085129 -0.89869678
77.527611 71.235916 -0.85497838
86.931564 76.266083 -0.72629857
93.292763 79.668686 0
93.286972 79.665588 0.92758989
69.236458 66.80912 -0.97969013
70.108681 67.277031 -0.95628166
71.440979 67.991745 -0.93530577
73.500557 69.096619 -0.89869678
77.509735 71.24736 -0.85440123
86.935043 76.303604 -0.72687912
93.333435 79.736053 0
93.300064 79.718155 0.92860544
69.228706 66.813103 -0.97887594
70.126801 67.296295 -0.95974183
71.445091 68.005547 -0.93643045
73.503441 69.112961 -0.89955354
77.500969 71.26368 -0.85440123
86.915565 76.328842 -0.72673357
93.360229 79.796143 0
93.331398 79.780632 0.93020213
69.194847 66.802986 -0.9731704
70.118408 67.301315 -0.9590503
71.444717 68.016953 -0.93699282
73.488213 69.11956 -0.89869678
77.487633 71.277534 -0.85411322
86.896088 76.354057 -0.72658855
93.382339 79.853851 0
93.376328 79.850609 0.93223375
69.252312 66.842194 -0.98457831
70.136475 67.320641 -0.96251047
71.457733 68.035614 -0.93924439
73.477509 69.128578 -0.89826918
77.478828 71.293823 -0.85411322
86.853729 76.366882 -0.72571802
93.413521 79.916595 0
93.389153 79.903404 0.93324989
69.183716 66.813179 -0.9723562
70.128052 67.325661 -0.96181893
71.443924 68.03978 -0.93811965
73.480339 69.144928 -0.89912593
77.470009 71.310104 -0.85411322
86.875305 76.414314 -0.72687912
93.426277 79.96949 0
93.411018 79.961212 0.93455601
69.236755 66.850159 -0.98294997
70.124023 67.333061 -0.96181893
71.456894 68.058487 -0.94037122
73.469589 69.153923 -0.89869678
77.465706 71.328842 -0.85440123
86.842033 76.432007 -0.72629857
93.461823 80.034897 0
93.45105 80.02903 0.93644267
69.233307 66.856483 -0.98294997
70.08036 67.318825 -0.95559019
71.451988 68.067497 -0.94037122
73.476883 69.172737 -0.89998108
77.438675 71.335197 -0.85324806
86.822418 76.4571 -0.72615302
93.488121 80.095428 0
93.449905 80.07457 0.93702322
69.225525 66.860435 -0.98213577
70.085144 67.330986 -0.95697314
71.442612 68.074059 -0.93980885
73.475121 69.186653 -0.90040863
77.447952 71.361366 -0.85440123
86.80735 76.484673 -0.72615302
93.528 80.163528 0
93.489716 80.142578 0.93890989
69.196053 66.85247 -0.97724444
70.085503 67.340752 -0.95766467
71.419861 68.073273 -0.93755734
73.459854 69.193161 -0.89955354
77.439049 71.377609 -0.85440123
86.796814 76.514725 -0.72629857
93.558624 80.226746 0
93.524857 80.208206 0.9406516
69.188278 66.856361 -0.97643024
70.129822 67.374718 -0.9652791
71.428276 68.089577 -0.93924439
73.444572 69.199631 -0.89869678
77.466377 71.413803 -0.85670757
86.786224 76.544769 -0.72644359
93.557236 80.272491 0
93.550766 80.268929 0.94210267
69.215118 66.879356 -0.98213577
70.073029 67.35302 -0.95697314
71.427795 68.101013 -0.93980885
73.465256 69.225929 -0.90126538
77.421181 71.410065 -0.85440123
86.802887 76.589867 -0.72745913
93.601349 80.343414 0
93.56749 80.324722 0.94326383
69.164062 66.859314 -0.9731704
70.086533 67.370079 -0.95974183
71.427277 68.112442 -0.94037122
73.45443 69.234871 -0.90083617
77.4077 71.423775 -0.85411322
86.805847 76.62748 -0.72803968
93.599785 80.389252 0
93.593216 80.385612 0.9447155
69.156288 66.863152 -0.9723562
70.104378 67.38961 -0.96320194
71.431175 68.126343 -0.9414959
73.466049 69.256256 -0.90254807
77.425842 71.455032 -0.85584241
86.813301 76.667648 -0.72876579
93.59816 80.435104 0
93.62336 80.449104 0.94631159
69.170097 66.879005 -0.97561604
70.05645 67.372574 -0.95628166
71.426186 68.135323 -0.9414959
73.459694 69.267693 -0.90254807
77.407791 71.466217 -0.85526639
86.793427 76.692673 -0.72862023
93.646492 80.50885 0
93.676102 80.525337 0.94863385
69.149353 66.87561 -0.9723562
70.091797 67.401909 -0.96251047
71.412323 68.139343 -0.94037122
73.444366 69.274117 -0.90169293
77.398766 71.482414 -0.85526639
86.800766 76.73288 -0.72934633
93.621986 80.542122 0
93.678802 80.573853 0.94935942
69.180374 66.901154 -0.97887594
70.105194 67.419075 -0.9652791
71.425049 68.158226 -0.94262278
73.43351 69.28302 -0.90126538
77.385201 71.496071 -0.85497838
86.803505 76.770576 -0.72992688
93.62468 80.590614 0
93.685966 80.624939 0.95023048
69.224266 66.934029 -0.98783821
70.057312 67.401878 -0.95835882
71.415588 68.164711 -0.94206041
73.445023 69.304474 -0.90297723
77.385147 71.517303 -0.8555544
86.792587 76.800659 -0.7300719
93.713531 80.687569 0
103.99646 86.462616 1.2811313
69.225021 66.942757 -0.98865235
70.057571 67.411659 -0.9590503
71.392845 68.163689 -0.93980885
73.438614 69.31588 -0.90297723
77.380554 71.536011 -0.85584241
86.790672 76.835838 -0.7305069
93.747749 80.754105 0
103.96024 86.505836 1.2808412
69.199944 66.93692 -0.98457831
70.044693 67.414032 -0.95766467
71.396645 68.177612 -0.94093359
73.423233 69.322227 -0.90212047
77.362442 71.547089 -0.85526639
86.775146 76.863365 -0.7305069
93.76828 80.81308 0
103.89682 86.533661 1.2796801
69.133636 66.903564 -0.9723562
70.042633 67.417686 -0.95766467
71.389702 68.179581 -0.94037122
73.424477 69.330444 -0.90254807
77.371391 71.562798 -0.85613155
86.785461 76.88736 -0.73108745
93.803421 80.856682 0
103.86057 86.54496 1.278954
69.216103 66.958527 -0.98865235
70.08651 67.452217 -0.9652791
71.411163 68.203545 -0.94374746
73.422508 69.344368 -0.90297723
77.371239 71.584053 -0.85670757
86.787956 76.925133 -0.73166806
93.792068 80.897812 0
103.81523 86.582863 1.278374
69.15667 66.93306 -0.97805864
70.082336 67.459572 -0.9652791
71.410507 68.215019 -0.94431198
73.438354 69.368439 -0.90511668
77.353081 71.595093 -0.85613155
86.79039 76.962936 -0.7322486
93.866638 80.987839 0
103.73822 86.602684 1.2767773
69.144547 66.934395 -0.97643024
70.091232 67.474373 -0.96735626
71.41423 68.229004 -0.94543666
73.414024 69.369659 -0.90340483
77.339386 71.60865 -0.85584241
86.788254 76.998192 -0.73268414
93.931999 81.072906 0
103.68831 86.637817 1.2760518
69.19677 66.972511 -0.98702401
70.091377 67.484222 -0.96804774
71.395874 68.230385 -0.94374746
73.420898 69.388687 -0.90468913
77.348145 71.63504 -0.85699558
86.786072 77.033463 -0.73311973
93.947495 81.129738 0
103.62033 86.662537 1.2747456
69.180313 66.971413 -0.98457831
70.030586 67.459129 -0.9590503
71.399582 68.244377 -0.94487429
73.405464 69.394951 -0.90383238
77.325455 71.643448 -0.85613155
86.774811 77.063568 -0.73326468
93.980957 81.196991 0
103.55685 86.689697 1.2735845
69.228134 67.007248 -0.99435794
70.069885 67.491425 -0.96597058
71.398849 68.255852 -0.94543666
73.438988 69.429344 -0.90768367
77.325172 71.664696 -0.85670757
86.768013 77.096252 -0.73355472
94.03685 81.277321 0
103.47536 86.70639 1.2718428
69.23735 67.020973 -0.99680358
70.035255 67.481216 -0.96112746
71.406914 68.272408 -0.94712585
73.423538 69.435623 -0.90682852
77.306946 71.675629 -0.85613155
86.797195 77.149727 -0.73500639
94.070038 81.344803 0
103.43439 86.746277 1.2714072
69.169502 66.990173 -0.98457831
70.087502 67.521164 -0.9701249
71.392937 68.27626 -0.94599897
73.412521 69.444435 -0.90640098
77.30661 71.696877 -0.85670757
86.772285 77.172058 -0.73471582
94.103127 81.412399 0
103.39788 86.788712 1.2711173
69.200096 67.016258 -0.99109805
70.061546 67.51593 -0.96666473
71.400955 68.292839 -0.94768816
73.428139 69.468681 -0.90854043
77.324142 71.728516 -0.85843676
86.76535 77.204781 -0.73500639
94.122581 81.47226 0
103.32086 86.807617 1.2695206
69.153725 66.997688 -0.98294997
70.005249 67.492981 -0.95835882
71.369415 68.286453 -0.94431198
73.399338 69.467171 -0.90640098
77.287971 71.729012 -0.85670757
86.780815 77.250565 -0.73602194
94.168945 81.547897 0
103.29776 86.857719 1.2696656
69.15863 67.008888 -0.98457831
70.027016 67.515396 -0.96251047
71.390564 68.310715 -0.94768816
73.392723 69.478523 -0.90640098
77.296494 71.755486 -0.85786074
86.755814 77.27285 -0.73573196
94.174683 81.600067 0
103.25216 86.894714 1.269085
69.172058 67.025101 -0.98783821
70.048759 67.53788 -0.96666473
71.35025 68.29911 -0.94318509
73.408249 69.502823 -0.90854043
77.273712 71.76371 -0.85699558
86.757706 77.310829 -0.73631251
94.2118 81.670677 0
103.21999 86.939507 1.2689401
69.095917 66.988838 -0.97398454
70.014183 67.527412 -0.96181893
71.384499 68.331131 -0.94825053
73.401596 69.514191 -0.90854043
77.268784 71.782356 -0.85728359
86.741608 77.338318 -0.73631251
94.244301 81.73877 0
103.2281 87.007912 1.2701012
69.220123 67.070168 -0.99843198
69.992615 67.524506 -0.9590503
71.405556 68.355507 -0.95162892
73.390488 69.522934 -0.90811121
77.246002 71.79052 -0.85641956
86.72995 77.368416 -0.73645747
94.290146 81.81488 0
103.22266 87.068466 1.2708267
69.156807 67.041321 -0.98702401
70.074791 67.582718 -0.97289354
71.374016 68.348961 -0.94825053
73.397079 69.542099 -0.90939552
77.25441 71.817032 -0.85757273
86.727211 77.403793 -0.73689306
94.304466 81.87262 0
103.31114 87.184479 1.2746
69.182915 67.06517 -0.99272954
70.014313 67.556854 -0.9638961
71.381882 68.365631 -0.94993973
73.390381 69.553452 -0.90939552
77.240486 71.830399 -0.85728359
86.73336 77.444473 -0.73761863
94.314194 81.927765 0
103.39492 87.298096 1.2782284
69.115425 67.033607 -0.98050427
70.031586 67.576912 -0.96735626
71.359116 68.364182 -0.94768816
73.370407 69.556938 -0.90811121
77.24437 71.854309 -0.85814875
86.752861 77.493134 -0.73877972
94.350708 81.998894 0
103.43379 87.385437 1.2804056
69.116577 67.051025 -0.98213577
70.018623 67.588913 -0.96666473
71.370369 68.394958 -0.95050204
73.374588 69.59008 -0.90982306
77.243118 71.896896 -0.85930192
86.760353 77.572037 -0.74008584
94.414413 82.136169 0
103.578 87.600433 1.2869363
69.134102 67.069885 -0.98620981
69.992737 67.583298 -0.96320194
71.360695 68.40126 -0.94993973
73.38105 69.609314 -0.91110736
77.220245 71.904922 -0.85843676
86.766235 77.612862 -0.74081141
94.428223 82.194275 0
103.60298 87.680237 1.2886779
69.096466 67.055756 -0.97969013
69.988403 67.590538 -0.96320194
71.35537 68.410149 -0.94993973
73.356651 69.610085 -0.90939552
77.166328 71.894295 -0.8555544
86.763145 77.648376 -0.74124694
94.499954 82.287231 0
103.66348 87.781525 1.2915807
69.139366 67.08992 -0.98865235
69.996964 67.60553 -0.9652791
71.358734 68.424263 -0.95106441
73.36747 69.631966 -0.91110736
77.196671 71.934189 -0.85814875
86.760002 77.683907 -0.74168253
94.504593 82.340157 0
103.71488 87.877625 1.2941929
69.0933 67.07061 -0.98050427
70.022682 67.630913 -0.9701249
71.362099 68.438408 -0.95219123
73.338676 69.630028 -0.90896797
77.187073 71.950127 -0.85814875
86.774597 77.730171 -0.74269807
94.535904 82.409256 0
103.74386 87.960472 1.2960796
69.154922 67.112007 -0.99272954
69.990417 67.616394 -0.9652791
71.359413 68.442856 -0.95219123
73.357246 69.648933 -0.91110736
77.195564 71.96611 -0.85901392
86.7752 77.749306 -0.74298865
94.555969 82.446533 0
103.81391 88.035515 1.2988374
69.104645 67.090073 -0.98376417
69.998924 67.631424 -0.96735626
71.349701 68.449112 -0.95162892
73.35041 69.66024 -0.91110736
77.168228 71.971336 -0.85786074
86.780792 77.790268 -0.74371421
94.6138 82.531952 0
103.89154 88.148193 1.3023207
69.109344 67.101364 -0.98539251
69.968788 67.623047 -0.96320194
71.352997 68.463257 -0.9527536
73.334801 69.666206 -0.91025227
77.158585 71.987244 -0.85786074
86.764114 77.817787 -0.74371421
94.644775 82.601334 0
103.95116 88.250305 1.305223
69.054939 67.076706 -0.97561604
70.024422 67.666786 -0.97289354
71.347595 68.472137 -0.9527536
73.336708 69.682816 -0.91110736
77.148926 72.003136 -0.85786074
86.742966 77.842583 -0.7435692
94.671188 82.668121 0
103.96623 88.325577 1.3066746
69.131378 67.131737 -0.99109805
69.97715 67.647919 -0.96597058
71.355209 68.48896 -0.9544428
73.329834 69.694092 -0.91110736
77.130402 72.013626 -0.85728359
86.752831 77.886292 -0.74443972
94.7108 82.743126 0
104.03439 88.433411 1.3098675
69.123375 67.135353 -0.99028385
70.002701 67.67347 -0.97081637
71.349777 68.497841 -0.9544428
73.314194 69.700012 -0.91025227
77.147194 72.045685 -0.85901392
86.722733 77.905632 -0.74400419
94.750282 82.818253 0
104.07577 88.525169 1.3121897
69.119583 67.141541 -0.99028385
69.99398 67.678101 -0.9701249
71.33567 68.501404 -0.95331597
73.34668 69.735428 -0.91410357
77.119827 72.050751 -0.85786074
86.697067 77.92765 -0.74371421
94.75415 82.871735 0
104.09039 88.600754 1.3136408
69.065262 67.116638 -0.98050427
69.989532 67.685341 -0.9701249
71.308586 68.496948 -0.95050204
73.317886 69.733261 -0.91196412
77.114487 72.069305 -0.85814875
86.697922 77.965958 -0.74429476
94.757912 82.92524 0
104.18013 88.722702 1.3175591
69.057289 67.120163 -0.97969013
70.010689 67.708374 -0.97427654
71.329102 68.52179 -0.95388043
73.319687 69.749908 -0.91281927
77.104729 72.085144 -0.85814875
86.676613 77.990646 -0.74414974
94.757164 82.976051 0
104.19447 88.798523 1.3190109
69.103966 67.157478 -0.98946971
70.001938 67.712997 -0.97358507
71.345238 68.544006 -0.9566943
73.308365 69.758461 -0.91239172
77.077354 72.090088 -0.85699558
86.659691 78.018036 -0.74414974
89.559967 79.812241 0
104.25285 88.901741 1.321913
69.116951 67.174072 -0.99272954
69.954819 67.693802 -0.96666473
71.322472 68.542168 -0.9544428
73.318855 69.780533 -0.91410357
77.080765 72.114059 -0.85786074
86.647148 78.048141 -0.74429476
89.540848 79.843117 0
108.00726 91.297928 1.4462913
69.09211 67.167191 -0.98865235
70.009995 67.738091 -0.9763537
71.316978 68.55101 -0.9544428
73.311859 69.791786 -0.91410357
77.079727 72.135323 -0.85843676
86.647812 78.086479 -0.74487531
89.486328 79.851974 0
108.03603 91.389511 1.448323
69.134422 67.202118 -0.99761778
69.992699 67.737381 -0.97427654
71.315781 68.562538 -0.95500517
73.296135 69.7976 -0.91324681
77.065498 72.148384 -0.85814875
86.639587 78.119324 -0.74516529
89.453896 79.874489 0
107.96764 91.420708 1.4471624
69.034164 67.148041 -0.97887594
69.996689 67.749947 -0.97566217
71.301651 68.565987 -0.95388043
73.306534 69.81971 -0.91495866
77.060028 72.166908 -0.85843676
86.631332 78.152191 -0.74545586
89.368515 79.863846 0
101.89816 87.699089 1.2483317
69.013603 67.143623 -0.97561604
69.941147 67.725204 -0.96735626
71.309036 68.582901 -0.95556748
73.277756 69.817322 -0.91281927
77.063301 72.190926 -0.85930192
86.6054 78.173996 -0.74516529
89.375778 79.911072 0
101.82106 87.714493 1.246735
69.051643 67.17598 -0.98376417
69.979111 67.759087 -0.97427654
71.30349 68.591728 -0.95556748
73.296806 69.844925 -0.91538787
77.022736 72.187431 -0.85728359
86.583862 78.19854 -0.74502033
89.316879 79.916794 0
101.80997 87.77124 1.2473155
69.018524 67.163628 -0.97805864
69.961823 67.758278 -0.97219938
71.319427 68.614098 -0.95838135
73.285378 69.853409 -0.91495866
77.021591 72.208679 -0.85786074
86.557907 78.220276 -0.74473029
89.27562 79.933495 0
101.74606 87.794739 1.2461544
69.056488 67.196106 -0.98620981
69.957275 67.765472 -0.97219938
71.305267 68.617508 -0.95725667
73.273964 69.861885 -0.91453111
77.020401 72.229935 -0.85843676
86.531906 78.241966 -0.74443972
89.234352 79.950127 0
101.7085 87.834778 1.2458644
69.086029 67.223381 -0.99272954
69.978165 67.788795 -0.9763537
71.295395 68.623619 -0.9566943
73.266876 69.873085 -0.91453111
77.010452 72.245659 -0.85843676
86.519073 78.271957 -0.74458474
89.193069 79.96666 0
89.420235 80.110634 0.84051067
69.102982 67.242783 -0.99680358
69.948166 67.779861 -0.97219938
71.281212 68.626968 -0.95556748
73.281433 69.898048 -0.91667056
76.991753 72.255829 -0.85786074
86.493042 78.293587 -0.74429476
89.143013 79.977562 0
89.348114 80.107895 0.83876896
69.105194 67.248512 -0.99761778
69.979744 67.805 -0.97773665
71.304146 68.647743 -0.95894587
73.25621 69.88987 -0.91453111
76.978027 72.258118 -0.85728359
86.497559 78.315552 -0.74473029
89.085052 79.962006 0
89.303299 80.100883 0.83760786
69.097099 67.252022 -0.99680358
70.000526 67.828423 -0.98189098
71.294235 68.653824 -0.95838135
73.270729 69.914856 -0.91667056
76.981125 72.282143 -0.85814875
86.510902 78.362282 -0.74574584
89.008705 79.955917 0
89.283829 80.131447 0.83760786
69.047356 67.228874 -0.98783821
69.953621 67.808624 -0.97496802
71.275772 68.654427 -0.9566943
73.25061 69.917763 -0.91538787
76.992889 72.31176 -0.85958993
86.511047 78.400673 -0.74632645
88.95871 79.966484 0
89.216171 80.131187 0.83601171
69.035141 67.229637 -0.98620981
69.940582 67.81041 -0.97358507
71.304367 68.685165 -0.96119744
73.260727 69.94001 -0.9170981
76.961075 72.313492 -0.85814875
86.467392 78.411034 -0.74545586
88.921875 79.98539 0
89.161667 80.139198 0.83485061
69.089432 67.273148 -0.99761778
69.961281 67.833862 -0.97773665
71.281601 68.682991 -0.95894587
73.262184 69.956757 -0.91795486
76.959724 72.334747 -0.85872591
86.480545 78.45784 -0.74647141
88.89817 80.01268 0
89.129036 80.161156 0.83441508
69.031471 67.244476 -0.98702401
69.918701 67.816589 -0.97150791
71.280205 68.694534 -0.95950824
73.254982 69.967949 -0.91795486
76.958336 72.356003 -0.85930192
86.493637 78.504707 -0.74748755
88.852562 80.025833 0
89.078911 80.171783 0.83339894
69.023399 67.247871 -0.98620981
69.994141 67.875504 -0.98465961
71.270264 68.700577 -0.95894587
73.247765 69.979126 -0.91795486
76.948227 72.371651 -0.85930192
86.467377 78.526237 -0.74719751
88.833183 80.055847 0
89.046272 80.193619 0.83296394
69.007019 67.245865 -0.98376417
69.888412 67.817238 -0.96804774
71.268837 68.71212 -0.95950824
73.231903 69.984703 -0.9170981
76.925079 72.378845 -0.85843676
86.471603 78.567505 -0.74792308
88.835594 80.099998 0
89.000511 80.206909 0.83209282
69.069412 67.295021 -0.99680358
69.93428 67.857162 -0.9763537
71.263138 68.720894 -0.95950824
73.259109 70.018234 -0.92052186
76.932289 72.405731 -0.85958993
86.484474 78.614471 -0.74893862
88.807388 80.124313 0
88.967834 80.228607 0.83165729
69.044724 67.287651 -0.99272954
69.963242 67.886246 -0.98189098
71.253174 68.726898 -0.95894587
73.251831 70.029419 -0.92052186
76.917793 72.418533 -0.85930192
86.440689 78.624603 -0.74806809
88.814056 80.171333 0
88.939514 80.25309 0.83136725
69.003494 67.269402 -0.98539251
69.941742 67.882469 -0.97912234
71.255959 68.741211 -0.96007055
73.231651 70.032181 -0.91923916
76.894615 72.425644 -0.85843676
86.449097 78.668762 -0.74893862
88.790146 80.198463 0
88.885048 80.260468 0.83020616
69.011948 67.283569 -0.98783821
69.907661 67.870399 -0.97427654
71.254471 68.752762 -0.96063292
73.224358 70.043327 -0.91923916
76.88443 72.441223 -0.85843676
86.409622 78.681641 -0.74821311
88.796677 80.245514 0
88.834946 80.270592 0.82919002
69.003845 67.286911 -0.98702401
69.94072 67.902321 -0.98050535
71.248726 68.76152 -0.96063292
73.225624 70.060104 -0.92009431
76.861259 72.448273 -0.85757273
86.400558 78.714417 -0.74850363
88.811829 80.298325 0
88.810928 80.297737 0.82904506
69.01226 67.301117 -0.98946971
69.923439 67.90123 -0.97843081
71.242966 68.770279 -0.96063292
73.239731 70.085365 -0.9222337
76.84671 72.460953 -0.85728359
86.3871 78.744331 -0.74864864
88.818192 80.345467 0
88.795563 80.330559 0.82919002
69.041267 67.328964 -0.99598938
69.94384 67.924965 -0.98258245
71.241447 68.78183 -0.96119744
73.223808 70.090866 -0.92137861
76.866699 72.496422 -0.85930192
86.373596 78.774231 -0.74879366
88.824493 80.392654 0
88.771477 80.357651 0.82904506
69.020752 67.324135 -0.99272954
69.888885 67.898903 -0.97427654
71.244133 68.796188 -0.96232212
73.220718 70.104843 -0.92180616
76.852112 72.509109 -0.85901392
86.381744 78.818474 -0.74966478
88.83503 80.442749 0
64 64 0
68.99202 67.313789 -0.98783821
69.905067 67.919891 -0.97773665
71.229874 68.799316 -0.96119744
73.209061 70.113144 -0.92137861
76.841827 72.524635 -0.85901392
86.35083 78.836884 -0.74922919
88.819496 80.475632 0
88.723221 80.41172 0.82875502
69.02504 67.344467 -0.99517208
69.904518 67.92981 -0.97843081
71.232521 68.813675 -0.96232212
73.201668 70.124268 -0.92137861
76.827209 72.537277 -0.85872591
86.345863 78.872513 -0.74966478
88.847221 80.537323 0
88.737984 80.464615 0.82991618
69.029228 67.356033 -0.99680358
69.899765 67.936943 -0.97843081
71.218254 68.816772 -0.96119744
73.19426 70.135376 -0.92137861
76.829781 72.561378 -0.85958993
86.340836 78.90815 -0.75009978
88.913811 80.625114 0
88.718071 80.494492 0.82991618
69.886658 67.938484 -0.97704518
71.225082 68.833961 -0.96288443
73.195366 70.152191 -0.9222337
76.815132 72.574005 -0.85930192
86.344414 78.949593 -0.75082588
88.932632 80.681252 0
88.69812 80.524353 0.82991618
68.984161 67.343391 -0.98946971
69.915222 67.967957 -0.98258245
71.215027 68.839859 -0.96232212
73.179413 70.157578 -0.92137861
76.804764 72.589478 -0.85930192
86.339264 78.98526 -0.75126088
88.934067 80.725861 0
88.68676 80.559967 0.83020616
68.930893 67.316307 -0.97969013
69.918747 67.980698 -0.98396546
71.221825 68.857086 -0.96401131
73.19326 70.182991 -0.923518
76.781494 72.596283 -0.85843676
86.303894 79.000641 -0.75068033
96.031265 85.542847 0
88.666733 80.589783 0.83020616
69.878891 67.959045 -0.97773665
71.223099 68.864288 -0.96457362
73.172485 70.177071 -0.92180616
76.776299 72.604004 -0.85843676
86.329315 79.037338 -0.75184143
95.979385 85.536026 0
88.66964 80.613396 0.83064169
69.019089 67.388855 -0.99843198
69.886581 67.974571 -0.97981381
71.204575 68.864479 -0.96288443
73.173538 70.193901 -0.92266291
76.787338 72.633919 -0.85987908
86.345581 79.08757 -0.75300258
95.970596 85.586304 0
88.649551 80.643188 0.83064169
68.953606 67.353355 -0.98620981
69.902542 67.995743 -0.98327398
71.198692 68.873177 -0.96288443
73.178787 70.213608 -0.92394561
76.75547 72.63485 -0.85843676
86.327339 79.114555 -0.75300258
96.069489 85.709534 0
88.642334 80.681702 0.83107728
68.961807 67.367661 -0.98865235
69.893562 68.000061 -0.98258245
71.201218 68.887589 -0.96401131
73.179779 70.230469 -0.92480236
76.787834 72.679314 -0.86132026
86.34346 79.164871 -0.75416368
96.034607 85.742416 0
88.630753 80.7173 0.83136725
68.986343 67.39312 -0.99435794
69.876274 67.998703 -0.98050535
71.199509 68.899139 -0.96457362
73.172241 70.241554 -0.92480236
76.743126 72.671478 -0.85901392
86.368073 79.221092 -0.75561476
96.102997 85.845535 0
88.632019 80.761665 0.83209282
69.892159 68.019943 -0.98396546
71.180984 68.899239 -0.96288443
73.151962 70.24395 -0.923518
76.732635 72.686867 -0.85901392
86.362549 79.256897 -0.75605035
96.153961 85.937103 0
88.6418 80.81192 0.83310896
68.965889 67.39679 -0.99191225
69.903862 68.038391 -0.98673409
71.208611 68.930862 -0.9673875
73.157135 70.263702 -0.92480236
76.726395 72.70517 -0.85930192
86.382698 79.31031 -0.75735646
96.200455 86.025894 0
88.634338 80.850487 0.83354449
68.965866 67.405586 -0.99272954
69.870026 68.025665 -0.98189098
71.190086 68.930962 -0.96570051
73.153786 70.277664 -0.92522991
76.724411 72.726395 -0.85987908
86.355621 79.331474 -0.75706649
96.246788 86.11483 0
88.635384 80.894936 0.83427006
68.982109 67.425591 -0.99680358
69.869293 68.035591 -0.98258245
71.179924 68.936752 -0.96513599
73.146194 70.288719 -0.92522991
76.709579 72.738823 -0.85958993
86.341354 79.361412 -0.75721145
96.305824 86.212753 0
88.627792 80.933517 0.83470505
68.957619 67.41758 -0.99272954
69.856155 68.036987 -0.9811995
71.178154 68.948318 -0.96570051
73.147034 70.305588 -0.926085
76.694763 72.751244 -0.85930192
86.34417 79.403145 -0.75793701
96.356094 86.304947 0
88.654381 80.995705 0.83630174
69.85952 68.049767 -0.98258245
71.163795 68.951202 -0.96457362
73.126755 70.307884 -0.92480236
76.679924 72.763634 -0.85901392
86.346909 79.444901 -0.75866258
96.419029 86.406174 0
103.54488 91.331146 1.342522
68.961525 67.437988 -0.99517208
69.866997 68.065414 -0.98465961
71.174515 68.971436 -0.96682519
73.119125 70.318909 -0.92480236
76.699097 72.799576 -0.86103225
86.328232 79.471893 -0.75866258
96.443268 86.480896 0
103.49474 91.367073 1.3419415
69.853836 68.066772 -0.98327398
71.168503 68.980103 -0.96682519
73.103043 70.324059 -0.92394561
76.701187 72.823761 -0.86189628
86.343666 79.522583 -0.75982368
96.471649 86.558685 0
103.43605 91.396988 1.3410709
68.92482 67.430199 -0.98946971
69.865387 68.085312 -0.98604262
71.166649 68.991661 -0.9673875
73.112244 70.346794 -0.92565745
76.68203 72.833191 -0.86132026
86.337692 79.558479 -0.76025927
96.542587 86.666321 0
103.3688 91.42086 1.3399098
69.831657 68.072296 -0.9811995
71.160614 69.00032 -0.9673875
73.100365 70.354858 -0.92522991
76.684082 72.857399 -0.86218542
86.331665 79.594391 -0.7606948
96.570648 86.744362 0
103.3058 91.447578 1.3388937
68.896255 67.42791 -0.98539251
69.880165 68.116745 -0.99019694
71.167061 69.017715 -0.96907669
73.105301 70.374687 -0.92651421
76.652168 72.85788 -0.86074311
86.363876 79.65712 -0.76243591
96.624161 86.840424 0
103.25558 91.483124 1.3383131
68.871803 67.42836 -0.98213577
69.857887 68.122276 -0.98811978
71.159065 69.037941 -0.96963906
73.081459 70.390762 -0.92565745
76.664566 72.912239 -0.86304945
86.376968 79.747002 -0.76417762
96.662514 86.985092 0
103.1338 91.539032 1.3364264
68.944389 67.48838 -0.99761778
69.844688 68.123566 -0.98673409
71.140511 69.037796 -0.96794987
73.07373 70.401726 -0.92565745
76.666473 72.936485 -0.86391461
86.391907 79.797997 -0.76533872
96.702759 87.072548 0
103.07077 91.565323 1.3354104
68.924026 67.482933 -0.99435794
69.839706 68.130623 -0.98673409
71.126129 69.040558 -0.96682519
73.078568 70.421585 -0.92694175
76.651443 72.948799 -0.8636266
86.381287 79.831055 -0.76562929
96.717346 87.142097 0
102.99925 91.58551 1.3341042
68.915787 67.486023 -0.99354374
69.842903 68.143486 -0.98811978
71.140755 69.063858 -0.96963906
73.06662 70.429581 -0.92651421
76.649055 72.970062 -0.86420262
86.391808 79.87912 -0.76664484
96.731812 87.211716 0
102.96165 91.629608 1.3339592
68.93383 67.503304 -0.99761778
69.819946 68.132492 -0.98465961
71.125259 69.059341 -0.96794987
73.066917 70.438026 -0.92694175
76.643631 72.977699 -0.86420262
86.424591 79.922737 -0.76809651
96.823875 87.306824 0
102.90683 91.626068 1.332653
68.905441 67.492065 -0.99272954
69.827202 68.148247 -0.98673409
71.127426 69.073845 -0.96907669
73.063309 70.45195 -0.9273693
76.653847 73.007965 -0.8656438
86.447662 79.97995 -0.76954764
96.867767 87.397781 0
102.84378 91.651955 1.331637
68.897179 67.49511 -0.99191225
69.826279 68.158203 -0.98742825
71.13784 69.094261 -0.97132826
73.059685 70.465881 -0.9277969
76.668221 73.04129 -0.86737412
86.457954 80.028198 -0.77056372
96.932693 87.504005 0
102.8188 91.704918 1.3319275
69.809006 68.156479 -0.98535115
71.123405 69.096962 -0.97020143
73.051865 70.476822 -0.9277969
76.636261 73.041542 -0.86593294
86.463921 80.073463 -0.77143431
96.98468 87.601318 0
102.76418 91.736679 1.3312019
68.924866 67.532867 -0.99924612
69.812126 68.169342 -0.98673409
71.113113 69.102608 -0.96963906
73.044029 70.487755 -0.9277969
76.654732 73.077904 -0.86795014
86.482483 80.127853 -0.77274042
97.023804 87.689697 0
99.795959 89.678307 1.2303349
69.827461 68.191017 -0.99019694
71.115204 69.117142 -0.97076589
73.036186 70.49868 -0.9277969
76.635368 73.087151 -0.86737412
86.454544 80.148949 -0.77245039
97.066994 87.78125 0
99.739594 89.703339 1.2294644
68.900291 67.533203 -0.99598938
69.826462 68.200989 -0.99088842
71.121368 69.134644 -0.97245294
73.040825 70.5186 -0.9290812
76.632759 73.108459 -0.86795014
86.494026 80.218613 -0.77448207
97.101547 87.866837 0
99.725372 89.758667 1.230045
68.904022 67.544907 -0.99761778
69.817314 68.205086 -0.99019694
71.123405 69.1492 -0.97357982
73.024628 70.523514 -0.92822605
76.630135 73.129776 -0.86852729
86.50811 80.270142 -0.77564317
97.127518 87.946457 0
99.647888 89.768318 1.2284483
68.883728 67.53923 -0.99435794
69.816292 68.215057 -0.99088842
71.10894 69.151833 -0.97245294
73.012566 70.531387 -0.9277969
76.631653 73.154129 -0.86939132
86.509468 80.312569 -0.77636874
97.132278 88.010895 0
99.63356 89.82357 1.2290288
69.807137 68.219131 -0.99019694
71.098602 69.15744 -0.97189063
73.029602 70.560387 -0.9303655
76.624779 73.17244 -0.86968046
86.506561 80.351974 -0.77694929
97.132721 88.072334 0
99.64859 89.900215 1.2306255
69.806091 68.229095 -0.99088842
71.108795 69.177979 -0.97414213
73.017517 70.568275 -0.92993796
76.62204 73.193771 -0.87025648
86.511993 80.397522 -0.77782041
97.141479 88.139931 0
99.764275 90.050354 1.2357049
68.834938 67.53067 -0.98702401
69.800972 68.236107 -0.99088842
71.110748 69.192566 -0.97526902
73.013718 70.582191 -0.9303655
76.615097 73.212067 -0.87054449
86.529938 80.452286 -0.77912652
97.187943 88.235199 0
99.674026 90.050644 1.2336732
68.842636 67.545273 -0.98946971
69.791809 68.240158 -0.99019694
71.092163 69.192146 -0.97357982
72.993324 70.583977 -0.9290812
76.612312 73.233414 -0.87112164
86.518417 80.485634 -0.77941656
97.284637 88.367531 0
99.726372 90.155121 1.2365755
69.798798 68.25605 -0.99227142
71.085884 69.200706 -0.97357982
73.001923 70.606987 -0.93079305
76.601143 73.24865 -0.87112164
86.523628 80.531288 -0.78028768
97.38942 88.506271 0
99.807861 90.281296 1.2404944
69.797707 68.266037 -0.99296558
71.087776 69.215286 -0.9747045
72.998062 70.620903 -0.93122059
76.581619 73.257729 -0.87054449
86.537109 80.583115 -0.78144825
97.452011 88.614456 0
98.315292 89.249664 1.1898431
69.804649 68.281967 -0.99504006
71.065109 69.211777 -0.97245294
72.985931 70.628723 -0.93079305
76.582916 73.282143 -0.87140965
86.571434 80.650452 -0.78333545
97.547897 88.747551 0
98.343307 89.334312 1.1918753
68.873123 67.603897 -0.99924612
69.791412 68.283012 -0.99365705
71.07515 69.232399 -0.9747045
72.973785 70.636528 -0.9303655
76.580017 73.303497 -0.87198681
86.522049 80.656082 -0.78231931
97.614227 88.859253 0
98.287598 89.357239 1.1910042
69.794289 68.295982 -0.99504006
71.068825 69.240944 -0.9747045
72.965759 70.647362 -0.9303655
76.593689 73.337173 -0.873716
86.526947 80.701843 -0.78318989
97.663597 88.95874 0
98.252762 89.395561 1.1908592
68.860435 67.612717 -0.99843198
69.777023 68.294006 -0.99296558
71.066574 69.252518 -0.97526902
72.982437 70.676559 -0.9329325
76.578255 73.349297 -0.87342799
86.510925 80.732162 -0.78333545
97.750381 89.086342 0
98.192856 89.415222 1.1898431
69.78389 68.309967 -0.99504006
71.047997 69.251945 -0.97357982
72.978477 70.690475 -0.93336004
76.579376 73.373756 -0.87429202
86.507347 80.771759 -0.78391546
97.790993 89.179977 0
98.149628 89.44722 1.1894081
68.831894 67.609665 -0.99435794
69.778671 68.316956 -0.99504006
71.053864 69.269585 -0.97526902
72.958061 70.692108 -0.93207735
76.555626 73.379669 -0.87342799
86.516212 80.820717 -0.78493154
97.810577 89.258163 0
98.106361 89.479126 1.1889726
69.761421 68.314919 -0.99296558
71.059685 69.287231 -0.97695601
72.974617 70.72139 -0.93464434
76.560844 73.407234 -0.87458116
86.516663 80.863487 -0.78565711
97.913338 89.398834 0
98.046432 89.498505 1.1879565
68.825348 67.618416 -0.99435794
69.778877 68.33345 -0.99642569
71.052422 69.288452 -0.9763937
72.966446 70.723732 -0.9342168
76.571709 73.427238 -0.87573433
86.510643 80.880211 -0.78580266
97.943802 89.453674 0
98.018539 89.50972 1.1875209
68.844673 67.642059 -0.99924612
69.777641 68.343437 -0.99711722
71.054161 69.303085 -0.97752053
72.950104 70.728386 -0.93336004
76.56031 73.442421 -0.87573433
86.502678 80.916763 -0.78623766
98.017029 89.572853 0
97.971085 89.538322 1.1869409
69.784416 68.359482 -0.99919438
71.035568 69.302422 -0.97583133
72.958366 70.751556 -0.93507189
76.553017 73.460701 -0.87602234
86.523735 80.97522 -0.78768933
98.015198 89.635872 0
97.93605 89.576218 1.1867954
69.755119 68.348312 -0.99504006
71.049423 69.326233 -0.97864521
72.946114 70.759285 -0.93464434
76.533318 73.46962 -0.87544519
86.490761 80.993027 -0.7872538
97.975891 89.67067 0
97.880249 89.598412 1.1859248
69.761864 68.364357 -0.99711722
71.034889 69.328621 -0.97752053
72.950218 70.779388 -0.93592864
76.554855 73.509743 -0.87775153
86.511635 81.051559 -0.78870493
97.957291 89.721138 0
97.836853 89.629913 1.1854892
69.752594 68.368279 -0.99642569
71.040581 69.346329 -0.97920758
72.950188 70.796402 -0.93678379
76.522758 73.50927 -0.87631035
86.511703 81.09446 -0.7894305
97.888885 89.733826 0
97.785172 89.655067 1.1847637
68.818649 67.668274 -0.99843198
71.013901 69.339439 -0.9763937
72.913391 70.785454 -0.93378925
76.531837 73.540054 -0.87775153
86.4869 81.1185 -0.78928548
97.832916 89.755829 0
97.73761 89.683281 1.1841831
69.746002 68.385208 -0.99711722
71.015533 69.35408 -0.97752053
72.921509 70.808678 -0.9355011
76.520302 73.555191 -0.87775153
86.495125 81.167732 -0.79030156
97.776947 89.777756 0
97.677628 89.70195 1.183167
69.756638 68.404343 -0.99988586
71.01712 69.368729 -0.97864521
72.917351 70.822571 -0.93592864
76.529282 73.586029 -0.87919271
86.515625 81.226471 -0.7917527
97.733368 89.809052 0
97.642426 89.739471 1.1830219
71.018684 69.383377 -0.97976989
72.909096 70.833344 -0.93592864
76.521805 73.604317 -0.87948185
86.503052 81.260002 -0.79204327
97.702164 89.849792 0
97.603058 89.773788 1.182732
69.734047 68.409065 -0.99780869
71.012177 69.391861 -0.97976989
72.9049 70.847229 -0.93635625
76.522484 73.628891 -0.88034588
86.482178 81.287178 -0.79204327
97.712173 89.922234 0
97.588379 89.827042 1.1833125
69.708847 68.400681 -0.99434859
71.005653 69.40033 -0.97976989
72.900681 70.861115 -0.93678379
76.510841 73.644012 -0.88034588
86.461273 81.314331 -0.79204327
97.730278 90.001068 0
97.598297 89.89933 1.1847637
68.788025 67.700089 -0.99761778
71.003159 69.411903 -0.9803344
72.888329 70.868729 -0.93635625
76.50737 73.665451 -0.88092303
86.477341 81.370056 -0.79334939
97.810043 90.127747 0
97.645096 90.000275 1.1875209
69.710098 68.423683 -0.99642569
70.988571 69.414131 -0.97920758
72.896255 70.892036 -0.93806809
76.516129 73.696396 -0.88236421
86.435799 81.381287 -0.79262382
97.868958 90.238693 0
97.728683 90.130028 1.1915848
69.720596 68.442886 -0.99919438
71.006111 69.441277 -0.98258597
72.883873 70.899635 -0.93764055
76.524826 73.727379 -0.88380539
86.46814 81.449829 -0.79451048
97.911217 90.337067 0
97.758652 90.218582 1.1937619
68.762871 67.708305 -0.99517208
69.699394 68.437469 -0.99642569
70.991501 69.443489 -0.98145908
72.899826 70.929283 -0.94020754
76.500832 73.732979 -0.88294137
86.438828 81.470566 -0.79421991
97.969711 90.448364 0
97.808945 90.323196 1.1966642
69.713799 68.459785 -0.99988586
70.980919 69.448814 -0.98089677
72.871216 70.92424 -0.93806809
76.501282 73.757614 -0.88380539
86.438179 81.513657 -0.79494548
98.007477 90.543831 0
97.842667 90.415192 1.1989864
68.773361 67.735039 -0.99924612
70.974335 69.457245 -0.98089677
72.879013 70.947609 -0.93977994
76.501709 73.78228 -0.88467056
86.384277 81.515144 -0.79378492
98.053268 90.645851 0
97.888489 90.516914 1.2017442
69.699059 68.47049 -0.99919438
70.967735 69.465668 -0.98089677
72.874649 70.961502 -0.94020754
76.473602 73.784607 -0.88351738
86.420334 81.587082 -0.7958166
98.111145 90.757645 0
97.921829 90.609146 1.2040659
69.67392 68.461853 -0.99573153
70.977104 69.486649 -0.98314828
72.874313 70.978569 -0.9410643
76.478035 73.812462 -0.88467056
86.431747 81.639854 -0.7969777
98.160614 90.86319 0
97.975441 90.717575 1.2071137
69.679115 68.471497 -0.99711722
70.981766 69.497139 -0.98427296
72.862015 70.977577 -0.94020754
76.484299 73.829605 -0.88553572
86.421082 81.653404 -0.7969777
98.213898 90.93856 0
98.057289 90.815254 1.210597
69.68158 68.484566 -0.99850023
70.975113 69.505577 -0.98427296
72.869698 71.000999 -0.94191939
76.488655 73.857498 -0.88668889
86.420128 81.696579 -0.79770327
98.254852 91.037926 0
98.126839 90.936874 1.2142254
70.964478 69.510849 -0.98371065
72.857208 71.00853 -0.94149184
76.480789 73.875793 -0.8869769
86.386505 81.713982 -0.79726774
98.324203 91.160034 0
98.15947 91.029694 1.2165476
68.736824 67.757469 -0.99680358
70.965782 69.525581 -0.98483747
72.852753 71.022415 -0.94191939
76.448586 73.874794 -0.88553572
86.422089 81.78624 -0.79929996
98.356598 91.253242 0
98.208206 91.135529 1.2194499
69.665283 68.505127 -0.99850023
70.955116 69.530823 -0.98427296
72.836235 71.026718 -0.9410643
76.46093 73.909142 -0.88726491
86.368042 81.787445 -0.79813886
98.425491 91.375725 0
98.277069 91.257706 1.2230783
69.667694 68.518234 -0.99988586
70.948425 69.539223 -0.98427296
72.839767 71.046982 -0.94234693
76.452988 73.927414 -0.88755292
86.399353 81.856567 -0.80002552
98.485985 91.49192 0
98.305069 91.347694 1.2252555
69.662231 68.525078 -0.99988586
70.945709 69.550797 -0.98483747
72.839279 71.064079 -0.94320369
76.469276 73.965057 -0.88957125
86.369637 81.877121 -0.79973495
98.546265 91.608307 0
98.349121 91.45076 1.2280127
69.648918 68.525635 -0.99850023
70.93502 69.556 -0.98427296
72.838745 71.081169 -0.94405884
76.461258 73.983353 -0.88985926
86.364243 81.917137 -0.8003155
98.565689 91.692337 0
98.388947 91.550735 1.2306255
69.635628 68.526184 -0.99711722
70.928299 69.564377 -0.98427296
72.83419 71.095062 -0.94448799
76.44516 73.995163 -0.88957125
86.366898 81.963676 -0.80118662
98.580902 91.773193 0
98.448807 91.667114 1.2339633
69.641884 68.542427 -0.99919438
70.933449 69.582306 -0.98596215
72.817612 71.099289 -0.94363123
76.441124 74.016678 -0.89014727
86.353264 81.9972 -0.80147666
98.660812 91.906342 0
98.496315 91.773895 1.236866
69.632477 68.546082 -0.99850023
70.9188 69.584297 -0.98483747
72.833 71.129295 -0.94619989
76.445114 74.044701 -0.89130044
86.355774 82.043793 -0.80234772
98.728325 92.029922 0
98.539551 91.877563 1.2396233
70.919937 69.599045 -0.98596215
72.816391 71.133499 -0.94534314
76.432968 74.059731 -0.89130044
86.305664 82.047905 -0.80133164
98.763214 92.127518 0
98.582611 91.981392 1.2423811
70.925011 69.617004 -0.98765135
72.807762 71.144142 -0.94534314
76.420799 74.074745 -0.89130044
86.316132 82.101028 -0.80249274
98.81813 92.241638 0
98.645645 92.10173 1.2458644
68.698738 67.820656 -0.99843198
70.906387 69.615753 -0.98596215
72.811081 71.164497 -0.94662744
76.432709 74.109329 -0.89303076
86.334557 82.160767 -0.80394387
98.848595 92.336227 0
98.696335 92.212418 1.2489122
70.911423 69.633728 -0.98765135
72.810371 71.181625 -0.94748253
76.432518 74.134155 -0.89389592
86.30455 82.181175 -0.80365384
98.903076 92.450653 0
98.730698 92.310135 1.2513795
69.612686 68.586388 -0.99988586
70.900673 69.638863 -0.98708904
72.801682 71.192261 -0.94748253
76.440285 74.165535 -0.8953371
86.306702 82.227837 -0.80452442
98.900925 92.519157 0
98.76889 92.41127 1.2539917
70.90564 69.656845 -0.98877609
72.796959 71.206146 -0.94791013
76.427994 74.180557 -0.8953371
86.320839 82.284416 -0.80583054
98.902672 92.590988 0
98.814941 92.519119 1.2568945
70.891953 69.673515 -0.98877609
72.775558 71.224121 -0.94748253
76.407349 74.213844 -0.89562511
86.288628 82.348213 -0.80626607
95.944305 90.29686 0
101.95958 95.248688 1.3731449
70.900764 69.694778 -0.99102759
72.778702 71.24453 -0.94876689
76.41494 74.245285 -0.8970663
86.266441 82.37513 -0.80626607
95.844261 90.279121 0
102.03 95.383835 1.3770633
70.874306 69.68692 -0.98821372
72.762024 71.248581 -0.94791013
76.414513 74.27018 -0.89793146
86.22821 82.388771 -0.80568552
95.720261 90.24128 0
102.08815 95.509262 1.3805466
70.890434 69.707275 -0.99102759
72.777428 71.270256 -0.95005119
76.404327 74.274384 -0.89764345
86.261124 82.438667 -0.80728221
95.700378 90.257111 0
102.20918 95.648285 1.3856261
70.887436 69.718842 -0.99158996
72.776527 71.287407 -0.95090628
76.403831 74.299263 -0.89850748
86.23082 82.458908 -0.80699164
95.652626 90.282104 0
102.25088 95.760826 1.3885288
70.872719 69.720665 -0.99046528
72.755875 71.288147 -0.94962198
76.391373 74.314247 -0.89850748
86.22847 82.502373 -0.8077172
95.648834 90.343628 0
102.3203 95.896782 1.3924472
70.873596 69.735474 -0.99158996
72.747063 71.298721 -0.94962198
76.382889 74.332535 -0.89879662
86.2061 82.529221 -0.8077172
95.624985 90.388535 0
102.34558 95.99633 1.3947694
69.555824 68.647293 -0.99919438
70.874466 69.750298 -0.99271679
72.742188 71.312592 -0.95005119
76.402122 74.374023 -0.90110183
86.183693 82.556038 -0.8077172
95.577103 90.413368 0
102.40256 96.122665 1.3982527
70.879196 69.768402 -0.99440598
72.737274 71.326447 -0.95047873
76.409409 74.405632 -0.90254414
86.20108 82.616226 -0.80916888
102.64412 96.404175 0
102.44336 96.235825 1.4011556
70.86055 69.766891 -0.99271679
72.744133 71.350212 -0.95219058
76.392853 74.417282 -0.902255
86.178574 82.643036 -0.80916888
102.44159 96.31353 0
102.44019 96.312347 1.4024616
70.865234 69.785004 -0.99440598
72.731323 71.357468 -0.95176303
76.392128 74.442253 -0.90312016
86.140137 82.656425 -0.80858833
106.13583 99.505844 0
106.03325 99.419395 1.5351121
70.838821 69.776894 -0.99158996
72.734184 71.377945 -0.95304573
76.367645 74.447205 -0.902255
86.149338 82.709991 -0.80974942
106.09688 99.560089 0
106.08171 99.547287 1.53845
70.851242 69.801582 -0.99440598
72.725258 71.388489 -0.95304573
76.370804 74.47551 -0.90340817
86.118774 82.730026 -0.80945891
106.2644 99.7892 0
106.1696 99.708923 1.5432395
70.820969 69.790115 -0.99102759
72.720253 71.402359 -0.95347494
76.373909 74.503838 -0.90456134
86.163475 82.813904 -0.81192613
106.26476 99.877281 0
106.19378 99.817024 1.5457066
70.825584 69.808235 -0.99271679
72.707382 71.409554 -0.95304573
76.361206 74.518784 -0.90456134
86.10511 82.810364 -0.81062001
106.37201 100.0565 0
106.28503 99.982483 1.5506412
70.822426 69.819778 -0.99327916
72.710144 71.430069 -0.95433003
76.35244 74.537079 -0.90485048
86.141678 82.88765 -0.81279725
106.41552 100.18198 0
106.35223 100.12799 1.554705
70.815384 69.828018 -0.99327916
72.708954 71.447258 -0.95518512
76.347549 74.558716 -0.9054265
86.087234 82.887375 -0.81163609
106.57747 100.4091 0
106.48626 100.33111 1.5612357
70.804482 69.832939 -0.99271679
72.696053 71.454437 -0.95475757
76.358345 74.593819 -0.90715569
86.13147 82.971542 -0.81410336
106.64409 100.55537 0
106.50546 100.43654 1.5635579
70.812851 69.854408 -0.99496835
72.702621 71.478317 -0.95646948
76.353386 74.615494 -0.90773284
86.128235 83.015198 -0.81482893
106.66699 100.66454 0
106.59541 100.60302 1.5684923
70.809616 69.865952 -0.99553066
72.685806 71.482132 -0.95561433
76.356232 74.643921 -0.90888602
86.120995 83.055496 -0.81540948
106.81982 100.88591 0
106.70076 100.78334 1.5740074
70.802521 69.874168 -0.99553066
72.6884 71.502686 -0.95689702
76.351181 74.665596 -0.90946203
86.113686 83.095795 -0.81599003
106.92886 101.07028 0
106.77428 100.9368 1.5783613
70.803116 69.889046 -0.99665755
72.698753 71.529984 -0.95903808
76.342209 74.683907 -0.90975118
86.074875 83.108894 -0.81540948
107.00211 101.22433 0
106.81607 101.06329 1.5815547
70.807495 69.907242 -0.99834454
72.678009 71.530396 -0.95775378
76.329292 74.698814 -0.90975118
86.051773 83.135559 -0.81540948
107.02392 101.33426 0
106.94394 101.26485 1.5879402
70.792694 69.908798 -0.99721986
72.665031 71.537506 -0.95732623
76.335861 74.730675 -0.91119236
86.056076 83.18605 -0.81642503
107.09658 101.48869 0
106.98514 101.39175 1.591133
70.781723 69.913666 -0.99665755
72.659782 71.551346 -0.95775378
76.315086 74.73877 -0.91061521
86.048538 83.226349 -0.81700557
107.13364 101.61257 0
107.06136 101.54955 1.5956324
70.778145 69.917763 -0.99665755
72.666824 71.566704 -0.95903808
76.324181 74.759811 -0.91176838
86.048668 83.249924 -0.81744111
107.19324 101.71051 0
107.10912 101.63707 1.5982447
70.782455 69.935982 -0.99834454
72.665398 71.583931 -0.95989317
76.315063 74.778099 -0.91205639
86.017578 83.269714 -0.81715113
109.19209 103.55196 0
109.16354 103.52698 1.6761805
70.775276 69.944168 -0.99834454
72.652374 71.591011 -0.95946562
76.317581 74.806618 -0.91320956
86.013809 83.313438 -0.8178767
109.08949 103.55849 0
109.06496 103.53697 1.6742939
70.76046 69.945648 -0.99721986
72.68174 71.635361 -0.96374446
76.308411 74.824921 -0.9134987
86.021675 83.367477 -0.8190378
109.00648 103.58201 0
108.97423 103.55363 1.6726972
70.749466 69.950455 -0.99665755
72.66481 71.639061 -0.96288937
76.31472 74.856888 -0.91493988
85.99826 83.394073 -0.8190378
108.95081 103.62947 0
108.91861 103.60109 1.6724072
70.7575 69.972069 -0.99890906
72.667107 71.659714 -0.96417207
76.328712 74.895729 -0.91695708
85.998169 83.441284 -0.81990838
108.8639 103.64929 0
108.83958 103.6278 1.6712461
70.746468 69.976845 -0.99834454
72.650162 71.663376 -0.96331692
76.3078 74.903763 -0.91638106
85.990219 83.481628 -0.82048893
108.82765 103.71384 0
108.78778 103.67851 1.6711011
70.739243 69.984993 -0.99834454
72.633232 71.667015 -0.96246183
76.290756 74.915192 -0.91609305
85.9589 83.501297 -0.82019895
108.72125 103.71613 0
108.70482 103.70153 1.6697943
70.735809 69.996521 -0.99890906
72.639282 71.691078 -0.96417207
76.285278 74.936913 -0.91666907
85.978004 83.565811 -0.82179505
108.69655 103.79089 0
108.62965 103.73134 1.6687788
70.724754 70.001266 -0.99834454
72.629982 71.701515 -0.96417207
76.275909 74.955185 -0.91695708
85.981491 83.616577 -0.82281113
108.61349 103.81367 0
108.59323 103.79561 1.6692138
70.721298 70.012787 -0.99890906
72.616852 71.708519 -0.96374446
76.285805 74.990715 -0.9186874
85.977135 83.660446 -0.82353669
108.54208 103.84674 0
