# .PCD v0.7 - Point Cloud Data file format
VERSION 0.7
FIELDS x y z
SIZE 4 4 4
TYPE F F F
COUNT 1 1 1
WIDTH 1637
HEIGHT 1
VIEWPOINT 0 0 0 1 0 0 0
POINTS 1637
DATA ascii
60.262512 80.532784 -0.94463205
58.10408 90.080612 -0.74676198
58.103764 90.082016 0
58.097256 90.110802 0.74762642
62.39748 71.068886 -0.99988586
61.450645 75.245483 -0.96117753
60.257099 80.510338 -0.94347888
58.092922 90.056778 -0.74618143
58.082253 90.103828 0
58.081482 90.107231 0.74762642
61.437057 75.242401 -0.96117753
60.230251 80.536079 -0.94520921
58.069527 90.014145 -0.74516529
58.048401 90.106812 0
58.047634 90.110184 0.7479164
62.384888 71.045425 -0.99711722
61.416595 75.26931 -0.96374446
60.213745 80.51638 -0.94434404
58.046223 89.971512 -0.74414974
58.027328 90.053947 0
58.024216 90.067513 0.74690026
61.404133 75.261185 -0.96331692
60.19495 80.50676 -0.94405603
58.023018 89.928848 -0.7431336
58.002869 90.016273 0
57.999725 90.0299 0.74602973
61.38821 75.268028 -0.96417207
60.177345 80.492058 -0.94347888
58.003426 89.870987 -0.74168253
57.976135 89.988724 0
57.980011 89.972015 0.7445786
61.37809 75.249878 -0.96288937
60.15625 80.492462 -0.94376689
57.976891 89.843483 -0.74110198
57.957733 89.925682 0
57.95689 89.929283 0.74356252
61.363327 75.251694 -0.96331692
60.132782 80.502914 -0.94463205
57.950409 89.815948 -0.74052137
57.935909 89.877823 0
57.936237 89.876434 0.7422564
61.34856 75.253494 -0.96374446
60.11166 80.503265 -0.94492006
57.922798 89.793434 -0.74008584
57.911812 89.840065 0
57.912125 89.838722 0.74138528
61.332596 75.260284 -0.96460122
60.092911 80.493523 -0.94463205
57.891636 89.786072 -0.74008584
57.892586 89.782051 0
57.892887 89.780792 0.73993415
61.328506 75.217102 -0.96117753
60.074184 80.483765 -0.94434404
59.928898 81.093781 -0.49074933
57.865059 89.75946 0
57.86776 89.748123 0.73920858
61.304195 75.258797 -0.96502882
60.04945 80.49913 -0.94549721
59.908249 81.088852 -0.49074933
57.844845 89.706474 0
57.846333 89.700256 0.73804748
61.294201 75.240547 -0.96374446
60.025883 80.509438 -0.94636238
59.896118 81.048523 -0.48973322
57.823532 89.658539 0
57.822578 89.662498 0.7371769
61.279411 75.242256 -0.96417207
60.010807 80.484512 -0.94520921
59.87796 81.033463 -0.48944321
57.801102 89.615654 0
57.798912 89.624695 0.73630577
61.267044 75.233978 -0.96374446
59.986 80.499786 -0.94636238
59.858616 81.023399 -0.48929766
57.779995 89.567688 0
57.777782 89.57679 0.73514467
61.249809 75.245636 -0.96502882
59.973442 80.464767 -0.94463205
59.842987 80.998192 -0.48871711
57.755287 89.534874 0
57.75552 89.533936 0.73412913
61.236225 75.242302 -0.96502882
59.944904 80.495056 -0.94665039
59.824928 80.983078 -0.4884271
57.73811 89.47171 0
57.734596 89.485992 0.73296803
61.231266 75.204063 -0.96203262
59.924976 80.490143 -0.94665039
59.809399 80.95784 -0.48784652
57.714825 89.433815 0
57.711288 89.44812 0.73209691
61.209064 75.235588 -0.96502882
59.9063 80.480194 -0.94636238
59.79142 80.942665 -0.48755598
57.695396 89.380722 0
57.691818 89.395119 0.73079079
61.196732 75.227234 -0.96460122
59.881378 80.495308 -0.94751555
59.775982 80.917419 -0.48697597
57.667252 89.362999 0
57.664917 89.372345 0.7303552
61.189415 75.198944 -0.96246183
59.869007 80.460205 -0.94578522
59.759342 80.897171 -0.48654041
57.650547 89.299789 0
57.648174 89.309242 0.72875911
61.170868 75.215431 -0.96417207
59.845322 80.470261 -0.94665039
59.72876 80.93235 -0.48770154
57.682358 89.044823 0
57.626499 89.266266 0.72774297
61.15984 75.202065 -0.96331692
59.825424 80.465225 -0.94665039
59.714687 80.901993 -0.48697597
57.837578 88.305618 0
57.598526 89.248489 0.72745299
61.144218 75.235184 -0.96631312
59.81675 80.457687 -0.94636238
59.683998 80.979973 -0.48929766
57.860073 88.155624 0
57.593513 89.204323 0.72629189
61.130646 75.23172 -0.96631312
59.789188 80.482681 -0.94809157
59.64933 81.030136 -0.49089432
57.839912 88.112885 0
57.575932 89.146194 0.72484022
61.109417 75.258072 -0.96888012
59.776993 80.447533 -0.94636238
59.589989 81.175865 -0.49524823
57.806896 88.120544 0
57.552013 89.113251 0.72411466
61.089405 75.279427 -0.97101951
59.755829 80.447418 -0.94665039
59.587414 81.100082 -0.49321654
64 64 0
57.534653 89.05513 0.72266352
61.083508 75.246094 -0.96845251
59.730766 80.462311 -0.94780356
59.565453 81.099762 -0.49336156
57.742092 88.130699 0
57.509605 89.027184 0.72208297
61.06086 75.277321 -0.97144705
59.708271 80.46714 -0.94837958
59.55397 81.059189 -0.49234545
57.71294 88.123123 0
57.489853 88.979088 0.72092187
61.053738 75.248932 -0.96930766
59.692303 80.446945 -0.94751555
59.528091 81.073914 -0.492926
57.67984 88.130615 0
57.467575 88.941055 0.72005129
61.033615 75.270187 -0.97144705
59.673756 80.436714 -0.94722641
59.510109 81.058456 -0.492636
57.657314 88.097778 0
57.450672 88.882874 0.71859962
62.152996 70.983032 -0.99642569
61.014748 75.286446 -0.97315896
59.65522 80.426476 -0.9469384
59.484184 81.073112 -0.49321654
57.620213 88.1203 0
57.423267 88.864899 0.71830964
61.00639 75.262985 -0.97144705
59.646004 80.381218 -0.94463205
59.464897 81.062607 -0.49307099
57.585724 88.13269 0
57.399899 88.831833 0.71758407
60.980854 75.304016 -0.97530001
59.620872 80.395935 -0.94578522
59.438919 81.077202 -0.49365157
57.565971 88.089722 0
57.384651 88.7686 0.71598738
60.973858 75.275551 -0.97315896
59.597042 80.405624 -0.94665039
59.431755 81.021492 -0.49220043
57.528778 88.112083 0
57.362808 88.730484 0.71511686
60.953548 75.296692 -0.97530001
59.578568 80.395309 -0.94636238
59.407131 81.031021 -0.492636
57.498287 88.109283 0
57.341053 88.692329 0.71424574
60.939899 75.292999 -0.97530001
59.572292 80.340012 -0.94347888
59.374325 81.070595 -0.49394211
57.474606 88.081314 0
57.313938 88.674248 0.7139557
62.103741 70.964607 -0.99573153
60.927608 75.284325 -0.9748708
59.548473 80.349632 -0.94434404
59.345512 81.09507 -0.49481267
57.441414 88.088463 0
57.296417 88.621025 0.71264958
60.916683 75.270706 -0.97401571
59.532818 80.329269 -0.94347888
57.479153 87.836197 -0.69016063
57.398579 88.130737 0
57.272156 88.592857 0.71206903
62.081596 70.979355 -0.99850023
60.893539 75.301636 -0.97701186
59.506237 80.348793 -0.94492006
57.455868 87.808258 -0.68958008
57.373566 88.107681 0
57.245201 88.574677 0.71177846
62.075836 70.967369 -0.99711722
60.886723 75.273117 -0.9748708
59.485104 80.348351 -0.94520921
57.416035 87.840408 -0.69074118
57.34444 88.099655 0
57.212746 88.576523 0.71206903
60.863495 75.303978 -0.97786701
59.462593 80.352844 -0.94578522
64 64 -0
57.308369 88.116669 0
57.17889 88.583313 0.71250403
62.054958 70.977203 -0.99919438
60.84708 75.310081 -0.97872376
59.444221 80.342369 -0.94549721
57.369606 87.784378 -0.68958008
57.279232 88.108566 0
57.146397 88.585075 0.7127946
62.056004 70.941025 -0.99434859
60.845879 75.261757 -0.9748708
59.427273 80.326881 -0.94492006
57.349285 87.746315 -0.68870896
57.247295 88.110466 0
57.105484 88.616814 0.7139557
62.047741 70.954346 -0.99642569
60.829361 75.294449 -0.97786701
59.413216 80.339066 -0.94578522
59.08498 81.508293 -0.50787497
57.229919 88.116394 0
57.090611 88.61264 0.7139557
62.055683 70.894028 -0.98811978
60.818501 75.280739 -0.97701186
59.392071 80.338486 -0.94607323
59.037033 81.597359 -0.51063216
57.202198 88.103188 0
57.046772 88.654282 0.71540684
60.799274 75.296646 -0.97872376
59.373741 80.327927 -0.94578522
59.00444 81.631348 -0.51179332
57.168819 88.109985 0
57.012737 88.660873 0.71584237
62.033535 70.908615 -0.99088842
60.794064 75.26313 -0.9761551
59.356846 80.312386 -0.94520921
58.973179 81.660294 -0.5128094
57.142548 88.09169 0
56.97868 88.667389 0.71627736
62.036224 70.867638 -0.98535115
60.783279 75.24939 -0.97530001
59.334297 80.316704 -0.94578522
58.944702 81.679184 -0.51353496
57.101994 88.123428 0
56.93745 88.69886 0.71743852
62.32663 69.825401 -0.99924612
62.022385 70.884552 -0.98811978
60.765438 75.260284 -0.97658271
59.320297 80.291168 -0.94463205
58.92334 81.673065 -0.51353496
57.045544 88.210129 0
56.903305 88.705299 0.71787405
62.32233 69.813881 -0.99761778
62.025196 70.84359 -0.98258245
60.751835 75.256363 -0.97658271
59.306355 80.265617 -0.94347888
58.904877 81.656921 -0.51324439
56.942703 88.456741 0
56.869133 88.711685 0.71830964
62.011341 70.860474 -0.98535115
60.736801 75.257378 -0.97701186
59.278061 80.289757 -0.94520921
58.886436 81.640778 -0.51295441
56.860992 88.628151 0
56.830601 88.732994 0.71918017
62.0159 70.783409 -0.97496802
60.708168 75.254379 -0.97743946
59.245972 80.253456 -0.94376689
58.925514 81.349068 -0.50482714
56.76643 88.730721 0
56.759182 88.755501 0.72034127
62.002045 70.800262 -0.97773665
60.693127 75.255318 -0.97786701
59.221962 80.262596 -0.94463205
58.894302 81.377808 -0.50584275
56.732147 88.736954 0
56.719017 88.781639 0.72135741
62.288635 69.798904 -0.99680358
61.995251 70.793037 -0.97704518
61.447376 72.649483 -0.99890906
60.683891 75.236534 -0.97658271
59.209633 80.23201 -0.94319087
58.883602 81.336754 -0.50482714
56.702263 88.728149 0
56.686142 88.782784 0.72164738
61.991322 70.776169 -0.97496802
60.671772 75.2276 -0.9761551
59.195904 80.206367 -0.9420377
58.874474 81.290695 -0.50366604
56.666473 88.739273 0
56.64291 88.818764 0.7229535
62.270397 69.808952 -0.99924612
61.990295 70.749702 -0.97150791
61.426483 72.643288 -0.99890906
60.661137 75.213745 -0.97530001
59.182232 80.180725 -0.94088453
58.855068 81.27951 -0.50352103
56.632133 88.745346 0
56.611439 88.81485 0.72309905
62.266212 69.797394 -0.99761778
61.962009 70.814575 -0.9811995
60.64465 75.219528 -0.9761551
59.158234 80.189758 -0.94174969
58.847599 81.228462 -0.50221437
56.588818 88.781303 0
56.574017 88.830795 0.72382462
61.949451 70.826508 -0.98327398
61.40707 72.632164 -0.99834454
60.62962 75.220375 -0.97658271
59.140163 80.178947 -0.94146168
58.859673 81.112732 -0.49902159
56.551392 88.797272 0
56.533558 88.856636 0.72484022
61.96294 70.751984 -0.97289354
60.611614 75.231049 -0.97786701
59.126595 80.153259 -0.94030851
58.843506 81.091576 -0.49858603
56.519932 88.793228 0
56.494518 88.877457 0.72571129
61.962063 70.725494 -0.96943074
61.32756 72.819443 -0.76817369
61.346672 72.756363 -0.50990927
58.807781 81.135078 -0.50003767
56.476395 88.829002 0
56.464466 88.86837 0.72571129
61.9627 70.694237 -0.9652791
61.375793 72.622704 -0.99834454
61.30196 72.865318 -0.77245259
61.364708 72.659142 -0.5044325
58.747746 81.258049 -0.50381106
56.447914 88.814919 0
56.422318 88.899017 0.72687244
61.945816 70.720551 -0.96943074
61.309254 72.803154 -0.76731861
61.354248 72.655952 -0.5044325
58.710182 81.306366 -0.50540769
56.40881 88.835632 0
56.387684 88.904739 0.72730744
64 64 -0
61.949471 70.67971 -0.9638961
61.354965 72.616341 -0.99834454
61.304646 72.780258 -0.76560676
61.343788 72.652748 -0.5044325
58.675552 81.344666 -0.50671381
56.368111 88.861275 0
56.349968 88.92038 0.72803354
61.942883 70.672417 -0.96320194
61.344555 72.613136 -0.99834454
61.303116 72.747551 -0.7630381
61.339432 72.629761 -0.50327933
58.653069 81.343185 -0.50685883
56.327347 88.886841 0
56.310677 88.940903 0.72890413
61.937366 70.67598 -0.9638961
61.302376 72.731216 -0.76175547
61.337269 72.618271 -0.50270331
58.642593 81.339951 -0.50685883
56.304626 88.907074 0
56.289474 88.956116 0.72948468
61.924843 70.687851 -0.96597058
61.328949 72.608307 -0.99834454
61.290306 72.732849 -0.76218301
61.329926 72.605156 -0.50212616
58.612404 81.363235 -0.50772941
56.268368 88.917648 0
56.251629 88.971596 0.73021024
61.909302 70.709282 -0.96943074
61.26907 72.76387 -0.76517755
61.32415 72.587105 -0.50126106
58.572876 81.416252 -0.50947106
56.228977 88.938095 0
56.21682 88.977104 0.73064578
61.91618 70.658875 -0.96251047
61.255409 72.77037 -0.76603431
61.329224 72.534508 -0.49837866
58.522346 81.503922 -0.51222885
56.194183 88.943588 0
56.180439 88.987518 0.73122633
61.896099 70.694649 -0.96804774
61.243279 72.771942 -0.76646185
61.315815 72.54113 -0.49895468
61.291576 72.618256 -0.25229731
56.15469 88.963928 0
56.148693 88.983002 0.73137134
64 64 -0
61.888012 70.692101 -0.96804774
61.231136 72.773499 -0.76688939
61.307049 72.532959 -0.49866667
61.290546 72.585251 -0.25142676
56.110435 88.9991 0
56.115383 88.983421 0.73166192
61.885994 70.67041 -0.9652791
61.226742 72.750565 -0.76517755
61.296741 72.529694 -0.49866667
61.280174 72.58197 -0.25142676
56.072372 89.014343 0
56.067932 89.028358 0.73325801
62.182899 69.709602 -0.98783821
61.871849 70.686974 -0.96804774
61.271229 72.574203 -0.99665755
61.211498 72.761894 -0.76646185
61.283298 72.536293 -0.49924383
61.285572 72.529144 -0.24997507
56.035839 89.02459 0
56.034542 89.028671 0.73354858
62.195564 69.646194 -0.97724444
61.857658 70.703522 -0.97081637
61.199352 72.763397 -0.76688939
61.274563 72.528061 -0.49895468
61.287922 72.486259 -0.24881396
56.618771 87.096329 0
55.997978 89.038826 0.73412913
62.196293 69.620483 -0.9731704
61.84956 70.700928 -0.97081637
61.184059 72.774681 -0.76817369
61.259518 72.539543 -0.49981984
61.282429 72.468147 -0.24837895
56.555882 87.196411 0
56.498096 87.37648 0.68565506
61.852242 70.664886 -0.96597058
61.235497 72.578751 -0.99834454
61.170303 72.781052 -0.76903045
61.255547 72.516533 -0.49866667
61.278576 72.445068 -0.2477984
56.529453 87.182449 0
56.453918 87.416855 0.68710619
62.146191 69.728981 -0.99272954
61.841095 70.671844 -0.96735626
61.225132 72.575409 -0.99834454
61.145473 72.821587 -0.77288175
61.237297 72.537811 -0.50010788
61.255573 72.481331 -0.24895951
56.501446 87.173409 0
56.433628 87.383003 0.68638062
62.159126 69.665627 -0.98213577
61.833035 70.669228 -0.96735626
61.137993 72.808357 -0.77202499
61.226982 72.53447 -0.50010788
61.259781 72.433533 -0.24765339
56.499187 87.085129 0
56.42947 87.299698 0.68420339
61.821869 70.67614 -0.96873927
61.209141 72.554199 -0.99665755
61.117794 72.83419 -0.77459365
61.219879 72.521286 -0.49953184
61.243149 72.449959 -0.24823339
55.794895 89.149277 0
55.780773 89.192566 0.74007916
62.125435 69.722229 -0.99272954
61.810677 70.683044 -0.9701249
61.192478 72.570137 -0.99890906
61.115116 72.80629 -0.77245259
61.209583 72.517921 -0.49953184
61.232941 72.446617 -0.24823339
55.770996 89.11956 0
55.755188 89.167816 0.73964417
61.832394 70.589828 -0.95697314
61.180538 72.571564 -0.99947143
60.332886 75.148552 -0.97829455
61.199295 72.514542 -0.49953184
61.216244 72.463013 -0.24881396
55.734142 89.129379 0
55.721539 89.167694 0.73993415
61.802399 70.653915 -0.96666473
61.173374 72.558487 -0.99834454
60.330681 75.110001 -0.97530001
61.190628 72.506241 -0.49924383
61.209274 72.449783 -0.24852395
55.693989 89.149033 0
55.681358 89.187271 0.74080473
62.117153 69.677856 -0.98620981
61.800678 70.63221 -0.9638961
61.16143 72.559906 -0.99890906
60.309181 75.129921 -0.97743946
61.181988 72.497917 -0.49895468
61.190891 72.471069 -0.24924952
55.663605 89.138977 0
55.647655 89.18708 0.74109524
61.791084 70.6343 -0.96458763
61.159122 72.532349 -0.99609303
60.287628 75.149803 -0.97957885
61.170082 72.499428 -0.49924383
61.179016 72.472595 -0.24939451
55.62009 89.168381 0
55.602455 89.221344 0.74240136
61.789433 70.612595 -0.96181893
61.140755 72.553017 -0.99890906
61.04406 72.84227 -0.77716064
61.156536 72.505806 -0.49981984
61.181961 72.429749 -0.24823339
55.589684 89.158234 0
55.567039 89.225967 0.74283695
61.775055 70.628944 -0.96458763
61.140125 72.520645 -0.99553066
61.015404 72.892235 -0.7818687
61.144615 72.507263 -0.50010788
61.186661 72.382004 -0.24692728
55.542725 89.197403 0
55.521683 89.260094 0.74414307
62.086578 69.678055 -0.98783821
61.757439 70.65477 -0.96873927
61.134705 72.502731 -0.99384147
60.998104 72.908081 -0.78358054
61.129383 72.518517 -0.50097299
61.191467 72.334274 -0.24562116
55.505638 89.206894 0
55.486191 89.26461 0.7445786
62.097141 69.624245 -0.97887594
61.746178 70.661575 -0.9701249
60.984055 72.914162 -0.78443563
61.104172 72.559143 -0.50356734
61.17474 72.350571 -0.24620172
55.463516 89.231117 0
55.450676 89.269058 0.74501359
62.081055 69.660522 -0.98539251
61.750206 70.636452 -0.96666473
61.106243 72.536026 -0.99834454
60.970428 72.936646 -0.78657508
61.103981 72.542709 -0.50270331
61.158012 72.383316 -0.24721783
55.443256 89.240746 0
55.418724 89.313118 0.74646527
62.080578 69.639503 -0.98213577
61.73896 70.643219 -0.96804774
61.095932 72.532516 -0.99834454
60.957977 72.937859 -0.78700429
61.078659 72.583267 -0.50529766
61.14286 72.394638 -0.24765339
55.395996 89.279655 0
55.381447 89.322411 0.74704581
61.752026 70.578766 -0.9590503
60.9505 72.924446 -0.78614753
61.064949 72.589516 -0.50587368
61.152885 72.332169 -0.24591172
55.362091 89.279099 0
55.345818 89.326721 0.74748087
62.060547 69.653534 -0.98539251
61.711514 70.670967 -0.97289354
60.944721 72.906181 -0.78486323
61.057926 72.576187 -0.50529766
61.085487 72.49585 -0.25084618
55.319725 89.303116 0
55.308475 89.335907 0.74806142
61.706726 70.658699 -0.97150791
61.069981 72.507538 -0.99665755
60.94566 72.868515 -0.7818687
61.045883 72.577507 -0.50558567
61.122604 72.354736 -0.24678227
55.278992 89.322121 0
55.262642 89.369598 0.74936754
62.061428 69.606789 -0.97805864
61.724915 70.580048 -0.9604333
61.059704 72.50399 -0.99665755
60.951725 72.816292 -0.77758819
61.037209 72.569046 -0.50529766
61.092136 72.410194 -0.24852395
55.2416 89.331245 0
55.228592 89.368858 0.74965805
62.061138 69.585762 -0.97479874
61.715317 70.582047 -0.96112746
60.15657 75.072716 -0.97701186
61.018379 72.58989 -0.50673884
61.116058 72.308479 -0.24562116
55.202465 89.345222 0
55.189426 89.382782 0.75038362
61.71397 70.560333 -0.95835882
60.151646 75.043808 -0.9748708
61.004601 72.596046 -0.50731492
61.068401 72.412949 -0.24881396
55.166706 89.349327 0
55.145081 89.411377 0.75154477
61.712673 70.53862 -0.95559019
60.146778 75.014923 -0.97273141
60.999336 72.577782 -0.50645083
61.025635 72.502609 -0.25157174
55.125774 89.368103 0
55.102371 89.435005 0.75256085
62.032707 69.602028 -0.97887594
61.67485 70.621056 -0.96804774
61.013592 72.504051 -0.99834454
60.12326 75.039337 -0.97530001
60.987259 72.579025 -0.50673884
61.041191 72.425453 -0.24939451
55.083054 89.391739 0
55.068203 89.434036 0.75285089
61.650173 70.66555 -0.97496802
60.092857 75.083054 -0.97957885
60.995815 72.521713 -0.50356734
61.07766 72.289551 -0.24547616
55.048923 89.390762 0
55.027115 89.452621 0.75372142
61.982899 69.699768 -0.99680358
61.683968 70.544464 -0.95766467
60.905014 72.745567 -0.77330935
64 64 -0
61.017368 72.428085 -0.24968506
55.013039 89.394653 0
54.987694 89.46627 0.75444752
62.010761 69.599518 -0.97969013
61.655907 70.598396 -0.96597058
60.981079 72.497971 -0.99890906
60.877266 72.790192 -0.77758819
64 64 -0
61.038498 72.336334 -0.24707283
54.968422 89.423012 0
54.943008 89.494537 0.75560868
61.977428 69.6716 -0.99272954
61.654675 70.576653 -0.96320194
60.97081 72.494316 -0.99890906
60.870094 72.776749 -0.77673304
64 64 -0
61.010975 72.381691 -0.24852395
54.944702 89.392471 0
54.905235 89.503136 0.75618863
61.641655 70.58799 -0.9652791
60.9674 72.471512 -0.99665755
60.854298 72.787468 -0.7780174
64 64 -0
61.01836 72.329155 -0.24707283
57.729458 81.516647 0
54.86742 89.511703 0.75676918
61.972092 69.643425 -0.98865235
61.655754 70.523758 -0.95628166
60.950294 72.486969 -0.99890906
60.840214 72.793312 -0.77887249
64 64 -0
60.997757 72.354881 -0.2479434
57.717094 81.484573 0
54.829575 89.52021 0.75734979
61.943474 69.701416 -0.99924612
61.64447 70.53035 -0.95766467
60.838299 72.765343 -0.77673304
64 64 -0
61.014118 72.277916 -0.24576616
57.699501 81.467186 0
54.789921 89.533569 0.75807589
61.950043 69.661758 -0.99272954
61.609253 70.602982 -0.96873927
60.822464 72.776009 -0.7780174
60.930893 72.47654 -0.50241423
60.959888 72.396454 -0.24939451
57.673092 81.474228 0
54.748463 89.551727 0.75894642
61.623554 70.538788 -0.95974183
60.806606 72.786621 -0.77930003
60.913582 72.492271 -0.50356734
60.935543 72.431854 -0.25055563
57.666199 81.427452 0
54.71405 89.550293 0.75923645
61.955002 69.605705 -0.98376417
61.632847 70.488785 -0.95282149
60.794228 72.787598 -0.77972925
60.890911 72.52256 -0.50558567
60.962757 72.325623 -0.24750784
57.646935 81.414886 0
54.670715 89.573235 0.76025254
61.922733 69.672859 -0.99598938
61.587055 70.589569 -0.96804774
60.899075 72.468391 -0.99890906
60.776558 72.802979 -0.78143948
60.882393 72.513947 -0.50529766
60.941975 72.351234 -0.24837895
57.63126 81.392548 0
54.629097 89.591232 0.76112366
61.931232 69.628571 -0.98865235
61.534096 70.709084 -0.98604262
60.758839 72.818352 -0.78315133
60.856049 72.553864 -0.50789201
60.928303 72.357285 -0.24866895
57.579723 81.467888 0
54.583843 89.618896 0.76228422
61.567669 70.593124 -0.96943074
60.87862 72.460876 -0.99890906
60.757069 72.790352 -0.78101194
60.747246 72.816971 -0.52374727
64 64 -0
57.538811 81.513817 0
54.552895 89.607498 0.76228422
61.607166 70.474014 -0.95213002
60.760654 72.76432 -0.77887249
60.713226 72.892639 -0.52835995
64 64 -0
57.539055 81.480629 0
54.524815 89.63591 0.76330036
61.574913 70.536972 -0.96181893
60.737564 72.794098 -0.7818687
60.689896 72.9226 -0.53037715
60.915722 72.313873 -0.24765339
57.487164 81.555763 0
54.486614 89.643936 0.76388091
61.905716 69.62442 -0.98946971
61.495235 70.726822 -0.99019694
60.854855 72.446632 -0.99834454
60.721573 72.804565 -0.78315133
60.691746 72.884674 -0.52835995
60.900242 72.324738 -0.24808839
57.458691 81.56739 0
54.441128 89.671379 0.76504201
61.888542 69.649658 -0.99435794
61.583714 70.465302 -0.95213002
60.725307 72.762146 -0.77972925
60.679203 72.885513 -0.52864796
60.875629 72.359924 -0.24924952
57.42107 81.603348 0
54.40102 89.684143 0.76576757
61.890572 69.602913 -0.98702401
61.492081 70.661346 -0.98189098
60.689678 72.792625 -0.78315133
60.654099 72.887131 -0.52922398
60.860931 72.337753 -0.24881396
57.382221 81.577652 0
54.348133 89.636566 0.76504201
61.868076 69.641968 -0.99435794
61.544331 70.498734 -0.95835882
60.677238 72.793434 -0.78358054
60.643364 72.883087 -0.52922398
60.869225 72.285355 -0.24736284
57.35178 81.594002 0
54.313492 89.634598 0.76533204
61.912094 69.505356 -0.9707247
61.468872 70.674034 -0.98465961
60.657513 72.813416 -0.78571999
60.625294 72.898369 -0.53037715
60.8242 72.373894 -0.25012064
57.341606 81.556747 0
54.282528 89.622871 0.76533204
61.863239 69.613708 -0.99028385
61.473309 70.638138 -0.97981381
60.646866 72.809372 -0.78571999
60.609024 72.908791 -0.53124231
60.81039 72.379753 -0.25041062
57.327805 81.529228 0
54.244179 89.630539 0.76591259
61.838821 69.657288 -0.99843198
61.517212 70.499161 -0.95974183
60.641724 72.790916 -0.78443563
60.614872 72.861206 -0.52864796
60.770596 72.453568 -0.25273287
57.327053 81.467682 0
54.200233 89.652718 0.76692867
61.865604 69.566986 -0.98294997
61.464458 70.613274 -0.97704518
60.771526 72.420593 -0.99890906
60.609047 72.844376 -0.78957129
60.609726 72.842613 -0.5277828
60.792007 72.367172 -0.25026563
57.294777 81.488754 0
54.154358 89.67968 0.76808983
61.839359 69.615143 -0.99191225
61.496109 70.507195 -0.96181893
60.768654 72.397713 -0.99665755
60.600204 72.835487 -0.78914368
60.60833 72.814369 -0.52634162
60.757641 72.426338 -0.25215229
57.284859 81.451508 0
54.110271 89.701721 0.76910591
61.450291 70.602448 -0.9763537
60.602482 72.797844 -0.78614753
60.601414 72.800606 -0.52576452
60.775547 72.349693 -0.24997507
57.235657 81.516197 0
54.011833 89.864258 0.77433038
61.825794 69.609901 -0.99191225
61.485832 70.487083 -0.95974183
60.741024 72.408836 -0.99890906
60.560314 72.875107 -0.79342258
60.590782 72.796494 -0.52576452
60.737286 72.41848 -0.25215229
57.21262 81.512863 0
53.935516 89.968468 0.77781373
61.810051 69.630318 -0.99598938
61.490723 70.451317 -0.95489866
60.544006 72.885307 -0.79470688
60.563274 72.83577 -0.52835995
60.764793 72.317665 -0.24924952
57.183914 81.524048 0
53.89473 89.980499 0.7785393
61.844597 69.521751 -0.97724444
61.470161 70.480988 -0.95974183
60.728104 72.381996 -0.99665755
60.531406 72.885902 -0.79513443
60.554485 72.826782 -0.52807087
60.756634 72.308914 -0.24910451
57.162746 81.5158 0
53.876572 89.93438 0.77752316
61.467823 70.463905 -0.95766467
60.524414 72.872154 -0.79427934
60.540047 72.832253 -0.52864796
60.727646 72.353363 -0.25055563
57.135891 81.522072 0
53.858505 89.888275 0.77650762
61.793278 69.613136 -0.99435794
61.404938 70.600937 -0.97843081
60.707859 72.374069 -0.99665755
60.494915 72.915718 -0.79855818
60.527485 72.832878 -0.52893597
60.709949 72.368752 -0.25113618
57.105202 81.537979 0
53.838646 89.84697 0.77563649
61.833664 69.490921 -0.9731704
61.452209 70.457764 -0.95766467
60.484146 72.911476 -0.79855818
58.789288 77.207359 -0.79126823
60.667419 72.446945 -0.25360343
57.0821 81.534492 0
52.741318 92.53688 0.85676515
61.816116 69.515862 -0.97805864
61.448101 70.445358 -0.95628166
60.471493 72.911995 -0.79898572
58.777138 77.191444 -0.79069221
60.682083 72.380104 -0.25171673
57.055176 81.540627 0
52.712578 92.508774 0.85633016
61.765644 69.623474 -0.99761778
61.375473 70.605461 -0.98050535
60.443668 72.950661 -0.80283701
58.763111 77.180321 -0.7904042
60.623985 72.496826 -0.25534508
57.014763 81.580597 0
52.662788 92.533752 0.85749125
61.813774 69.483032 -0.9731704
61.425098 70.457817 -0.9590503
60.42144 72.974976 -0.80540562
58.752937 77.159569 -0.78953904
64 64 -0
56.980038 81.60598 0
55.840607 84.463654 0.61526591
61.766754 69.581345 -0.99109805
61.415436 70.459358 -0.95974183
60.391529 73.018303 -0.80968451
60.541439 72.643654 -0.51884657
60.651726 72.368019 -0.25171673
56.981972 81.53949 0
55.815887 84.453781 0.61526591
61.754482 69.592407 -0.99354374
61.411369 70.44693 -0.95835882
60.645344 72.354691 -0.99721986
60.36916 73.042519 -0.81225145
60.507866 72.697075 -0.52230608
60.60289 72.460426 -0.25461954
56.953026 81.550323 0
55.804733 84.41011 0.61424977
61.769554 69.545181 -0.98539251
61.42807 70.39415 -0.95074439
60.640297 72.352661 -0.99721986
60.356033 73.059372 -0.81396335
60.462078 72.795738 -0.52835995
60.607475 72.434265 -0.25389397
56.942425 81.546059 0
55.790466 84.409973 0.61439478
61.425983 70.377075 -0.94866723
60.630207 72.348595 -0.99721986
60.333557 73.083542 -0.81653196
60.391434 72.940155 -0.53729618
64 64 -0
56.944599 81.479614 0
55.781364 84.361504 0.61323422
61.763577 69.521461 -0.98213577
61.40321 70.411163 -0.9542045
60.620121 72.344521 -0.99721986
60.322586 73.079102 -0.81653196
60.400051 72.887848 -0.53441381
64 64 -0
64 64 0
55.768478 84.322647 0.6123631
61.751328 69.532486 -0.98457831
61.406799 70.380142 -0.95005286
60.298084 73.107948 -0.81952816
60.397106 72.864319 -0.53326064
60.576923 72.421913 -0.25389397
64 64 0
55.753712 84.28862 0.61163753
61.720379 69.589264 -0.99517208
61.389618 70.40023 -0.95351303
60.607643 72.317505 -0.99496835
60.306473 73.055923 -0.81524765
60.405937 72.812057 -0.53037715
64 64 -0
56.841976 81.550301 0
55.729202 84.278641 0.61163753
61.754814 69.485863 -0.97724444
61.341976 70.494583 -0.96804774
60.589897 72.332214 -0.99721986
60.285812 73.075211 -0.8173871
60.424679 72.735909 -0.52605361
60.544773 72.442467 -0.25476453
56.885834 81.382675 0
55.724388 84.220551 0.6101864
61.716267 69.560875 -0.99109805
61.35891 70.43103 -0.9590503
60.276798 73.065964 -0.8169595
60.439671 72.66938 -0.52230608
60.587875 72.308502 -0.25084618
56.825291 81.470367 0
55.701942 84.205711 0.61004084
61.379818 70.358246 -0.94866723
60.565903 72.333336 -0.99834454
60.259975 73.075706 -0.81824386
60.431175 72.660271 -0.522017
60.484779 72.53019 -0.25766733
56.770473 81.543488 0
55.675545 84.200485 0.6101864
61.702835 69.555344 -0.99109805
61.337624 70.438545 -0.96112746
60.266666 73.028488 -0.81439257
60.426636 72.641624 -0.52115291
60.528095 72.396263 -0.25374842
64 64 0
55.678947 84.123169 0.60815418
61.705593 69.529739 -0.98702401
61.308697 70.48629 -0.96873927
60.273468 72.981293 -0.81054127
60.420166 72.627739 -0.52057576
60.496044 72.44487 -0.25534508
55.625046 84.184425 0
55.662605 84.093903 0.60757363
61.689415 69.549774 -0.99109805
61.322071 70.432091 -0.96112746
60.54353 72.302063 -0.99609303
60.288277 72.915154 -0.80497646
60.413715 72.613861 -0.51999974
60.46587 72.488594 -0.25679621
58.163273 78.01918 0
55.648319 84.05983 0.60684806
61.665565 69.58802 -0.99843198
61.283363 70.502914 -0.97219938
60.531536 72.302589 -0.99665755
60.273544 72.920143 -0.80583322
60.395336 72.628616 -0.52115291
60.46563 72.46035 -0.25607064
58.048027 78.247452 0
55.62809 84.040138 0.60655808
61.689388 69.512253 -0.98539251
61.285202 70.476494 -0.96873927
60.513649 72.317139 -0.99890906
60.27071 72.896698 -0.80412132
60.398911 72.590851 -0.51913458
60.507641 72.331467 -0.25229731
58.028805 78.245041 0
55.617947 83.99646 0.60554194
61.673141 69.532257 -0.98946971
61.312393 70.389961 -0.95628166
60.505577 72.30822 -0.99834454
60.228115 72.967903 -0.81096882
60.342411 72.696159 -0.52576452
64 64 -0
58.029758 78.194641 0
55.597816 83.976746 0.60525197
61.687603 69.47934 -0.98050427
61.312477 70.368225 -0.95351303
60.499489 72.29464 -0.99721986
60.205307 72.991714 -0.81353581
60.271564 72.834717 -0.53441381
60.443069 72.428329 -0.25549009
58.012611 78.187416 0
55.589851 83.928268 0.60409087
61.663639 69.517502 -0.98783821
61.30674 70.360352 -0.95282149
60.200455 72.972931 -0.81225145
60.293163 72.75399 -0.52980113
60.418701 72.457527 -0.2565062
64 64 0
55.565777 83.918091 0.60409087
61.685963 69.446449 -0.97561604
61.246086 70.481766 -0.97150791
60.475483 72.295502 -0.99834454
60.177563 72.996696 -0.81482011
60.248203 72.830437 -0.53470182
60.412552 72.443619 -0.25621566
57.996658 78.129799 0
55.564072 83.85527 0.60249418
61.632866 69.552765 -0.99517208
61.27367 70.395363 -0.9590503
60.475426 72.267868 -0.99553066
60.164684 72.996788 -0.81524765
60.225368 72.854439 -0.53643101
64 64 -0
64 64 0
55.538052 83.849838 0.6026392
61.65337 69.486282 -0.98376417
61.254108 70.419731 -0.96320194
60.465439 72.263603 -0.99553066
60.147758 73.006317 -0.81653196
60.200432 72.883171 -0.53844935
64 64 -0
57.991192 78.048241 0
55.526329 83.810944 0.60176861
61.636997 69.506149 -0.98783821
61.260201 70.384148 -0.95835882
60.445435 72.282669 -0.99834454
60.136879 73.001656 -0.81653196
60.18766 72.883324 -0.53873736
64 64 -0
57.970112 78.050545 0
55.512646 83.77681 0.60104305
61.626434 69.512375 -0.98946971
61.23661 70.417702 -0.9638961
60.433414 72.283051 -0.99890906
60.152397 72.935684 -0.81096882
60.162605 72.911972 -0.54075569
64 64 -0
57.959316 78.0289 0
55.494923 83.75222 0.60060751
61.621147 69.51548 -0.99028385
61.224785 70.434464 -0.96666473
60.428413 72.280891 -0.99890906
60.155132 72.914497 -0.80925691
60.112156 73.014145 -0.54709756
64 64 -0
57.959087 78.006134 0
55.489166 83.732758 0.60017192
61.618416 69.503517 -0.98865235
61.258858 70.334404 -0.95213002
60.432537 72.243919 -0.99496835
59.39201 74.648438 -0.96716821
60.033474 73.1661 -0.55661094
64 64 -0
57.952503 77.974945 0
55.477711 83.693848 0.5993014
61.617668 69.487045 -0.98620981
61.251205 70.331085 -0.95213002
60.420559 72.244263 -0.99553066
59.366875 74.671127 -0.96973687
59.989437 73.237221 -0.56122363
64 64 -0
57.948055 77.938988 0
55.455986 83.678772 0.59915638
61.605122 69.497749 -0.98865235
61.219521 70.382942 -0.9604333
60.426834 72.20266 -0.99102759
59.366291 74.637268 -0.96716821
59.957626 73.279785 -0.56410599
64 64 -0
57.929138 77.936432 0
55.450901 83.625542 0.59784973
61.588577 69.517509 -0.99272954
61.185692 70.439346 -0.96943074
60.414894 72.202988 -0.99158996
59.351387 74.63636 -0.96759576
59.981628 73.194321 -0.55920529
64 64 -0
57.931061 77.886169 0
55.425106 83.619972 0.59799528
61.589851 69.496483 -0.98946971
61.200069 70.385406 -0.96181893
60.400898 72.207962 -0.99271679
59.344719 74.616646 -0.96631312
59.993378 73.137344 -0.55603379
64 64 -0
57.895477 77.921722 0
55.416016 83.576279 0.59697914
61.621037 69.407593 -0.97398454
61.236805 70.280983 -0.94659275
60.413494 72.152435 -0.98652452
59.344303 74.582809 -0.96374446
60.019829 73.047272 -0.55084509
64 64 -0
57.889137 77.890518 0
55.413292 83.518333 0.59552807
61.568592 69.508728 -0.99272954
61.188702 70.369431 -0.9604333
60.440578 72.064423 -0.9763937
59.310783 74.624153 -0.96802497
60.021431 73.014069 -0.5491159
64 64 -0
57.880768 77.864075 0
55.370831 83.550728 0.59683418
61.575951 69.474144 -0.98702401
61.211475 70.297226 -0.95005286
60.46376 71.985771 -0.9673875
59.304188 74.604393 -0.96674067
60.018921 72.990334 -0.54796273
64 64 -0
57.872448 77.837639 0
55.374565 83.478516 0.59494746
61.587399 69.430557 -0.97969013
61.218132 70.261749 -0.94520706
60.491245 71.897903 -0.95725667
59.293461 74.594025 -0.96631312
60.041664 72.909882 -0.54335004
64 64 -0
57.866306 77.806427 0
55.367916 83.430084 0.59378636
61.540592 69.517944 -0.99598938
61.175842 70.336288 -0.95697314
60.529282 71.786919 -0.94431198
59.272301 74.607086 -0.96802497
60.03722 72.890915 -0.54248488
64 64 -0
57.864452 77.765739 0
55.365604 83.372162 0.59233469
61.564194 69.447273 -0.98376417
61.174328 70.319145 -0.95489866
60.571735 71.666748 -0.93024039
59.274162 74.56855 -0.96502882
60.062374 72.80584 -0.53758419
64 64 -0
57.839325 77.777321 0
55.335838 83.375954 0.59277022
61.559635 69.439819 -0.98294997
61.191341 70.260788 -0.94659275
60.599918 71.579132 -0.92010736
59.261395 74.562836 -0.96502882
60.075024 72.749176 -0.53441381
64 64 -0
57.814163 77.788864 0
55.318817 83.351242 0.59233469
61.58147 69.373749 -0.9715389
61.161133 70.307709 -0.9542045
60.6283 71.491608 -0.90997654
59.25074 74.552422 -0.96460122
60.055962 72.76329 -0.53556699
64 64 -0
57.808186 77.757652 0
55.295441 83.340744 0.59233469
61.534294 69.46093 -0.98783821
61.17622 70.253983 -0.94659275
60.644344 71.431953 -0.90322191
59.233772 74.556023 -0.96545637
60.026218 72.800949 -0.53816134
64 64 -0
57.780857 77.773872 0
55.291321 83.287582 0.59102857
61.515457 69.48497 -0.99272954
61.168663 70.250565 -0.94659275
60.639557 71.41864 -0.90209723
59.216778 74.559624 -0.96631312
60.024124 72.77729 -0.53700817
64 64 -0
57.75563 77.785316 0
55.280884 83.248657 0.59015805
61.559956 69.369461 -0.9723562
61.156967 70.256271 -0.9479757
60.632694 71.409958 -0.90153486
59.225269 74.50708 -0.96203262
60.004963 72.791321 -0.53816134
64 64 -0
57.741135 77.77301 0
55.264084 83.223907 0.58972245
61.543221 69.388992 -0.97643024
61.147327 70.257385 -0.94866723
60.63007 71.392006 -0.89984566
59.195538 74.538681 -0.96545637
59.987911 72.800591 -0.53902537
64 64 -0
57.702904 77.812805 0
55.249485 83.19442 0.58914191
61.559326 69.336571 -0.96746486
61.127243 70.281326 -0.95282149
60.63805 71.350952 -0.89534259
59.189217 74.518852 -0.96417207
59.975124 72.800461 -0.53931451
64 64 -0
57.7057 77.762589 0
55.228458 83.179108 0.58899689
61.530205 69.383041 -0.97643024
61.140587 70.232239 -0.94589859
60.618576 71.36998 -0.89815646
59.187214 74.489708 -0.96203262
59.988224 72.743866 -0.536143
64 64 -0
57.667374 77.802269 0
55.216125 83.144882 0.58827132
61.509232 69.411491 -0.98213577
61.116272 70.265236 -0.95143586
60.599052 71.388962 -0.90097034
59.174541 74.483887 -0.96203262
59.975502 72.743706 -0.53643101
64 64 -0
57.655048 77.785164 0
55.20821 83.101212 0.58725524
61.504772 69.403976 -0.98131847
61.125534 70.225304 -0.94589859
60.611427 71.338722 -0.89534259
59.14896 74.50602 -0.96460122
59.956264 72.757622 -0.53758419
64 64 -0
57.634037 77.786926 0
55.187313 83.085861 0.58711022
61.508633 69.378532 -0.97724444
61.088486 70.285576 -0.95559019
60.589748 71.362282 -0.89871883
59.136269 74.500153 -0.96460122
59.915249 72.818436 -0.54161978
64 64 -0
57.613003 77.788681 0
55.166443 83.07048 0.5869652
61.519741 69.329201 -0.96909636
61.09827 70.234795 -0.94866723
60.587132 71.333054 -0.89590496
59.132412 74.458733 -0.96160507
59.907997 72.792274 -0.54046768
64 64 -0
59.935688 72.73278 0
55.156013 83.002609 0.58536857
61.530033 69.290367 -0.96257663
61.10984 70.190369 -0.94243842
60.571819 71.342743 -0.89759415
59.115429 74.462158 -0.96246183
59.895187 72.792007 -0.54075569
64 64 -0
59.993401 72.58165 0
55.137451 82.982498 0.58507854
61.467041 69.408234 -0.98457831
61.072567 70.250496 -0.95213002
60.578041 71.306374 -0.89365339
59.104977 74.451584 -0.96203262
59.877995 72.801079 -0.54161978
64 64 -0
59.983032 72.576805 0
55.123341 82.952957 0.58449799
61.485733 69.351479 -0.97479874
61.060753 70.256027 -0.95351303
60.554085 71.334435 -0.89759415
59.101082 74.427078 -0.96032077
59.816765 72.903786 -0.54825073
64 64 -0
59.963821 72.59079 0
55.091606 82.961029 0.58507854
61.456085 69.397629 -0.98376417
61.070309 70.216156 -0.9479757
60.553894 71.311882 -0.89534259
59.077538 74.444382 -0.96246183
59.836884 72.833221 -0.5442152
64 64 -0
59.966751 72.557663 0
55.082001 82.922035 0.58420742
61.472805 69.34539 -0.97479874
61.049927 70.239838 -0.95213002
60.551579 71.293922 -0.89365339
59.075901 74.415207 -0.96032077
59.835056 72.809479 -0.54306203
64 64 -0
59.951969 72.562187 0
55.056923 82.915939 0.58435243
61.453636 69.369141 -0.97969013
61.046696 70.227196 -0.95074439
60.536232 71.303535 -0.89534259
59.078712 74.376785 -0.95732623
59.842148 72.767044 -0.54075569
64 64 -0
59.948311 72.54319 0
55.016258 82.942688 0.58551353
61.479008 69.299095 -0.96746486
61.015461 70.273468 -0.95835882
60.529591 71.294754 -0.89478028
59.070595 74.361557 -0.95646948
59.836006 72.752663 -0.54017854
64 64 -0
59.942467 72.528885 0
54.991135 82.936523 0.58565909
61.474731 69.291588 -0.96665066
61.057587 70.165703 -0.94243842
60.529533 71.272217 -0.89252871
59.690453 73.030472 -0.83407819
59.785324 72.831673 -0.54536837
64 64 -0
59.929928 72.528664 0
54.961555 82.939682 0.58609408
61.449135 69.328659 -0.97398454
61.037136 70.189301 -0.94659275
60.53392 71.240501 -0.88915032
59.699501 72.983566 -0.83022529
59.747864 72.882545 -0.54882681
59.733604 72.912331 -0.27595407
64 64 0
54.95887 82.886566 0.58478802
61.44912 69.312202 -0.9715389
61.025322 70.194756 -0.9479757
60.511971 71.263802 -0.89252871
59.704201 72.945984 -0.82723075
59.737133 72.877403 -0.54882681
59.758831 72.832214 -0.27363184
64 64 0
54.911308 82.927162 0.58638465
61.431969 69.331398 -0.97561604
61.030899 70.164047 -0.94382405
60.498791 71.26873 -0.89365339
59.700081 72.926903 -0.82594645
59.72641 72.872246 -0.54882681
59.775227 72.770897 -0.27189016
59.921623 72.466972 0
54.906487 82.878708 0.58522356
61.419083 69.341629 -0.97805864
61.023453 70.160454 -0.94382405
60.503269 71.237053 -0.89027715
59.678131 72.944809 -0.82808584
59.729191 72.839134 -0.54709756
59.746544 72.803223 -0.27305126
59.979321 72.321449 0
64 64 0
61.397537 69.369644 -0.98376417
61.000698 70.188446 -0.94866723
60.492313 71.237389 -0.89083952
59.665089 72.944199 -0.82851338
59.668884 72.936371 -0.55343944
59.744976 72.779366 -0.27247071
59.89209 72.47583 0
64 64 0
61.419147 69.308708 -0.9731704
61.015156 70.139702 -0.94174695
60.476906 71.246864 -0.89252871
59.654285 72.93895 -0.82851338
59.572147 73.10791 -0.564394
59.713924 72.816277 -0.27377683
59.884125 72.466179 0
64 64 0
61.427902 69.274483 -0.96746486
60.994549 70.163139 -0.94589859
60.468151 71.242599 -0.89252871
59.641232 72.938324 -0.8289426
59.565674 73.093262 -0.56381798
59.737434 72.741043 -0.27160016
59.851089 72.507973 0
64 64 0
61.423702 69.266937 -0.96665066
61.01355 70.105431 -0.93759531
60.466103 71.224625 -0.89083952
59.650734 72.891548 -0.8250913
59.575146 73.046082 -0.56122363
59.69035 72.810562 -0.27392182
59.865974 72.451523 0
59.841152 72.502258 0.26433676
61.365082 69.370323 -0.98620981
60.97303 70.169373 -0.9479757
60.452896 71.229485 -0.89196634
58.941231 74.310463 -0.95732623
59.536884 73.096436 -0.56468201
59.700306 72.763359 -0.2726157
59.855762 72.446518 0
59.817154 72.525215 0.26520732
61.402248 69.278435 -0.9699105
60.978867 70.13871 -0.94382405
60.450897 71.21151 -0.89027715
58.95145 74.25827 -0.95304573
59.53046 73.081764 -0.56410599
59.666771 72.804794 -0.27406737
59.840958 72.450851 0
59.781609 72.571449 0.26680401
61.413376 69.23983 -0.96339083
60.964798 70.148544 -0.94589859
60.426437 71.23912 -0.89421791
58.907238 74.31662 -0.95903808
59.47599 73.164474 -0.5695827
59.683739 72.743637 -0.27232572
59.853786 72.399155 0
59.752853 72.603622 0.26796511
61.409241 69.232277 -0.96257663
60.961819 70.135887 -0.94451559
60.422207 71.225677 -0.89309108
58.908447 74.282845 -0.95646948
59.492455 73.103394 -0.56612432
59.659344 72.766342 -0.27319628
59.857502 72.36615 0
59.76321 72.55658 0.26665899
61.363346 69.308823 -0.97724444
60.954407 70.13221 -0.94451559
60.42252 71.203148 -0.89083952
58.891457 74.285896 -0.95732623
59.458454 73.144264 -0.56900668
59.637199 72.784363 -0.27392182
59.870544 72.314529 0
59.778305 72.500244 0.26506233
61.373344 69.280685 -0.9723562
60.946236 70.139343 -0.94589859
60.418167 71.200981 -0.89083952
59.916412 72.209717 -0.7643224
59.475964 73.095207 -0.56612432
59.68512 72.674721 -0.27058405
59.853935 72.335327 0
59.782429 72.47908 0.26448175
61.353729 69.304031 -0.97724444
60.958981 70.095245 -0.93966979
60.411736 71.192108 -0.89027715
59.826283 72.365555 -0.77930003
59.448818 73.122124 -0.56814152
59.663044 72.692749 -0.27130958
59.846188 72.325661 0
64 64 0
61.376076 69.24337 -0.96665066
60.958347 70.078117 -0.93759531
60.414417 71.165047 -0.88746327
59.823063 72.346748 -0.7780174
59.426228 73.13974 -0.5695827
59.647888 72.6968 -0.27160016
59.843121 72.306664 0
64 64 0
61.320961 69.337379 -0.98457831
60.946507 70.083397 -0.93897825
60.385246 71.201584 -0.89252871
59.806076 72.355446 -0.77930003
59.44767 73.069496 -0.56554717
59.646706 72.672958 -0.27101961
59.82608 72.315598 0
59.765705 72.435883 0.2636112
61.383415 69.197281 -0.95931673
60.932388 70.093155 -0.94105542
60.383408 71.183586 -0.89083952
59.79829 72.345795 -0.77887249
59.476257 72.985443 -0.56064647
59.699329 72.542358 -0.26710069
59.790295 72.361671 0
59.757858 72.426102 0.26346564
61.361538 69.225006 -0.96502227
60.931816 70.076004 -0.93897825
60.374729 71.179214 -0.89083952
59.785896 72.345291 -0.77930003
59.593643 72.726013 -0.54479122
59.70306 72.509331 -0.26623014
59.777843 72.361237 0
59.759392 72.397781 0.26274011
61.3396 69.25267 -0.9707247
60.91087 70.099159 -0.94313258
60.37524 71.156693 -0.88858795
59.771172 72.349358 -0.78015679
59.704636 72.480728 -0.52980113
59.711567 72.467041 -0.26506901
59.751286 72.388626 0
59.75864 72.374107 0.26215953
61.339966 69.236244 -0.96828216
60.91032 70.081993 -0.94105542
60.371197 71.143257 -0.88746327
59.775043 72.316772 -0.77758819
59.743591 72.378685 -0.52374727
59.717819 72.42942 -0.2640529
59.769444 72.327797 0
59.739109 72.387512 0.26274011
61.344868 69.210991 -0.96420497
60.905251 70.073792 -0.94036394
60.36026 71.143387 -0.88802564
59.762661 72.316246 -0.7780174
59.740517 72.359711 -0.5228821
59.717075 72.405716 -0.26347235
59.752293 72.336594 0
59.740772 72.359207 0.26201454
61.313828 69.256203 -0.9731704
60.907047 70.052177 -0.93759531
60.363194 71.116364 -0.88521177
59.745613 72.324821 -0.77930003
64 64 -0
59.716381 72.382027 -0.2628918
59.742222 72.331459 0
59.730675 72.35405 0.26201454
61.352573 69.16497 -0.95687109
60.88372 70.079674 -0.94243842
60.359238 71.102913 -0.88408488
59.730869 72.328827 -0.78015679
64 64 -0
59.696774 72.39534 -0.26347235
59.744026 72.303154 0
59.725319 72.339645 0.26172453
61.319214 69.214523 -0.96665066
60.89473 70.040207 -0.93690115
60.339043 71.121101 -0.88689876
59.739586 72.287132 -0.77673304
64 64 -0
59.68663 72.390137 -0.26347235
59.726856 72.311897 0
59.720001 72.325226 0.26143399
61.319714 69.198097 -0.96420497
60.850643 70.107803 -0.9479757
60.330441 71.116669 -0.88689876
59.717815 72.304787 -0.77887249
59.728611 72.283852 -0.51942259
59.683636 72.371071 -0.26303735
59.707275 72.325226 0
59.721851 72.296959 0.26070842
61.290722 69.23877 -0.9723562
60.887051 70.019325 -0.93482661
60.326508 71.10321 -0.88577408
59.691273 72.331535 -0.7818687
59.728111 72.2603 -0.51826948
59.683075 72.347389 -0.26245677
59.706783 72.301544 0
59.69751 72.319466 0.26157898
61.327641 69.152115 -0.95687109
60.877472 70.020012 -0.93551815
60.310905 71.112305 -0.88746327
59.70248 72.285309 -0.7780174
59.708603 72.273506 -0.51942259
59.696922 72.296021 -0.2610051
59.701553 72.287102 0
59.687462 72.314262 0.26157898
61.307724 69.175201 -0.96176243
60.888725 69.980621 -0.92998081
60.314049 71.085289 -0.88464725
59.673527 72.316528 -0.78143948
59.700996 72.263725 -0.51913458
59.660519 72.341537 -0.26260179
59.684334 72.295761 0
59.687012 72.290604 0.26099843
61.301472 69.171951 -0.96176243
60.855968 70.025795 -0.93759531
60.307838 71.076332 -0.88408488
59.65398 72.329506 -0.78315133
59.691013 72.25853 -0.51913458
59.65044 72.336288 -0.26260179
59.657455 72.322845 0
59.681801 72.276184 0.26070842
61.258564 69.238747 -0.97479874
60.883587 69.955307 -0.92721218
60.296936 71.076363 -0.88464725
59.636776 72.337898 -0.78443563
59.685829 72.244156 -0.51855856
59.652416 72.308006 -0.26187623
59.702911 72.211517 0
59.666992 72.280159 0.26099843
61.261425 69.217918 -0.9715389
60.853081 69.995956 -0.93413246
60.288391 71.071884 -0.88464725
59.655334 72.278069 -0.77930003
59.675873 72.238937 -0.51855856
59.627895 72.330353 -0.26274678
59.697826 72.197113 0
59.661816 72.265724 0.26070842
61.245911 69.232101 -0.97479874
60.859856 69.965515 -0.92998081
60.277473 71.071899 -0.88521177
59.645336 72.272812 -0.77930003
59.656281 72.252014 -0.51971173
59.615414 72.329651 -0.2628918
59.683079 72.201111 0
59.64941 72.265068 0.26085341
61.260361 69.18943 -0.96746486
60.833908 69.997215 -0.93551815
60.268932 71.067398 -0.88521177
58.590336 74.247002 -0.96588391
59.648735 72.242172 -0.51942259
59.602921 72.328957 -0.26303735
59.673172 72.195885 0
59.644276 72.250626 0.26056343
61.274906 69.146805 -0.96013093
60.836056 69.975647 -0.93274951
60.260395 71.062881 -0.88521177
58.635609 74.131577 -0.95561433
59.629097 72.255196 -0.52057576
59.609886 72.291489 -0.26202121
59.651096 72.213646 0
59.634308 72.245354 0.26056343
61.239384 69.206291 -0.9715389
60.811295 70.013626 -0.93897825
60.25375 71.065109 -0.88577408
58.62468 74.137398 -0.95646948
59.626534 72.247986 -0.52028775
59.582966 72.330147 -0.26332733
59.660763 72.183434 0
59.64394 72.215157 0.25969231
61.265583 69.141861 -0.96013093
60.804031 70.009773 -0.93897825
60.247601 71.056099 -0.88521177
58.602795 74.149025 -0.95818132
59.614143 72.247261 -0.52057576
59.582664 72.30645 -0.26274678
59.631325 72.214951 0
59.631569 72.214493 0.25983787
61.247742 69.160355 -0.96420497
60.829823 69.943932 -0.92928934
60.246254 71.038101 -0.88352257
58.61953 74.088135 -0.95304573
59.582275 72.283035 -0.52317017
59.575073 72.296524 -0.26260179
59.63855 72.177513 0
59.61676 72.218369 0.26012787
61.269489 69.104721 -0.95442539
60.829746 69.926819 -0.92721218
60.23056 71.047005 -0.88521177
58.600075 74.095215 -0.95433003
59.54055 72.336983 -0.5269177
59.577309 72.268265 -0.26187623
59.626221 72.176826 0
59.609283 72.208488 0.25998285
61.230602 69.162407 -0.96583647
60.784637 69.993729 -0.93828678
60.224457 71.037956 -0.88464725
58.578171 74.106781 -0.95604187
59.413101 72.550392 -0.54075569
59.545212 72.304131 -0.26318234
59.601578 72.199059 0
59.604286 72.194008 0.25969231
61.207977 69.189514 -0.9715389
60.791664 69.963318 -0.93413246
60.215954 71.033386 -0.88464725
58.558666 74.113785 -0.95732623
59.177299 72.963936 -0.56727749
59.547489 72.275864 -0.26245677
59.601536 72.175407 0
64 64 0
61.199356 69.190506 -0.9723562
60.793991 69.941772 -0.93136382
60.209869 71.024345 -0.88408488
58.551331 74.09816 -0.95646948
59.073132 73.131088 -0.57823205
59.51775 72.307068 -0.2636179
59.59166 72.170082 0
59.582024 72.18795 0.25983787
61.202496 69.169724 -0.96909636
60.75816 69.990852 -0.93966979
60.21106 71.001884 -0.88183337
58.556229 74.059975 -0.95347494
59.030102 73.184265 -0.58197957
59.517609 72.283356 -0.26303735
59.576843 72.173897 0
59.56472 72.196304 0.26027286
61.193897 69.170685 -0.9699105
60.772461 69.947243 -0.93344098
60.190483 71.019623 -0.88464725
58.53429 74.071419 -0.95518512
58.957325 73.291916 -0.58918661
59.497688 72.296211 -0.2636179
59.557037 72.186844 0
59.549858 72.200081 0.26056343
61.1782 69.184654 -0.9731704
60.755684 69.960968 -0.93620962
60.194149 70.992706 -0.88183337
58.509846 74.087372 -0.95732623
58.916435 73.340324 -0.59264499
59.507542 72.254242 -0.26245677
59.55212 72.17234 0
59.547409 72.181 0.26012787
61.190884 69.14653 -0.96665066
60.762901 69.930626 -0.93205798
60.178398 71.001488 -0.88352257
58.532104 74.017632 -0.95133382
58.929932 73.288773 -0.58976263
59.465206 72.308105 -0.26434347
59.534775 72.180649 0
