# .PCD v0.7 - Point Cloud Data file format
VERSION 0.7
FIELDS x y z
SIZE 4 4 4
TYPE F F F
COUNT 1 1 1
WIDTH 1619
HEIGHT 1
VIEWPOINT 0 0 0 1 0 0 0
POINTS 1619
DATA ascii
58.511772 73.541351 -0.91752732
56.621586 76.827469 -0.82470906
58.718384 73.182159 -0.29583693
59.046818 72.611176 0
51.225151 86.209244 0.71555185
61.117332 68.997574 -0.95116866
60.7043 69.713631 -0.90990883
60.105904 70.751053 -0.86326087
58.513073 73.512482 -0.91538787
56.629353 76.778221 -0.82211471
58.715084 73.162262 -0.29540136
59.05722 72.569115 0
51.169762 86.243309 0.71714848
61.113777 68.989799 -0.95035136
60.699909 69.705307 -0.9092173
60.110477 70.724335 -0.86044484
58.504158 73.501389 -0.91495866
56.582848 76.823021 -0.82557309
58.711815 73.142387 -0.29496634
64 64 0
51.124676 86.259285 0.71816462
61.125107 68.956383 -0.94464892
60.695534 69.696983 -0.90852582
60.084503 70.750404 -0.86438555
58.477222 73.5214 -0.91752732
58.474941 73.52533 -0.61369008
58.705994 73.126991 -0.2946758
59.261108 72.16996 0
51.069115 86.293152 0.71976072
61.126575 68.940086 -0.94220328
60.673519 69.719002 -0.91267747
60.081455 70.736893 -0.86326087
59.570503 71.615341 -0.73436552
58.450436 73.541 -0.61513126
58.726322 73.066681 -0.29293412
59.374229 71.952774 0
51.029125 86.299965 0.72048628
61.125595 68.928062 -0.94057178
60.679249 69.693306 -0.9092173
60.096371 70.692635 -0.85819328
59.506989 71.70311 -0.74335241
58.431087 73.547699 -0.61599642
58.765114 72.975021 -0.2901769
59.377735 71.924706 0
50.981243 86.32019 0.72164738
61.099678 68.958717 -0.94709152
60.662239 69.706619 -0.91198599
60.072887 70.714241 -0.86157167
59.484715 71.719849 -0.74549353
58.450897 73.487381 -0.61253691
59.357719 71.936974 -0.25679621
59.373425 71.910118 0
50.938534 86.331367 0.7225185
61.086182 68.96801 -0.94953716
60.680737 69.659286 -0.90506303
60.069923 70.700714 -0.86044484
64 64 -0
58.42374 73.507431 -0.6142661
59.400703 71.841721 -0.25389397
59.371761 71.891068 0
50.88002 86.369339 0.72425961
61.080181 68.964485 -0.94953716
60.671349 69.659615 -0.90575719
60.06955 70.682831 -0.85875779
64 64 -0
59.484798 71.677071 -0.49636033
59.420216 71.78688 -0.25229731
59.483604 71.6791 0
50.842461 86.371391 0.72484022
61.077183 68.962723 -0.94953716
60.650112 69.687851 -0.9106003
60.03973 70.724236 -0.86438555
64 64 -0
64 64 -0
59.420784 71.775162 -0.25200731
59.449921 71.725693 0
50.797302 86.417175 0.72658187
61.06868 68.96344 -0.95035136
60.648342 69.675171 -0.9092173
60.054863 70.680069 -0.8593201
59.472992 71.665314 -0.74206978
64 64 -0
59.395538 71.796463 -0.25287786
64 64 0
50.751724 86.432533 0.72759801
61.05764 68.968407 -0.95198286
60.644039 69.666801 -0.90852582
60.044209 70.679665 -0.85988247
59.45327 71.677513 -0.74378163
64 64 -0
64 64 -0
64 64 0
50.719337 86.425446 0.72788799
61.059212 68.952095 -0.94953716
60.632076 69.671364 -0.90990883
60.038731 70.670517 -0.8593201
59.402061 71.742622 -0.75062746
64 64 -0
64 64 -0
64 64 0
50.697552 86.400452 0.72759801
61.078518 68.906067 -0.94138908
60.632931 69.65435 -0.90783167
60.022873 70.678825 -0.8610093
59.292896 71.904678 -0.76688939
64 64 -0
64 64 -0
64 64 0
50.705059 86.326317 0.72571129
61.044724 68.949211 -0.95035136
60.62352 69.654602 -0.90852582
60.017418 70.66964 -0.86044484
59.225437 71.995972 -0.7763055
59.452438 71.615814 -0.49434313
64 64 -0
64 64 0
50.726044 86.229935 0.72309905
61.015892 68.983803 -0.95768523
60.619278 69.646194 -0.90783167
60.01458 70.656113 -0.8593201
59.205227 72.00782 -0.7780174
58.351097 73.434319 -0.61282492
59.385891 71.706093 -0.25084618
64 64 0
50.768608 86.097939 0.71932518
61.027679 68.950539 -0.95198286
60.627949 69.616302 -0.90368003
60.011776 70.64257 -0.85819328
59.214058 71.971207 -0.7750212
58.361 73.392006 -0.61051857
59.379269 71.696037 -0.25070062
59.427597 71.615547 0
50.69109 86.166595 0.72208297
61.02935 68.934235 -0.94953716
60.597874 69.650909 -0.90990883
60.006371 70.6334 -0.85763091
59.188545 71.991798 -0.77758819
58.365662 73.358604 -0.60878938
59.383369 71.668198 -0.24997507
59.421089 71.605545 0
50.734001 86.034744 0.71830964
61.051495 68.884087 -0.94057178
60.609203 69.616722 -0.90506303
59.990479 70.641624 -0.8593201
59.170929 71.999168 -0.77887249
58.346344 73.365067 -0.60965341
64 64 -0
59.331207 71.733673 0
50.702019 86.027588 0.71859962
61.04047 68.888985 -0.94220328
60.586826 69.638382 -0.9092173
59.992981 70.619385 -0.8570686
59.169247 71.980148 -0.77758819
58.345749 73.340523 -0.60850024
58.681316 72.786186 -0.28683853
59.238304 71.866066 0
50.608135 86.12265 0.72222799
61.044827 68.868507 -0.93894339
60.574814 69.64283 -0.9106003
59.979717 70.623215 -0.85819328
59.156937 71.978706 -0.7780174
58.329094 73.342537 -0.60907739
58.576321 72.935242 -0.29191858
53.69783 80.972313 0
50.65691 85.982079 0.71816462
61.036377 68.869148 -0.93975759
60.57843 69.621536 -0.90783167
59.974358 70.614014 -0.85763091
59.147301 71.972847 -0.7780174
58.307049 73.353355 -0.61023057
58.530403 72.986389 -0.29380524
53.64756 81.008759 0
50.592537 86.028076 0.72019631
61.00732 68.903534 -0.94709152
60.56641 69.625977 -0.9092173
59.96637 70.609146 -0.85763091
59.143024 71.958206 -0.77716064
58.284973 73.364128 -0.61138374
58.503311 73.006386 -0.2946758
53.675819 80.916275 0
50.541565 86.051781 0.72150242
61.019455 68.870415 -0.94138908
60.572704 69.600426 -0.90575719
59.950424 70.617279 -0.8593201
59.128048 71.961098 -0.7780174
58.270966 73.361626 -0.61167175
58.500572 72.986435 -0.29424024
53.641804 80.92598 0
50.558334 85.964584 0.71918017
61.010986 68.871017 -0.94220328
60.568573 69.591995 -0.90506303
59.942432 70.612381 -0.8593201
59.129173 71.937698 -0.7763055
58.254253 73.36351 -0.61224777
58.489719 72.979782 -0.29424024
53.61047 80.931198 0
50.643242 85.766724 0.7132296
61.015465 68.850563 -0.93894339
60.540783 69.622032 -0.9106003
59.937107 70.603149 -0.85875779
59.127659 71.918686 -0.7750212
58.245651 73.352158 -0.61195976
58.459805 73.004105 -0.29525635
64 64 0
50.546135 85.865654 0.71700352
61.017395 68.834328 -0.93649775
60.552429 69.587967 -0.90575719
59.939804 70.580933 -0.85650623
59.104618 71.934639 -0.77716064
58.258797 73.30558 -0.6093654
58.448929 72.997406 -0.29525635
53.561394 80.919319 0
50.552471 85.79631 0.71526182
61.008949 68.834938 -0.93731505
60.550964 69.575256 -0.9043715
59.929184 70.580338 -0.8570686
59.095032 71.928719 -0.77716064
57.134521 75.097824 -0.7272712
58.462666 72.950912 -0.29395023
53.573807 80.853592 0
50.55349 85.73584 0.71381015
60.974453 68.87751 -0.94627732
60.538933 69.57962 -0.90575719
59.921234 70.575417 -0.8570686
59.101688 71.896614 -0.77459365
57.112934 75.102707 -0.72813636
58.498421 72.869148 -0.29148301
53.550709 80.845406 0
50.505322 85.754906 0.71497124
60.994667 68.831886 -0.93812925
60.518948 69.596733 -0.9092173
59.91061 70.574799 -0.85763091
59.092152 71.890694 -0.77459365
57.088604 75.111931 -0.7292884
57.227924 74.887939 -0.3580988
53.535866 80.823914 0
50.511982 85.685631 0.7132296
61.014992 68.786301 -0.92997801
60.506882 69.601028 -0.9106003
59.929558 70.526741 -0.85200316
59.07719 71.893463 -0.77544874
57.08065 75.094803 -0.72871238
57.231281 74.853279 -0.35722771
53.534821 80.780357 0
53.714218 80.492699 0.54284507
60.97776 68.832985 -0.93975759
60.502773 69.592552 -0.90990883
59.918983 70.526123 -0.85256553
59.067657 71.887505 -0.77544874
57.067253 75.086433 -0.72871238
57.220924 74.840691 -0.35708269
53.522831 80.754456 0
53.686043 80.493469 0.54328007
60.961727 68.852104 -0.94383162
60.510048 69.573433 -0.9071402
59.915039 70.523651 -0.85256553
59.073792 71.867119 -0.77373689
57.055069 75.091003 -0.7292884
57.214378 74.836594 -0.35708269
53.529282 80.721664 0
53.681587 80.478432 0.54299003
60.987396 68.798203 -0.93405515
60.503315 69.569206 -0.9071402
59.90176 70.527313 -0.85369021
59.053371 71.878555 -0.77544874
57.052666 75.065094 -0.72813636
57.195766 74.837181 -0.3573727
53.51186 80.704575 0
53.669979 80.452744 0.5425545
60.947369 68.848938 -0.94464892
60.517975 69.531013 -0.90160286
59.899288 70.513763 -0.85256553
59.052063 71.859528 -0.77416444
57.03104 75.069817 -0.72900039
57.18821 74.82016 -0.35708269
53.47504 80.71833 0
53.583656 80.545799 0.54603785
60.965256 68.807632 -0.93731505
60.484505 69.569237 -0.90852582
59.883278 70.521698 -0.85425472
59.053532 71.836182 -0.77245259
57.028713 75.043892 -0.72784722
57.194561 74.781158 -0.35606658
53.424294 80.754005 0
53.491554 80.647453 0.54981118
60.922443 68.862427 -0.94872296
60.469734 69.57769 -0.9106003
59.880844 70.508125 -0.85312784
59.03857 71.838882 -0.77330935
57.062405 74.961151 -0.72294652
57.189869 74.759766 -0.35563159
53.381786 80.776398 0
53.435318 80.691826 0.55169785
60.937759 68.825317 -0.94220328
60.497948 69.518349 -0.90160286
59.872982 70.503143 -0.85312784
59.029102 71.832886 -0.77330935
57.079647 74.904732 -0.71977615
57.149033 74.795403 -0.35708269
53.355942 80.772354 0
64 64 0
60.979694 68.746552 -0.92753547
60.4832 69.526817 -0.90368003
59.878765 70.476715 -0.85031396
59.033421 71.805214 -0.7711699
57.088692 74.86145 -0.71746981
57.085777 74.866028 -0.35969493
53.33289 80.76387 0
64 64 0
60.965992 68.755386 -0.92997801
60.473827 69.526794 -0.9043715
59.86821 70.476013 -0.85087633
59.015717 71.81218 -0.77245259
57.064445 74.870529 -0.71862298
57.050293 74.892715 -0.36085606
53.309845 80.755348 0
64 64 0
60.930946 68.797531 -0.93894339
60.459038 69.53521 -0.90644866
59.843952 70.496704 -0.85425472
59.006279 71.806152 -0.77245259
57.062466 74.844711 -0.71746981
57.039932 74.879936 -0.36071104
53.340088 80.663506 0
49.14299 87.224388 0.7699765
60.879784 68.864548 -0.95279706
60.46048 69.518257 -0.9043715
59.836105 70.491684 -0.85425472
58.985764 71.817398 -0.77416444
57.038193 74.853745 -0.71862298
57.054855 74.827766 -0.35925937
53.215988 80.812714 0
49.106518 87.219543 0.77041203
60.911335 68.802574 -0.94138908
60.437527 69.539307 -0.90852582
59.850258 70.452454 -0.84975165
58.981869 71.802704 -0.77330935
57.008301 74.871414 -0.72035217
57.0755 74.76693 -0.35751826
64 64 0
49.078472 87.201538 0.77041203
60.900181 68.807144 -0.94301742
60.458035 69.492821 -0.90160286
59.842461 70.447433 -0.84975165
58.989136 71.77076 -0.77074236
56.989559 74.871666 -0.72092932
57.093479 74.71051 -0.3559216
55.677284 76.906715 0
49.042007 87.196579 0.77084702
60.926582 68.753578 -0.93323785
60.437778 69.509598 -0.90506303
59.826393 70.455208 -0.85144085
58.971394 71.777618 -0.77202499
56.965191 74.880562 -0.7220825
57.080544 74.702156 -0.3559216
55.718216 76.809235 0
49.033733 87.147949 0.76983148
60.923527 68.74572 -0.93242371
60.450222 69.47583 -0.90021986
59.8186 70.450165 -0.85144085
58.970371 71.758629 -0.77074236
55.764652 76.703712 -0.84373468
57.104362 74.6371 -0.3540349
55.705574 76.794853 0
50.529411 84.77951 0.69160509
60.92857 68.725418 -0.92916381
60.446342 69.467331 -0.89952838
59.816353 70.436577 -0.85031396
58.960999 71.752541 -0.77074236
55.723938 76.732788 -0.84632903
57.057529 74.681046 -0.35577658
55.715645 76.745544 0
50.492989 84.780647 0.69218564
60.930962 68.709274 -0.92671812
60.395916 69.530281 -0.9106003
59.803024 70.440041 -0.85144085
58.943233 71.759338 -0.77202499
57.990543 73.221191 -0.61340094
56.962345 74.798912 -0.3599855
55.646263 76.818367 0
50.484905 84.738197 0.69131505
60.890118 68.759369 -0.93731505
60.430397 69.462929 -0.90021986
59.809151 70.413681 -0.84862477
58.933861 71.753227 -0.77202499
57.962425 73.239914 -0.61513126
56.821392 74.986153 -0.36651608
55.659248 76.764702 0
50.4627 84.717506 0.6911701
60.859989 68.792816 -0.94464892
60.399055 69.496376 -0.90644866
59.784691 70.434128 -0.85200316
58.93293 71.734222 -0.77074236
57.951263 73.232613 -0.61513126
56.785339 75.012245 -0.36767718
55.612461 76.80249 0
50.451923 84.679382 0.69044393
60.865055 68.772491 -0.94138908
60.39793 69.483627 -0.90506303
59.779705 70.424782 -0.85144085
58.923588 71.728096 -0.77074236
57.945797 73.216644 -0.61455411
56.774887 74.999184 -0.36753219
55.599854 76.788002 0
50.435497 84.649979 0.69000894
60.87561 68.743927 -0.93649775
60.394066 69.475082 -0.9043715
59.785931 70.398445 -0.84862477
58.928383 71.700508 -0.7686013
57.951733 73.183411 -0.61282492
56.804482 74.925339 -0.36535496
55.590126 76.769157 0
50.367687 84.698669 0.69218564
60.888939 68.711281 -0.93079531
60.404034 69.44561 -0.90021986
59.772594 70.40184 -0.84975165
58.910591 71.70723 -0.7698856
57.940639 73.176094 -0.61282492
56.79987 74.903633 -0.36491996
55.560364 76.780701 0
49.96756 85.250259 0.71119791
60.885986 68.703384 -0.92997801
60.375298 69.474731 -0.90575719
59.767666 70.392494 -0.84918928
58.906944 71.69252 -0.76903045
57.940979 73.151512 -0.61167175
56.852688 74.795258 -0.36158159
55.524811 76.80088 0
49.723866 85.562599 0.72222799
60.877678 68.709755 -0.93160951
60.405262 69.422356 -0.89745122
59.760998 70.394165 -0.84975165
58.899464 71.693718 -0.76945806
57.941162 73.139236 -0.61109573
56.84042 74.799614 -0.36187217
64 64 0
53.483879 79.862663 0.53152448
60.861046 68.722443 -0.93486935
60.40427 69.409645 -0.89606559
59.753277 70.389038 -0.84975165
58.893013 71.683281 -0.76903045
57.927265 73.136208 -0.61138374
56.867657 74.730354 -0.35983995
55.513149 76.768158 0
53.441704 79.884575 0.53268558
60.87727 68.685738 -0.92834961
60.383816 69.426186 -0.89952838
59.748375 70.379684 -0.84918928
58.892277 71.664284 -0.76774615
57.913364 73.133163 -0.61167175
56.82299 74.769302 -0.36143661
55.520821 76.723244 0
53.413872 79.884781 0.53312111
60.84964 68.714844 -0.93486935
60.396778 69.392601 -0.89468259
59.7435 70.3703 -0.84862477
58.883018 71.658104 -0.76774615
57.908073 73.11721 -0.61109573
56.807098 74.764938 -0.36158159
55.47654 76.756256 0
53.432213 79.815811 0.53123444
60.83569 68.723358 -0.93731505
60.384686 69.396576 -0.89606559
59.741459 70.35672 -0.84750009
58.876625 71.647652 -0.76731861
57.897064 73.109848 -0.61109573
56.794098 74.756241 -0.36158159
55.437958 76.78054 0
53.442043 79.759842 0.52978277
60.827053 68.711586 -0.93649775
60.380054 69.375343 -0.89399111
59.728943 70.342194 -0.84693778
58.852428 71.643761 -0.76817369
57.857735 73.120804 -0.61282492
64 64 -0
55.378029 76.802979 0
52.776985 80.665329 0.56113178
60.824127 68.703659 -0.93568355
60.359528 69.391754 -0.89745122
59.709911 70.353882 -0.84918928
58.840324 71.641785 -0.7686013
57.846718 73.113373 -0.61282492
64 64 -0
55.374214 76.775299 0
52.817924 80.561317 0.55808401
60.843384 68.662979 -0.92834961
60.355824 69.383202 -0.89675975
59.722179 70.319229 -0.84524858
58.833969 71.631294 -0.76817369
57.818317 73.13163 -0.61455411
64 64 -0
55.393791 76.713158 0
52.82415 80.509048 0.55677736
60.829418 68.671432 -0.93079531
60.329605 69.407845 -0.90160286
59.705982 70.326675 -0.84693778
58.818981 71.633553 -0.76903045
55.500793 76.522469 -0.84344667
56.685463 74.777008 -0.36375883
55.384285 76.69413 0
52.783779 80.525635 0.55779344
60.820999 68.671684 -0.93160951
60.334366 69.38681 -0.89883423
59.698341 70.32148 -0.84693778
58.829983 71.597572 -0.76603431
55.465294 76.54213 -0.845465
56.678303 74.759567 -0.36346829
55.483147 76.5159 0
52.825214 80.421852 0.55474567
60.8265 68.651505 -0.92834961
60.330685 69.378242 -0.89814276
59.690704 70.316277 -0.84693778
58.815025 71.599792 -0.76688939
55.464718 76.510452 -0.84402382
56.647728 74.776474 -0.36433941
55.56776 76.359421 0
52.866882 80.318192 0.55169785
60.801342 68.676231 -0.93405515
60.344021 69.34481 -0.89329696
59.691689 70.298477 -0.84524858
58.814533 71.580826 -0.76560676
55.446693 76.504395 -0.84431183
56.652321 74.741837 -0.36346829
55.494061 76.435143 0
52.888245 80.244675 0.54966617
60.801292 68.6642 -0.93242371
60.312016 69.37764 -0.89952838
59.675453 70.305847 -0.84693778
58.796673 71.587242 -0.76688939
55.431587 76.494049 -0.84431183
56.633461 74.741531 -0.36375883
55.470219 76.437721 0
52.856865 80.248383 0.55024678
60.804062 68.648109 -0.92997801
60.336796 69.327698 -0.89191395
59.667839 70.300613 -0.84693778
58.790417 71.576721 -0.76646185
55.419426 76.479431 -0.84402382
56.608711 74.749756 -0.36433941
55.419807 76.478874 0
52.899071 80.144981 0.54719895
60.787228 68.660522 -0.93323785
60.310425 69.352188 -0.89675975
59.668884 70.282822 -0.84524858
58.792923 71.553513 -0.76475
55.398487 76.477562 -0.84459984
56.589836 74.749367 -0.36462939
55.345654 76.554207 0
52.909061 80.088776 0.54574788
60.792839 68.640373 -0.92997801
60.301109 69.351852 -0.89745122
59.661297 70.27758 -0.84524858
58.77504 71.559891 -0.76603431
55.380478 76.471413 -0.84488785
56.573898 74.744675 -0.36477441
55.274269 76.625076 0
52.883728 80.083908 0.54603785
60.76189 68.673073 -0.93731505
60.288937 69.355614 -0.89883423
59.653713 70.272339 -0.84524858
58.777603 71.53669 -0.7643224
55.362461 76.465248 -0.84517699
56.546112 74.757065 -0.36550051
56.426987 74.928986 0
52.858387 80.079002 0.54632783
60.77599 68.640739 -0.93160951
60.311089 69.309929 -0.89191395
59.643242 70.271248 -0.84581089
58.759712 71.54303 -0.76560676
55.371017 76.420815 -0.84287065
56.527199 74.756577 -0.36579052
56.369236 74.983948 0
52.86565 80.027115 0.54502171
60.739315 68.681442 -0.94057178
60.29034 69.32605 -0.89537406
59.641472 70.257645 -0.84468621
58.747669 71.540901 -0.76603431
55.329407 76.448578 -0.845465
56.508259 74.756073 -0.36608106
56.385727 74.931999 0
52.884903 79.958221 0.54313505
60.756271 68.651108 -0.93486935
60.289989 69.319695 -0.89468259
59.631882 70.263344 -0.84581089
58.748993 71.529297 -0.76517755
56.422626 74.865021 -0.73822576
56.495823 74.760063 -0.36637107
56.388046 74.914604 0
58.208206 72.304718 0.28276852
60.781818 68.602615 -0.92590398
60.274937 69.327553 -0.89675975
59.635967 70.241402 -0.84355938
58.748718 71.510338 -0.76389486
56.40654 74.860092 -0.73851377
56.461979 74.780807 -0.36738718
56.425564 74.832886 0
58.198177 72.297714 0.28276852
60.790443 68.578491 -0.92182994
60.300186 69.277847 -0.88914531
59.634254 70.227806 -0.84243464
58.742592 71.499786 -0.76346731
56.396393 74.84668 -0.73822576
56.454929 74.763168 -0.36709663
56.409496 74.82798 0
58.164291 72.324738 0.28392962
60.733757 68.6474 -0.93649775
60.25919 69.322632 -0.89745122
59.617977 70.234985 -0.84412169
58.724686 71.506012 -0.76475
56.433853 74.765533 -0.73332506
56.406071 74.805069 -0.36883831
56.390438 74.827309 0
58.154236 72.31768 0.28392962
60.756611 68.603043 -0.92834961
60.26432 69.301704 -0.89468259
59.616295 70.22139 -0.84299701
58.718575 71.495445 -0.7643224
56.394039 74.794441 -0.73591942
56.366081 74.834114 -0.37014443
56.365368 74.835129 0
58.147179 72.306366 0.28378463
60.736794 68.619308 -0.93242371
60.281078 69.264404 -0.88914531
59.602921 70.22438 -0.84412169
58.706558 71.493248 -0.76475
56.360104 74.814819 -0.73793775
56.146114 75.117744 -0.38015833
56.379307 74.787636 0
58.122158 72.320511 0.28451017
60.785488 68.538727 -0.9169417
60.257328 69.284462 -0.89329696
59.598339 70.21492 -0.84355938
58.706402 71.474289 -0.76346731
56.364986 74.780243 -0.73620743
56.147701 75.087044 -0.3794328
56.330177 74.829391 0
58.085079 72.351562 0.28581628
60.757111 68.567085 -0.92346144
60.26255 69.263588 -0.89053094
59.590832 70.209595 -0.84355938
58.703327 71.459503 -0.76261055
55.228931 76.352623 -0.84431183
56.071129 75.166527 -0.38248059
56.292992 74.854073 0
58.081017 72.33593 0.28552574
60.722931 68.603424 -0.93160951
60.259113 69.254967 -0.88983679
59.577431 70.212555 -0.84468621
58.682407 71.469826 -0.7643224
55.250015 76.291443 -0.84085232
56.057644 75.156937 -0.38248059
56.301014 74.815063 0
58.073959 72.324539 0.28538072
60.760448 68.539101 -0.91938424
60.252766 69.250443 -0.88983679
59.57584 70.198921 -0.84355938
58.688293 71.442505 -0.76218301
55.250191 76.259819 -0.83941114
56.056244 75.130417 -0.38190001
64 64 0
58.048813 72.338524 0.28610629
60.717575 68.58744 -0.92997801
60.237663 69.258156 -0.89191395
59.597916 70.152252 -0.83793157
58.682289 71.431915 -0.76175547
55.250431 76.228203 -0.83796996
56.033726 75.133492 -0.38233557
64 64 0
58.020592 72.356689 0.28697741
60.714912 68.57946 -0.92916381
60.219612 69.26992 -0.89468259
59.590485 70.146927 -0.83793157
58.667336 71.433815 -0.76261055
55.244713 76.205009 -0.8371048
56.005135 75.144966 -0.38306114
56.286133 74.75325 0
57.983238 72.387459 0.28828353
60.758446 68.507271 -0.9153102
60.245476 69.220535 -0.88706815
59.586025 70.137474 -0.83736926
58.652355 71.435715 -0.76346731
55.269234 76.139832 -0.83335727
55.9674 75.169052 -0.38422224
56.309616 74.693214 0
57.954906 72.405487 0.28915408
60.738548 68.523392 -0.91938424
60.227432 69.232269 -0.88983679
59.590504 70.115646 -0.8351177
58.652386 71.416748 -0.76218301
55.60247 75.646759 -0.80020559
55.905281 75.226784 -0.3865445
56.269295 74.721924 0
57.944756 72.398178 0.28915408
60.692539 68.575546 -0.93079531
60.188778 69.272446 -0.89745122
59.577168 70.118546 -0.83624238
58.658463 71.389481 -0.76004356
55.74295 75.422806 -0.78550351
64 64 -0
56.238052 74.737877 0
57.937653 72.38665 0.28900909
60.718922 68.527512 -0.92182994
60.194187 69.251587 -0.89468259
59.575737 70.104973 -0.8351177
58.640511 71.395477 -0.76132625
55.798973 75.316475 -0.77887249
64 64 -0
56.228138 74.724281 0
57.90313 72.412979 0.29017019
60.707638 68.531548 -0.92346144
60.211437 69.214508 -0.88914531
59.55941 70.111946 -0.83680475
58.631577 71.389 -0.76132625
55.821793 75.25634 -0.77541298
64 64 -0
56.215183 74.714882 0
57.877697 72.426628 0.29089576
60.702164 68.527565 -0.92346144
60.175606 69.250473 -0.89606559
59.549026 70.110695 -0.83736926
58.622654 71.382507 -0.76132625
55.817326 75.233917 -0.77454895
55.890888 75.132919 -0.3846578
56.202244 74.705467 0
57.852222 72.440224 0.29162133
60.711281 68.503609 -0.91938424
60.175175 69.237755 -0.89468259
59.529659 70.121735 -0.83962077
58.613735 71.376007 -0.76132625
55.809864 75.21566 -0.7739718
54.265438 77.330612 -0.46099699
64 64 0
57.838955 72.436996 0.29176688
60.662037 68.559464 -0.93160951
60.192562 69.200737 -0.88914531
59.543282 70.087616 -0.83568007
58.604828 71.369492 -0.76132625
55.793266 75.209923 -0.77425981
54.246269 77.323029 -0.461142
64 64 0
57.825699 72.433739 0.29191187
60.66531 68.543465 -0.92916381
60.168472 69.220398 -0.89329696
59.544952 70.069931 -0.83399087
58.601997 71.354698 -0.76047111
55.746056 75.245872 -0.77743131
54.236324 77.302864 -0.460852
64 64 0
57.787842 72.463974 0.29321799
60.689114 68.499626 -0.92101574
60.191898 69.175362 -0.88637662
59.528584 70.076828 -0.83568007
58.596153 71.34404 -0.76004356
55.554661 75.477547 -0.79415172
53.453373 78.333275 -0.49698991
56.125916 74.701195 0
57.759144 72.481567 0.29408854
60.677814 68.503571 -0.92264408
60.176708 69.182869 -0.88845378
59.515217 70.079597 -0.83680475
58.59034 71.333359 -0.75961435
55.0802 76.091721 -0.83739281
53.392876 78.379066 -0.49902159
56.140797 74.653976 0
57.736561 72.490746 0.29466909
60.619289 68.577118 -0.93812925
60.137806 69.228989 -0.89675975
59.517578 70.068718 -0.83568007
58.585911 71.330093 -0.75961435
55.075966 76.082176 -0.8371048
53.40271 78.34758 -0.49815103
56.128181 74.657593 0
57.728336 72.491158 0.29481468
60.654953 68.517403 -0.92671812
60.15538 69.192062 -0.89122242
59.507225 70.067375 -0.83624238
58.583164 71.3153 -0.75875926
55.055222 76.079689 -0.83768082
55.683098 75.231766 -0.39031783
56.071953 74.706627 0
57.708813 72.496086 0.29524967
60.652439 68.509392 -0.92590398
60.176022 69.151161 -0.88499367
59.508987 70.049698 -0.83455318
58.568214 71.316986 -0.75961435
55.049873 76.056427 -0.83681679
55.678825 75.209183 -0.38988227
56.052811 74.705406 0
57.676865 72.517693 0.29626578
60.676502 68.465698 -0.91775584
60.160824 69.1586 -0.88706815
59.501682 70.044266 -0.83455318
58.568565 71.298073 -0.75833172
55.029144 76.053894 -0.83739281
55.655979 75.211632 -0.39031783
56.067844 74.658218 0
57.647964 72.535049 0.29713634
60.679977 68.449783 -0.9153102
60.151581 69.15799 -0.88776231
59.488297 70.046982 -0.83568007
58.556683 71.295616 -0.75875926
55.020767 76.03476 -0.83681679
55.651764 75.189041 -0.38988227
56.067421 74.631943 0
57.619003 72.552368 0.29800746
60.642033 68.489319 -0.92427558
60.136345 69.165375 -0.88983679
59.490128 70.029312 -0.83399087
58.5448 71.293137 -0.7591868
55.009338 76.019745 -0.83652765
55.641357 75.174789 -0.38973728
56.116936 74.538986 0
57.605568 72.548813 0.29815245
60.61882 68.50898 -0.92916381
60.093987 69.208878 -0.89814276
59.467606 70.044182 -0.83680475
58.545235 71.274216 -0.7579025
55.010338 75.98819 -0.83508646
55.624748 75.168839 -0.38988227
56.122936 74.504478 0
57.579655 72.561867 0.29887801
60.663868 68.437721 -0.9153102
60.108803 69.176071 -0.89329696
59.463356 70.034645 -0.83624238
58.530273 71.275833 -0.75875926
54.983421 75.993851 -0.83623964
55.651852 75.104706 -0.3879956
56.100876 74.507423 0
57.556824 72.570717 0.29945856
60.658508 68.433685 -0.9153102
60.144825 69.11528 -0.88360798
59.471359 70.008873 -0.8334285
58.52457 71.265121 -0.75833172
54.965828 75.987076 -0.83652765
55.632179 75.102921 -0.38828614
56.031788 74.572693 0
57.527699 72.587837 0.30032969
60.623352 68.469093 -0.92346144
60.099327 69.162659 -0.89260542
59.470234 69.995277 -0.83230168
58.515797 71.258507 -0.75833172
54.96381 75.959656 -0.83537561
55.653233 75.047188 -0.38668948
56.022167 74.558899 0
57.492275 72.613159 0.30149025
60.611988 68.472885 -0.92508978
60.096119 69.153946 -0.89191395
59.450722 70.006004 -0.83455318
58.513237 71.243675 -0.75747496
54.964993 75.928101 -0.83393329
55.649307 75.024666 -0.38625392
55.987411 74.578293 0
57.485008 72.601158 0.30134523
60.618546 68.453041 -0.92182994
60.102032 69.13324 -0.88914531
59.461899 69.976227 -0.831177
58.523109 71.212517 -0.75490797
54.944324 75.925423 -0.83451045
55.645412 75.002159 -0.38581893
55.962044 74.58519 0
57.468327 72.601562 0.3016358
60.598198 68.468613 -0.92590398
60.117107 69.100571 -0.88429952
59.448532 69.978821 -0.83230168
58.501961 71.222237 -0.75661981
57.179569 72.959328 -0.627527
55.543999 75.107826 -0.38988227
55.958721 74.563042 0
57.442204 72.614334 0.30236137
60.580807 68.480217 -0.92916381
60.092678 69.11982 -0.88845378
59.441311 69.973312 -0.83230168
58.499474 71.207413 -0.75576305
57.143642 72.983978 -0.62983334
55.404465 75.262848 -0.39568785
55.93018 74.573997 0
57.406578 72.639458 0.30352247
60.572395 68.480003 -0.92997801
60.113934 69.079231 -0.88222498
59.427914 69.975883 -0.8334285
58.490768 71.200768 -0.75576305
57.132793 72.975693 -0.62983334
55.39402 75.248329 -0.39554286
55.879456 74.613846 0
57.383511 72.647995 0.30410302
60.603073 68.42881 -0.92020154
60.089481 69.098412 -0.88637662
59.429977 69.958252 -0.83173931
58.478939 71.198189 -0.75619227
57.128254 72.959167 -0.62925619
55.402576 75.209053 -0.39452675
55.860294 74.612297 0
57.357254 72.660606 0.30482858
60.573631 68.456032 -0.92671812
60.095558 69.077774 -0.88360798
59.432068 69.940651 -0.83005232
58.479637 71.179298 -0.75490797
57.10482 72.967262 -0.63040936
55.389038 75.198654 -0.39452675
55.818924 74.639587 0
57.334126 72.669052 0.30540913
60.583336 68.43232 -0.92264408
60.061859 69.10881 -0.88983679
59.412495 69.95121 -0.83230168
58.474098 71.168564 -0.75448042
57.08136 72.975311 -0.63156253
55.438969 75.105927 -0.39162394
55.745708 74.708008 0
57.291931 72.702141 0.30686027
60.553802 68.45948 -0.92916381
60.055687 69.10405 -0.88983679
59.402191 69.949699 -0.83286619
58.46859 71.157806 -0.75405121
57.076839 72.958763 -0.63098651
55.492287 75.009224 -0.38857615
55.685032 74.759804 0
57.281422 72.694031 0.30686027
60.563549 68.435776 -0.92508978
60.074108 69.067551 -0.88429952
59.407452 69.92807 -0.83061463
58.447365 71.167351 -0.75576305
57.062855 72.954483 -0.63127452
55.561737 74.892128 -0.38480282
55.585976 74.860832 0
57.28046 72.673592 0.30642527
60.585106 68.402451 -0.91857004
60.07412 69.061218 -0.88360798
59.403873 69.925293 -0.83061463
58.443039 71.163994 -0.75576305
57.060612 72.946205 -0.63098651
64 64 -0
55.592178 74.839302 0
57.230637 72.727013 0.30845693
60.552483 68.433441 -0.92590398
60.049519 69.080238 -0.88776231
59.384239 69.935783 -0.83286619
58.443832 71.145126 -0.75448042
57.049809 72.937813 -0.63098651
64 64 -0
55.588661 74.816818 0
57.194572 72.751648 0.30961806
60.589672 68.374695 -0.914496
60.052643 69.063591 -0.88568515
59.398941 69.902138 -0.82892543
58.4352 71.138405 -0.75448042
57.042191 72.925331 -0.6306985
64 64 -0
55.585201 74.794327 0
57.148865 72.78849 0.31121418
60.593521 68.358887 -0.91205031
60.068157 69.031136 -0.88083935
59.379299 69.91259 -0.831177
58.439224 71.115494 -0.75276852
57.04097 72.904686 -0.62983334
64 64 -0
55.578583 74.77594 0
50.546417 81.215034 0.6101864
60.588257 68.354767 -0.91205031
60.000191 69.105377 -0.89468259
59.384693 69.891006 -0.82892543
58.424305 71.116852 -0.75362366
57.020641 72.908493 -0.6306985
64 64 -0
55.588028 74.737091 0
50.560886 81.153763 0.60858977
60.524982 68.424507 -0.92753547
60.006424 69.084755 -0.89191395
59.365025 69.901405 -0.831177
58.425228 71.097992 -0.75233936
57.01947 72.88784 -0.62983334
64 64 -0
55.565426 74.739182 0
50.517696 81.166122 0.60960585
60.544933 68.377289 -0.91938424
60.034557 69.023895 -0.88291651
59.366516 69.870247 -0.82836312
58.392178 71.10466 -0.75448042
56.994812 72.875008 -0.63012135
55.286293 75.039558 -0.39278507
55.533043 74.726952 0
50.489132 81.117172 0.6090253
60.57338 68.330482 -0.91042197
59.99736 69.058441 -0.88983679
59.368889 69.852692 -0.82667392
58.396339 71.081772 -0.75276852
56.987301 72.86248 -0.62983334
55.260063 75.045326 -0.39336562
55.520088 74.716713 0
50.471691 81.096748 0.60887975
60.506721 68.403778 -0.92671812
59.991253 69.053596 -0.88983679
59.358665 69.851067 -0.82723624
58.381413 71.083031 -0.75362366
56.970173 72.862099 -0.63040936
56.832413 73.035767 -0.32210591
64 64 0
50.493027 81.027466 0.60699308
60.553703 68.333786 -0.91286451
59.985149 69.048752 -0.88983679
59.345264 69.853416 -0.82836312
58.388832 71.056152 -0.75148422
56.965904 72.845505 -0.62983334
56.831207 73.014893 -0.32167035
55.546047 74.631004 0
56.857231 72.982162 0.32050255
60.523819 68.360535 -0.91938424
59.975914 69.047829 -0.89053094
59.335033 69.851753 -0.82892543
58.373917 71.057388 -0.75233936
56.968121 72.820824 -0.62868017
56.833279 72.989967 -0.32108977
56.876389 72.93589 0
56.846386 72.973526 0.32050255
60.512375 68.364067 -0.92101574
59.976089 69.035118 -0.88914531
59.340656 69.830238 -0.82667392
58.368595 71.046577 -0.75191176
56.947777 72.824448 -0.62954533
64 64 -0
64 64 0
56.812832 72.993301 0.32151866
60.497829 68.371429 -0.92346144
60.010788 68.979355 -0.88014787
59.320904 69.840469 -0.82892543
58.356876 71.04377 -0.75233936
56.940361 72.811867 -0.62925619
64 64 -0
64 64 0
64 64 0
60.523506 68.328644 -0.9153102
59.992207 68.990173 -0.88291651
59.329758 69.815002 -0.82611156
58.358006 71.024948 -0.75105667
56.929718 72.803329 -0.62925619
56.81049 72.95179 -0.32065478
64 64 0
64 64 0
60.51828 68.32444 -0.9153102
59.967304 69.008774 -0.88706815
59.32592 69.805397 -0.82554919
58.346306 71.022125 -0.75148422
56.92881 72.782707 -0.62839216
56.806202 72.93499 -0.32036424
64 64 0
64 64 0
60.491322 68.34716 -0.92101574
59.983307 68.976578 -0.88222498
59.312531 69.807648 -0.82667392
58.334602 71.019279 -0.75191176
56.924706 72.766098 -0.62781501
56.77256 72.954605 -0.32138035
56.819252 72.896751 0
64 64 0
60.520279 68.300644 -0.91205031
59.958366 68.995117 -0.88637662
59.308708 69.798035 -0.82611156
58.335815 71.00045 -0.75062746
56.91737 72.753525 -0.627527
56.791164 72.909508 -0.32007423
56.785599 72.916382 0
56.83054 72.86084 0.31832588
60.505737 68.307953 -0.914496
59.93969 69.005814 -0.88914531
59.295311 69.800247 -0.82723624
58.320885 71.001579 -0.75148422
56.893764 72.761032 -0.62868017
54.960289 75.144745 -0.40076733
64 64 0
50.390503 80.778679 0.60336471
60.463112 68.349754 -0.92427558
59.939972 68.993126 -0.88776231
59.291508 69.790619 -0.82667392
58.309196 70.998695 -0.75191176
56.90929 72.720329 -0.62637383
54.956669 75.121712 -0.40033177
55.302883 74.69593 0
50.337444 80.802551 0.60481638
60.49482 68.305443 -0.9153102
59.959133 68.963432 -0.88291651
59.275177 69.803535 -0.82892543
58.317932 70.979332 -0.75019991
56.887699 72.736099 -0.62781501
54.986034 75.07193 -0.39873564
55.276699 74.714905 0
50.314171 80.810417 0.60539699
60.477116 68.316521 -0.91857004
59.921417 68.997406 -0.88983679
59.284233 69.778145 -0.82611156
58.29652 70.988365 -0.75191176
56.883682 72.71949 -0.62723899
54.98909 75.040901 -0.39801008
55.280212 74.684196 0
50.29715 80.789841 0.60525197
60.468777 68.316086 -0.91938424
59.959858 68.938118 -0.88014787
59.261166 69.792099 -0.82892543
58.307579 70.957634 -0.74934483
56.879707 72.702873 -0.62666184
54.965893 75.042061 -0.39844507
55.244247 74.701836 0
50.296627 80.74913 0.60438085
60.451023 68.327103 -0.92264408
59.92844 68.964272 -0.88568515
59.260612 69.778519 -0.82780075
58.302441 70.94677 -0.74891561
56.879032 72.682274 -0.62579781
54.945957 75.039177 -0.39873564
52.300362 78.264832 0
50.243446 80.772736 0.60583198
60.461491 68.303726 -0.91857004
59.922443 68.959343 -0.88568515
59.253632 69.772789 -0.82780075
58.28101 70.95575 -0.75062746
56.852123 72.693634 -0.62723899
54.939232 75.020195 -0.39844507
52.339325 78.182343 0
50.22319 80.756104 0.60583198
60.472012 68.28038 -0.914496
59.922844 68.946663 -0.88429952
59.26606 69.743515 -0.82442236
58.285671 70.932983 -0.74891561
56.848209 72.677002 -0.62666184
54.939148 74.993195 -0.39786452
52.325508 78.16423 0
42.144886 90.515999 0.95966387
60.476292 68.264679 -0.91205031
59.913662 68.94561 -0.88499367
59.259125 69.737793 -0.82442236
58.264217 70.941902 -0.75062746
56.844315 72.660385 -0.62608582
54.912628 74.998268 -0.39844507
52.311714 78.146103 0
42.149277 90.445496 0.95806718
60.449066 68.287064 -0.91775584
59.920494 68.925217 -0.88222498
59.248955 69.73597 -0.82498473
58.246006 70.946838 -0.75191176
56.827263 72.659698 -0.62666184
54.889397 74.99929 -0.39888063
64 64 0
48.793495 82.358917 0.66577166
60.472305 68.24855 -0.91042197
59.914543 68.92028 -0.88222498
59.238773 69.734146 -0.82554919
58.260578 70.912224 -0.74891561
56.836624 72.627151 -0.62493265
54.899357 74.960281 -0.39786452
64 64 0
48.754726 82.360512 0.66649717
60.467175 68.244286 -0.91042197
59.915028 68.907623 -0.88083935
59.235107 69.724472 -0.82498473
58.248936 70.909241 -0.74934483
56.806355 72.642334 -0.62666184
54.872822 74.965256 -0.39844507
64 64 0
48.74585 82.326103 0.66591662
60.436714 68.270378 -0.9169417
59.905891 68.906532 -0.88153082
59.234699 69.710915 -0.82385999
58.23402 70.910164 -0.75019991
56.805851 72.621735 -0.62579781
54.872894 74.938255 -0.39786452
64 64 0
48.723717 82.307655 0.66591662
60.447422 68.247101 -0.91286451
59.91283 68.8862 -0.87876487
59.227802 69.705147 -0.82385999
58.232254 70.895325 -0.74934483
56.798767 72.609055 -0.62550867
54.839672 74.951141 -0.39873564
52.156334 78.159073 0
48.701607 82.289185 0.66591662
60.451813 68.231445 -0.91042197
59.903709 68.885101 -0.87945634
59.214386 69.707161 -0.82498473
58.233826 70.876541 -0.74806046
56.785034 72.604324 -0.62579781
54.846489 74.916168 -0.39786452
64 64 0
48.696213 82.250778 0.66519105
60.443523 68.230942 -0.91123617
59.88813 68.891655 -0.88153082
59.210762 69.697487 -0.82442236
58.225521 70.869568 -0.74806046
56.78796 72.579758 -0.62464464
54.823273 74.917038 -0.39830008
52.158997 78.086578 0
48.680855 82.224327 0.66490108
60.438416 68.226639 -0.91123617
59.875751 68.894371 -0.88291651
59.207153 69.687813 -0.82385999
58.217228 70.862587 -0.74806046
56.767609 72.582893 -0.62550867
54.803383 74.913895 -0.39859065
52.188934 78.016541 0
48.642105 82.22567 0.66562665
60.436497 68.218559 -0.91042197
59.91193 68.839554 -0.87391907
59.20356 69.678139 -0.82329768
58.20232 70.863434 -0.74891561
56.77393 72.554398 -0.62406749
54.776802 74.91864 -0.39917064
64 64 0
48.556385 82.282516 0.6683839
60.437798 68.206696 -0.90879047
59.870426 68.876724 -0.88153082
59.186859 69.68396 -0.82498473
58.197346 70.852509 -0.74848807
56.753567 72.557503 -0.62493265
54.760246 74.911469 -0.39931619
52.289642 77.829071 0
48.473846 82.335236 0.67099667
60.41032 68.228775 -0.914496
59.858036 68.879387 -0.88291651
59.189854 69.666534 -0.82329768
58.202358 70.829834 -0.74677616
56.739887 72.552681 -0.62522066
54.74707 74.900299 -0.39931619
52.124729 77.98951 0
48.407986 82.367966 0.67288333
60.430843 68.194321 -0.90797627
59.871647 68.851456 -0.87876487
59.18301 69.660713 -0.82329768
58.18745 70.83065 -0.74763292
56.749664 72.520271 -0.62349147
52.827744 77.129143 -0.48146096
52.175297 77.895866 0
48.37571 82.360977 0.67331833
60.43861 68.174957 -0.90471643
59.84951 68.865547 -0.88222498
59.162979 69.670357 -0.82554919
58.175873 70.82753 -0.74806046
56.742744 72.507561 -0.62320232
52.822006 77.103767 -0.4810254
52.165268 77.873657 0
49.88467 80.547165 0.60742861
60.42004 68.191597 -0.90879047
59.85635 68.851593 -0.88014787
59.179363 69.644241 -0.82217079
58.171749 70.824005 -0.74806046
56.747673 72.491386 -0.62233829
52.814095 77.097015 -0.4810254
52.102814 77.929817 0
49.847675 80.570244 0.60858977
60.38282 68.224823 -0.9169417
59.866806 68.82753 -0.87668771
59.165932 69.646141 -0.82329768
58.173527 70.805252 -0.74677616
56.734058 72.486542 -0.6226263
52.805042 77.075584 -0.48073485
52.072449 77.931244 0
49.81752 80.56498 0.6090253
60.368069 68.231689 -0.91938424
59.867516 68.814903 -0.87530208
59.169044 69.628723 -0.82160848
58.168648 70.794319 -0.74634862
56.723808 72.477753 -0.6226263
52.796013 77.054169 -0.48044485
52.042065 77.932625 0
49.807671 80.535995 0.60858977
60.411308 68.171104 -0.90716213
59.832253 68.844139 -0.88153082
59.145679 69.642136 -0.82442236
58.160442 70.78727 -0.74634862
56.706829 72.476791 -0.62320232
52.783634 77.036682 -0.48029983
52.035416 77.906342 0
51.994099 77.954361 0.51410884
60.36108 68.219162 -0.91857004
59.839497 68.823914 -0.87876487
59.155457 69.617027 -0.82160848
58.155598 70.776321 -0.74592108
56.716858 72.444473 -0.62147313
52.774685 77.015244 -0.48000929
52.02203 77.887917 0
51.970467 77.947701 0.51439881
60.37862 68.188583 -0.91286451
59.843521 68.807495 -0.87668771
59.148674 69.611176 -0.82160848
58.144058 70.773132 -0.74634862
56.699898 72.443489 -0.62204915
52.752163 77.009544 -0.48029983
52.015457 77.861633 0
51.960411 77.925301 0.51410884
60.392979 68.161804 -0.90797627
59.83115 68.810043 -0.87807071
59.135246 69.612976 -0.82273316
58.142597 70.758301 -0.74549353
56.682919 72.44249 -0.6226263
52.750069 76.980232 -0.47971928
51.964638 77.886467 0
51.936794 77.918594 0.51439881
60.378223 68.16864 -0.91042197
59.831917 68.797432 -0.87668771
59.135128 69.599434 -0.82160848
58.127708 70.758965 -0.74634862
56.665943 72.441444 -0.62320232
52.748024 76.950935 -0.47913873
51.930801 77.891556 0
51.885895 77.943245 0.51585048
60.402405 68.130714 -0.90308803
59.803062 68.818871 -0.88153082
59.128365 69.593552 -0.82160848
58.129665 70.740242 -0.74506432
56.676128 72.40918 -0.62147313
52.732384 76.937332 -0.47913873
51.883263 77.912285 0
51.83152 77.971695 0.51744664
60.358418 68.171036 -0.91286451
59.826939 68.779785 -0.87530208
59.121609 69.587662 -0.82160848
58.114765 70.740891 -0.74592108
56.669373 72.396431 -0.62118512
52.716759 76.923706 -0.47913873
51.8288 77.940765 0
51.790718 77.98439 0.51846272
60.333839 68.188957 -0.91775584
59.817852 68.778519 -0.87599623
59.111519 69.585579 -0.82217079
58.110001 70.729912 -0.74549353
56.66605 72.379768 -0.62060797
52.718262 76.890518 -0.47841316
51.787964 77.953476 0
51.753304 77.99308 0.5193333
60.371159 68.136223 -0.90716213
59.80547 68.780998 -0.87737918
59.10812 69.575851 -0.82160848
58.098492 70.726646 -0.74592108
56.65593 72.370903 -0.62060797
52.709557 76.869057 -0.47812262
51.726494 77.989571 0
64 64 0
60.398815 68.094704 -0.8990109
59.783131 68.794762 -0.88083935
59.111458 69.558487 -0.81991929
58.097157 70.711792 -0.74506432
56.632156 72.377563 -0.62176114
52.700874 76.847603 -0.47783262
51.675232 78.013809 0
51.746964 77.932243 0.51817274
60.331757 68.160805 -0.914496
59.78397 68.782143 -0.87945634
59.098019 69.560211 -0.82104611
58.092442 70.700806 -0.74463677
56.635723 72.353134 -0.62060797
52.67849 76.841736 -0.47812262
51.603233 78.061371 0
51.737019 77.909622 0.51788217
60.32346 68.160072 -0.9153102
59.798138 68.754486 -0.87530208
59.091301 69.554283 -0.82104611
58.104744 70.670593 -0.74206978
56.625637 72.344231 -0.62060797
52.683624 76.804688 -0.47725207
51.520771 78.120476 0
51.730549 77.88311 0.51744664
60.357773 68.111229 -0.90553063
59.779087 68.764427 -0.87807071
59.084595 69.548347 -0.82104611
58.076267 70.686516 -0.74463677
56.62928 72.319824 -0.6194548
52.668159 76.791 -0.47725207
51.462299 78.152138 0
51.720669 77.860504 0.5171566
60.316696 68.147484 -0.914496
59.79332 68.736816 -0.87391907
59.091393 69.527206 -0.81879461
58.068192 70.679352 -0.74463677
56.608925 72.322517 -0.62031996
52.656174 76.773407 -0.47710648
51.44521 78.136978 0
51.714287 77.833992 0.51672107
60.347847 68.102409 -0.90553063
59.777588 68.742981 -0.87599623
59.077965 69.528854 -0.81991929
58.07378 70.656837 -0.74292487
56.605747 72.305862 -0.61974394
52.65802 76.74028 -0.47638094
51.407364 78.145134 0
51.697578 77.819138 0.51672107
60.365921 68.072189 -0.8998282
59.758495 68.752846 -0.87876487
59.078049 69.515327 -0.81879461
58.076 70.638176 -0.74164057
56.599171 72.293053 -0.6194548
52.639168 76.730461 -0.4765265
51.359093 78.164856 0
51.673965 77.812027 0.51701164
60.298393 68.137787 -0.9153102
59.769493 68.729012 -0.87530208
59.054451 69.528305 -0.82160848
58.050858 70.650162 -0.74378163
56.592602 72.280251 -0.61916679
52.63073 76.708969 -0.47623593
51.362816 78.126282 0
51.678078 77.773872 0.51614052
60.295895 68.135544 -0.9153102
59.743198 68.752617 -0.88014787
59.054501 69.521538 -0.82104611
58.067398 70.623611 -0.74121302
56.584152 72.279625 -0.6194548
52.616112 76.709846 -0.4765265
51.326504 78.149666 0
51.72176 77.708374 0.51396382
60.337128 68.079582 -0.90390223
59.777683 68.702667 -0.87184191
59.054626 69.507988 -0.81991929
58.052536 70.624084 -0.74206978
56.570686 72.274513 -0.61974394
52.621601 76.672874 -0.47565538
51.312889 78.13047 0
51.819775 77.565918 0.50917435
60.322277 68.086182 -0.90634793
59.755226 68.716209 -0.87530208
59.044567 69.505798 -0.8204838
58.044533 70.61689 -0.74206978
56.571079 72.253998 -0.61887878
52.609772 76.655258 -0.47551039
51.320202 78.088043 0
51.775581 77.582092 0.51033551
60.277618 68.125763 -0.9161244
59.749531 68.711075 -0.87530208
59.041332 69.496017 -0.81991929
58.022789 70.624939 -0.74378163
56.561111 72.24501 -0.61887878
52.601456 76.633759 -0.47521982
51.320618 78.053398 0
51.793999 77.528717 0.50888383
60.279263 68.113937 -0.914496
59.757301 68.691055 -0.87253338
59.031277 69.493805 -0.8204838
58.032017 70.598663 -0.74164057
56.565033 72.220673 -0.61772561
52.589684 76.616127 -0.47507483
51.300159 78.041924 0
51.683533 77.618034 0.51280272
60.28426 68.098442 -0.91205031
59.744892 68.693367 -0.87391907
59.028065 69.484024 -0.81991929
58.020588 70.595261 -0.74206978
56.534264 72.234665 -0.6194548
52.574448 76.602333 -0.47507483
51.311172 77.99572 0
51.604263 77.672432 0.51541495
60.305908 68.06469 -0.90553063
59.732479 68.695641 -0.87530208
59.014599 69.485535 -0.82104611
58.012623 70.588036 -0.74206978
56.527798 72.221817 -0.61916679
52.566212 76.580833 -0.47478482
51.287262 77.988083 0
51.594738 77.649765 0.51512498
60.307648 68.052917 -0.90390223
59.753841 68.660805 -0.86976475
59.021664 69.464485 -0.81879461
58.011589 70.573196 -0.74121302
56.521347 72.208961 -0.61887878
52.551018 76.567009 -0.47478482
51.273869 77.968872 0
51.592255 77.6194 0.51454437
60.269428 68.084946 -0.91205031
59.73468 68.670494 -0.87253338
59.025349 69.447205 -0.81710541
58.003651 70.565956 -0.74121302
56.514919 72.196106 -0.61859077
52.560375 76.526299 -0.47376871
51.257 77.953484 0
56.618584 72.082588 0.30569914
60.281181 68.06221 -0.90797627
59.708706 68.687546 -0.87668771
59.011902 69.448692 -0.81823224
57.995724 70.558701 -0.74121302
56.512016 72.179413 -0.61801362
52.531212 76.527802 -0.47434926
51.268265 77.907364 0
64 64 0
60.288105 68.035027 -0.90390223
59.707584 68.666084 -0.87461054
58.998749 69.436623 -0.81823224
57.976418 70.547951 -0.74164057
56.502781 72.149872 -0.61714846
52.522076 76.477104 -0.4734787
51.238216 77.872726 0
64 64 0
60.259785 68.055962 -0.90960467
59.691742 68.671959 -0.87668771
58.999081 69.423096 -0.81710541
57.985909 70.521797 -0.73950112
56.492939 72.140808 -0.61714846
52.51054 76.459396 -0.47333315
51.225002 77.853462 0
56.565514 72.062103 0.30627972
60.305206 67.997002 -0.8973825
59.689503 68.663071 -0.87599623
58.995979 69.413322 -0.81654304
57.974537 70.518311 -0.73993033
56.486614 72.127937 -0.61686045
52.506065 76.434067 -0.47289816
51.204727 77.84185 0
56.566353 72.041672 0.30584469
60.31382 67.978035 -0.89412266
59.704338 68.635773 -0.87184191
58.979073 69.418457 -0.81823224
57.973652 70.503487 -0.73907357
56.480312 72.115059 -0.61657244
52.487522 76.423981 -0.47304314
51.205711 77.807274 0
56.563713 72.025055 0.30555415
60.24173 68.046013 -0.91042197
59.695328 68.634247 -0.87253338
58.979454 69.40493 -0.81710541
57.958801 70.503731 -0.73993033
56.466995 72.109756 -0.61686045
52.476051 76.406258 -0.47289816
51.210285 77.768936 0
56.557552 72.01226 0.30540913
60.206532 68.07402 -0.91775584
59.706825 68.610687 -0.86907327
58.979847 69.391434 -0.81598073
57.957954 70.488899 -0.73907357
56.467766 72.089294 -0.61599642
52.464622 76.388504 -0.4727526
51.183014 77.7649 0
56.544338 72.007065 0.30555415
60.26907 67.997162 -0.90145653
59.677288 68.631172 -0.87391907
58.966408 69.392784 -0.81710541
57.943104 70.489113 -0.73993033
56.457996 72.080193 -0.61599642
52.463844 76.35936 -0.47217202
51.201912 77.711349 0
56.534668 71.998047 0.30555415
60.260868 67.996262 -0.90227073
59.702545 68.592979 -0.86769027
58.952946 69.394127 -0.81823224
57.928261 70.489281 -0.74078548
56.441177 72.078621 -0.61657244
52.445358 76.34922 -0.47231758
51.178234 77.703484 0
56.528557 71.985229 0.30540913
60.245895 68.002556 -0.90471643
59.67984 68.606079 -0.87115043
58.956863 69.3769 -0.81654304
57.923931 70.478195 -0.74035788
56.442043 72.058159 -0.61570728
52.437561 76.32766 -0.47202703
51.161686 77.687981 0
56.522469 71.972412 0.30526415
60.246857 67.996689 -0.90390223
59.656456 68.625404 -0.87530208
58.960579 69.36644 -0.81541622
57.927055 70.467033 -0.73950112
56.433624 72.057373 -0.61599642
52.426563 76.324463 -0.47217202
51.178364 77.653656 0
56.517651 71.967888 0.30526415
60.204773 68.031738 -0.91286451
59.685257 68.583626 -0.8683818
58.936672 69.378853 -0.81823224
57.926277 70.452217 -0.73864603
56.40617 72.067055 -0.6174376
52.440163 76.280205 -0.47101146
51.126205 77.676048 0
56.497353 71.970184 0.30569914
60.18972 68.037933 -0.9153102
59.679718 68.578407 -0.8683818
58.94413 69.357948 -0.81598073
57.918484 70.444878 -0.73864603
56.417736 72.035294 -0.61570728
52.425331 76.266228 -0.47101146
51.131119 77.637772 0
56.487728 71.961113 0.30569914
60.232395 67.983063 -0.90390223
59.677635 68.569542 -0.86769027
58.941162 69.348137 -0.81541622
57.907177 70.441246 -0.73907357
56.400917 72.033646 -0.61628443
52.417671 76.244675 -0.47072092
51.128956 77.607086 0
56.485252 71.944489 0.30540913
60.220791 67.985672 -0.90553063
59.644497 68.593445 -0.8732276
58.9347 69.342018 -0.81541622
57.913528 70.418976 -0.73736173
56.405449 72.009445 -0.61513126
52.413612 76.21936 -0.47028536
51.123272 77.580193 0
56.479229 71.931633 0.30526415
60.185329 68.013344 -0.91286451
59.62859 68.599075 -0.87530208
58.928249 69.335892 -0.81541622
57.902245 70.415337 -0.73778927
56.402912 71.992752 -0.61455411
52.395267 76.209122 -0.47043091
51.131962 77.538223 0
51.360771 77.297501 0.51236719
60.17025 68.01947 -0.9153102
59.647255 68.568375 -0.8704589
58.918293 69.33345 -0.81598073
57.901573 70.400536 -0.73693419
56.393261 71.983566 -0.61455411
52.394863 76.180046 -0.46985036
51.119213 77.51889 0
56.657242 71.706512 0.29728189
60.264404 67.911179 -0.89167696
59.645214 68.559471 -0.86976475
58.918877 69.319946 -0.81485385
57.897385 70.389458 -0.73650658
56.369328 71.989334 -0.61570728
52.383751 76.162247 -0.46970481
51.138832 77.465683 0
56.669479 71.675079 0.29641077
60.181053 67.988792 -0.91042197
59.650108 68.54335 -0.86769027
58.901905 69.324821 -0.81654304
57.889671 70.38208 -0.73650658
56.381138 71.957695 -0.61397809
52.383442 76.133186 -0.46912423
