# .PCD v0.7 - Point Cloud Data file format
VERSION 0.7
FIELDS x y z
SIZE 4 4 4
TYPE F F F
COUNT 1 1 1
WIDTH 1635
HEIGHT 1
VIEWPOINT 0 0 0 1 0 0 0
POINTS 1635
DATA ascii
73.157158 60.030773 -0.83193713
78.265678 57.816456 -0.86650896
80.136757 57.005424 -0.49118432
82.07814 56.163921 0
81.996063 56.199497 0.5477795
69.14196 61.778561 -0.92346144
69.907715 61.447739 -0.88776231
71.014549 60.969563 -0.84637326
73.124245 60.058132 -0.82851338
78.27314 57.833698 -0.86650896
80.130898 57.031105 -0.49074933
82.106705 56.177513 0
82.005478 56.221245 0.5477795
69.049301 61.825829 -0.90634793
69.850891 61.480675 -0.87876487
71.022888 60.976025 -0.84693778
73.133728 60.067123 -0.8289426
78.299583 57.842766 -0.86766213
80.144073 57.04855 -0.49089432
82.111366 56.201454 0
82.029182 56.236839 0.54821509
69.115517 61.804642 -0.91775584
69.867752 61.481815 -0.88083935
70.993843 60.998543 -0.84299701
73.152611 60.072094 -0.83022529
78.297516 57.864124 -0.86708611
80.157234 57.066013 -0.49103934
82.115997 56.225395 0
82.048096 56.254536 0.54850507
69.099983 61.8186 -0.914496
69.930756 61.463257 -0.88983679
71.011482 61.000999 -0.84468621
73.157349 60.083157 -0.83022529
78.323929 57.873276 -0.86823815
80.179939 57.079407 -0.4914749
82.13974 56.241146 0
82.066986 56.272266 0.5487951
69.12989 61.813137 -0.91938424
69.906136 61.482227 -0.88568515
71.005745 61.013462 -0.84355938
73.152641 60.098248 -0.82937014
78.321808 57.894638 -0.86766213
80.159592 57.111195 -0.49060377
82.149101 56.263069 0
82.071533 56.296139 0.54865009
69.118896 61.82513 -0.9169417
69.923027 61.483479 -0.88776231
71.009346 61.021931 -0.84355938
73.152626 60.111313 -0.8289426
78.352974 57.901836 -0.86910331
80.201393 57.116497 -0.49161988
82.182388 56.27483 0
82.090408 56.313911 0.54894066
69.126068 61.829391 -0.91775584
69.935295 61.486725 -0.88914531
70.994225 61.03833 -0.84130782
73.166763 60.118374 -0.82979774
78.369873 57.915146 -0.86968046
80.219284 57.132023 -0.49191046
82.182114 56.300869 0
82.094879 56.337807 0.5487951
69.069481 61.860573 -0.90716213
69.929092 61.497799 -0.88776231
71.021202 61.036903 -0.84412169
73.171448 60.129456 -0.82979774
78.4058 57.920448 -0.87140965
80.208412 57.159706 -0.49132988
82.177032 56.328911 0
82.108932 56.357651 0.54894066
69.093544 61.854042 -0.91123617
69.939842 61.49749 -0.88914531
71.027687 61.039169 -0.84468621
73.154861 60.142971 -0.82808584
78.390404 57.937187 -0.87025648
80.21254 57.169502 -0.49132988
82.176849 56.341919 0
82.099167 56.374649 0.54850507
69.114365 61.852543 -0.914496
69.90123 61.522148 -0.88291651
71.01252 61.055531 -0.84243464
73.154785 60.156021 -0.8276583
78.435875 57.93856 -0.87256283
80.230362 57.185074 -0.49161988
82.190903 56.36187 0
82.113159 56.394512 0.54865009
69.189919 61.82819 -0.92753547
69.913467 61.52541 -0.88429952
71.030121 61.058128 -0.84412169
73.164154 60.165104 -0.82808584
78.462273 57.948017 -0.873716
80.233795 57.206696 -0.4914749
82.200119 56.383854 0
82.131927 56.412388 0.54894066
69.119545 61.864906 -0.914496
69.985924 61.503586 -0.89468259
70.99617 61.082264 -0.83962077
73.173515 60.174206 -0.82851338
78.455246 57.971474 -0.87285084
80.27076 57.214317 -0.49234545
82.228508 56.397846 0
82.150665 56.430305 0.54923064
69.227089 61.827465 -0.93323785
69.956497 61.524303 -0.88983679
71.027832 61.079021 -0.84299701
73.19236 60.179379 -0.82979774
78.47686 57.982986 -0.873716
80.245369 57.24794 -0.49132988
82.228073 56.423866 0
82.155006 56.454235 0.54908562
69.069885 61.899986 -0.90471643
69.982658 61.521904 -0.89329696
71.036049 61.085571 -0.84355938
73.187492 60.194416 -0.8289426
78.498459 57.994541 -0.87458116
80.234314 57.275528 -0.49074933
82.251648 56.439919 0
82.159317 56.478165 0.54894066
69.063286 61.909882 -0.90308803
69.953194 61.54253 -0.88845378
71.034874 61.096016 -0.84299701
73.182587 60.209442 -0.82808584
78.515259 58.008121 -0.87515718
80.213593 57.307053 -0.48987821
82.24633 56.467941 0
82.149178 56.508045 0.54836005
69.189224 61.865231 -0.92508978
69.937599 61.557358 -0.88568515
71.033684 61.106449 -0.84243464
73.187157 60.220539 -0.82808584
78.512932 58.029594 -0.87458116
80.226486 57.324665 -0.49002376
82.265038 56.486034 0
82.163017 56.528004 0.54850507
69.205528 61.865875 -0.92753547
69.921974 61.572151 -0.88291651
71.055977 61.107239 -0.84468621
73.215462 60.221909 -0.83022529
78.539276 58.039288 -0.87573433
80.215309 57.352161 -0.48944321
82.269287 56.510082 0
82.181641 56.546017 0.5487951
69.162331 61.890865 -0.91938424
69.980644 61.556534 -0.89122242
71.064171 61.113846 -0.84524858
73.186768 60.246632 -0.82723075
78.556038 58.052952 -0.87631035
80.208893 57.377659 -0.48900765
82.278328 56.532166 0
82.195457 56.566021 0.54894066
69.018394 61.956745 -0.89330846
69.941772 61.580788 -0.88499367
71.058228 61.126221 -0.84412169
73.186546 60.25967 -0.82680321
78.572807 58.066639 -0.8768875
80.187988 57.409012 -0.48813653
82.287338 56.554256 0
82.20443 56.588013 0.54894066
69.135368 61.916351 -0.91368181
69.921432 61.597408 -0.88153082
71.028748 61.148121 -0.84018314
73.195808 60.268845 -0.82723075
78.579964 58.084251 -0.8768875
80.176682 57.43639 -0.48755598
82.286682 56.580269 0
82.198921 56.615875 0.54850507
69.105797 61.935532 -0.90797627
69.93364 61.6008 -0.88291651
71.069878 61.141376 -0.84468621
73.219353 60.272259 -0.8289426
78.591888 58.099934 -0.87717551
80.179787 57.457886 -0.48741099
82.305275 56.598469 0
82.207825 56.637871 0.54850507
69.222908 61.895515 -0.92834961
69.959801 61.598598 -0.88637662
71.059181 61.155621 -0.84299701
73.214317 60.287243 -0.82808584
78.637398 58.102104 -0.87948185
80.231056 57.459965 -0.48871711
82.319031 56.618649 0
82.216713 56.659878 0.54850507
69.133698 61.938667 -0.91205031
69.972023 61.602058 -0.88776231
71.067329 61.162258 -0.84355938
73.194977 60.307945 -0.82594645
78.634903 58.123653 -0.8789047
80.229309 57.483452 -0.4884271
82.332779 56.638847 0
82.244858 56.674149 0.54908562
69.154549 61.937527 -0.9153102
69.923668 61.62978 -0.88014787
71.099068 61.15947 -0.84693778
73.213737 60.313332 -0.82723075
78.64679 58.13942 -0.87919271
80.237175 57.503063 -0.4884271
82.331985 56.664875 0
82.244034 56.700066 0.5487951
69.244278 61.90897 -0.93079531
69.940514 61.631363 -0.88222498
71.097763 61.169937 -0.84637326
73.222946 60.322571 -0.8276583
78.658676 58.155201 -0.87948185
80.24501 57.52269 -0.4884271
82.345665 56.685104 0
82.248016 56.724037 0.54865009
69.075615 61.979774 -0.9006424
69.974564 61.621967 -0.88706815
71.066429 61.187374 -0.84243464
73.220406 60.33004 -0.82723075
78.681435 58.156406 -0.88063502
80.234436 57.538273 -0.48799154
82.350082 56.69619 0
82.262077 56.731216 0.54894066
69.229683 61.925766 -0.92753547
69.972771 61.631039 -0.88637662
71.088722 61.188423 -0.84468621
73.248688 60.331718 -0.82937014
78.664429 58.183693 -0.87919271
80.256729 57.552143 -0.4884271
82.349228 56.722198 0
82.261177 56.757122 0.54865009
69.071281 61.995682 -0.8990109
69.93364 61.654854 -0.88014787
71.106277 61.191391 -0.84637326
73.234016 60.350445 -0.8276583
78.690689 58.19381 -0.88034588
80.264503 57.571793 -0.4884271
82.367676 56.740555 0
82.279594 56.775368 0.54894066
69.202477 61.951092 -0.92182994
69.927139 61.665699 -0.87876487
71.109665 61.199978 -0.84637326
73.219315 60.369133 -0.82594645
78.692886 58.213459 -0.88005787
80.291603 57.583832 -0.48900765
82.376434 56.762753 0
82.297974 56.793655 0.54923064
69.181946 61.966408 -0.91775584
69.948616 61.665535 -0.88153082
71.098862 61.214134 -0.84468621
73.242805 60.372772 -0.8276583
78.723938 58.221771 -0.88149905
80.279991 57.611115 -0.4884271
82.38517 56.784962 0
82.287315 56.823364 0.54865009
69.207413 61.963669 -0.92182994
69.923409 61.683685 -0.87737918
71.092751 61.226421 -0.84355938
73.251961 60.382076 -0.82808584
78.721283 58.243328 -0.88092303
80.292534 57.628899 -0.48857209
82.384186 56.81097 0
82.291138 56.847359 0.54850507
69.191452 61.977142 -0.91857004
69.944901 61.683559 -0.88014787
71.110306 61.229458 -0.84524858
73.23719 60.400711 -0.82637399
78.728226 58.26112 -0.88092303
80.305061 57.646706 -0.48871711
82.388016 56.835079 0
82.319138 56.861916 0.54908562
69.272224 61.953003 -0.93242371
69.910278 61.705273 -0.87461054
71.108917 61.239887 -0.84468621
73.270256 60.400723 -0.8289426
78.749619 58.273304 -0.88178819
80.303047 57.67017 -0.4884271
82.411201 56.851654 0
82.332588 56.882179 0.54923064
69.237808 61.973644 -0.92590398
69.964523 61.692497 -0.88222498
71.10276 61.252151 -0.84355938
73.265015 60.415634 -0.82808584
78.74205 58.29673 -0.88092303
80.320366 57.686127 -0.48871711
82.414978 56.875782 0
82.32663 56.909962 0.5487951
69.235649 61.98175 -0.92508978
69.953262 61.705124 -0.88014787
71.11557 61.257076 -0.84468621
73.264557 60.428677 -0.8276583
78.76342 58.308964 -0.88178819
80.337692 57.70211 -0.48900765
82.433296 56.894291 0
82.349731 56.926502 0.54923064
69.19194 62.005798 -0.9169417
69.974762 61.705124 -0.88291651
71.133095 61.260212 -0.84637326
73.26886 60.439877 -0.8276583
78.775108 58.324955 -0.8820762
80.359848 57.716263 -0.48944321
82.432137 56.920307 0
82.343704 56.954269 0.5487951
69.120483 62.040344 -0.90390223
69.958786 61.719517 -0.88014787
71.136398 61.268833 -0.84637326
73.273155 60.451077 -0.8276583
78.772278 58.346512 -0.88149905
80.381973 57.730469 -0.48987821
82.440681 56.942581 0
82.361923 56.972725 0.54908562
69.210594 62.013073 -0.91938424
70.017799 61.705265 -0.88845378
71.120697 61.284702 -0.84412169
73.263046 60.467773 -0.82637399
78.764618 58.369888 -0.88063502
80.389542 57.750267 -0.48987821
82.444336 56.966721 0
82.389824 56.987507 0.54966617
69.192268 62.03442 -0.9153102
69.943558 61.750011 -0.87668771
71.127243 61.301918 -0.84412169
73.281166 60.48653 -0.82723075
78.778175 58.405586 -0.88063502
80.385147 57.797253 -0.48929766
82.475883 57.005787 0
82.396988 57.035652 0.54937565
69.222397 62.030224 -0.92020154
69.979118 61.744804 -0.88153082
71.144768 61.305149 -0.84581089
73.256569 60.508621 -0.82466209
78.784927 58.423447 -0.88063502
80.412086 57.809719 -0.48987821
82.459976 57.037296 0
82.405388 57.057888 0.54937565
69.016556 62.114788 -0.88352889
70.033508 61.732613 -0.88914531
71.152771 61.312 -0.84637326
73.275208 60.514389 -0.82594645
78.786797 58.443142 -0.88034588
80.424431 57.827721 -0.49002376
82.502472 57.046795 0
82.408905 57.081959 0.54923064
69.207443 62.046638 -0.9169417
69.964424 61.762688 -0.87876487
71.144882 61.319885 -0.84524858
73.277313 60.519993 -0.82594645
78.790154 58.452076 -0.88034588
80.428162 57.837646 -0.49002376
82.487175 57.065289 0
82.417938 57.091259 0.54937565
69.182014 62.063316 -0.91205031
70.014114 61.752335 -0.88568515
71.157631 61.324966 -0.84637326
73.291138 60.527607 -0.82680321
78.796844 58.469952 -0.88034588
80.420982 57.862961 -0.4895882
82.490669 57.089451 0
82.41655 57.117153 0.54908562
69.082443 62.107525 -0.89412266
70.035637 61.752602 -0.88845378
71.146584 61.338932 -0.84468621
73.300133 60.537048 -0.82723075
78.793831 58.49144 -0.87976986
80.428391 57.882805 -0.4895882
82.523392 57.102718 0
82.429718 57.1376 0.54923064
69.223755 62.062092 -0.91857004
70.014832 61.76862 -0.88499367
71.149796 61.347569 -0.84468621
73.304306 60.548286 -0.82723075
78.810165 58.505726 -0.88034588
80.445503 57.899048 -0.48987821
82.536583 57.123299 0
82.437996 57.159874 0.54923064
69.082367 62.121525 -0.89330846
69.970451 61.793285 -0.87807071
71.167282 61.350929 -0.84637326
73.298828 60.563095 -0.82637399
78.792542 58.532589 -0.8789047
80.433365 57.926132 -0.48929766
82.540001 57.147503 0
82.451118 57.180355 0.54937565
69.038239 62.144753 -0.88515729
69.991943 61.793568 -0.88083935
71.16095 61.363102 -0.84524858
73.298164 60.576107 -0.82594645
78.784584 58.555824 -0.87804067
80.440689 57.945992 -0.48929766
82.558044 57.166309 0
82.454475 57.204449 0.54923064
69.198257 62.09296 -0.91286451
70.022881 61.790436 -0.88499367
71.164124 61.371758 -0.84524858
73.307114 60.585579 -0.82637399
78.810562 58.566574 -0.87919271
80.44799 57.965862 -0.48929766
82.566292 57.18874 0
82.457794 57.228542 0.54908562
69.246994 62.082272 -0.92101574
69.983131 61.813217 -0.87876487
71.162529 61.382156 -0.84468621
73.311226 60.596825 -0.82637399
78.821991 58.582691 -0.87948185
80.450394 57.987522 -0.48915264
82.56472 57.214752 0
82.490364 57.241932 0.54981118
69.142471 62.127514 -0.90227073
70.014053 61.81015 -0.88291651
71.160896 61.392559 -0.84412169
73.324989 60.604561 -0.82723075
78.818787 58.604149 -0.8789047
80.457649 58.007404 -0.48915264
82.592468 57.230068 0
82.49852 57.264278 0.54981118
69.135445 62.137096 -0.9006424
70.040276 61.808865 -0.88637662
71.159271 61.402943 -0.84355938
73.309784 60.622837 -0.82551885
78.835037 58.618526 -0.87948185
80.464874 58.027294 -0.48915264
82.590858 57.256084 0
82.49688 57.290176 0.54952121
69.105141 62.155064 -0.89493686
70.02404 61.822987 -0.88360798
71.171974 61.408138 -0.84468621
73.333168 60.627106 -0.82723075
78.836647 58.638218 -0.87919271
80.432983 58.061325 -0.48799154
82.584305 57.283863 0
82.51474 57.309002 0.54981118
69.167824 62.139469 -0.90553063
70.026665 61.830265 -0.88360798
71.165527 61.42025 -0.84355938
73.313087 60.647079 -0.8250913
78.828529 58.6614 -0.87832868
80.459702 58.074142 -0.48857209
82.607101 57.301029 0
82.513046 57.334896 0.54952121
69.193329 62.137371 -0.90960467
70.000954 61.84771 -0.87945634
71.173416 61.427197 -0.84412169
73.32679 60.654873 -0.82594645
78.839828 58.677578 -0.87861669
80.452171 58.0993 -0.48813653
82.605377 57.327038 0
82.545532 57.348499 0.55024678
69.097847 62.178566 -0.89249432
70.08387 61.826263 -0.89122242
71.166962 61.439285 -0.84299701
73.340508 60.662689 -0.82680321
78.846252 58.695511 -0.87861669
80.449509 58.122677 -0.48784652
82.608528 57.351273 0
82.543762 57.374413 0.5499562
69.006905 62.21788 -0.87619501
70.062866 61.84203 -0.88776231
71.170044 61.447945 -0.84299701
73.354195 60.670536 -0.8276583
78.852654 58.713455 -0.87861669
80.471298 58.137329 -0.48828208
82.636162 57.366779 0
82.571335 57.389854 0.55053675
69.172104 62.166119 -0.90471643
70.018166 61.866127 -0.88083935
71.192284 61.449818 -0.84524858
73.329185 60.692131 -0.8250913
78.873657 58.726219 -0.87948185
80.47345 58.158978 -0.48813653
82.62944 57.394524 0
82.559723 57.419243 0.5499562
69.234901 62.150967 -0.9153102
70.016014 61.875069 -0.88014787
71.195358 61.458511 -0.84524858
73.333176 60.703407 -0.8250913
78.860512 58.751083 -0.87832868
80.480499 58.178886 -0.48813653
82.652138 57.411835 0
82.572571 57.439938 0.55010176
69.185852 62.175339 -0.90634793
70.009117 61.88567 -0.87876487
71.208008 61.463837 -0.84637326
73.356522 60.70787 -0.82680321
78.866844 58.769043 -0.87832868
80.458115 58.209148 -0.48726597
82.655182 57.436104 0
82.600098 57.455486 0.55068231
69.247581 62.157181 -0.9169417
70.071938 61.867687 -0.88776231
71.219131 61.464821 -0.84750009
73.348816 60.71693 -0.82594645
78.865128 58.779739 -0.87804067
80.476326 58.213924 -0.48770154
82.664047 57.445652 0
82.589333 57.471893 0.55024678
69.184471 62.186375 -0.90553063
70.027138 61.891598 -0.88083935
71.2174 61.47522 -0.84693778
73.333389 60.735008 -0.82423455
78.846992 58.806252 -0.87659836
80.468582 58.238987 -0.48726597
82.676865 57.466492 0
82.616829 57.487495 0.55082732
69.209999 62.184509 -0.90960467
70.077072 61.882366 -0.88776231
71.196442 61.49231 -0.84412169
73.347031 60.742908 -0.8250913
78.872795 58.817387 -0.87775153
80.500069 58.250343 -0.48799154
82.689651 57.487354 0
82.619781 57.511703 0.55068231
69.33828 62.147041 -0.93160951
69.965866 61.929199 -0.87115043
71.237869 61.487675 -0.84862477
73.341255 60.757576 -0.82423455
78.844856 58.847229 -0.87573433
80.497192 58.273689 -0.48770154
82.687683 57.513351 0
82.627609 57.534206 0.55068231
69.144302 62.221333 -0.8973825
70.006294 61.923294 -0.87668771
71.207291 61.508041 -0.84468621
73.364578 60.762154 -0.82594645
78.855957 58.86348 -0.87602234
80.504097 58.293625 -0.48770154
82.690598 57.537636 0
82.635406 57.556717 0.55068231
69.347412 62.158337 -0.93242371
70.051491 61.915848 -0.88291651
71.219902 61.513447 -0.84581089
73.35878 60.77681 -0.8250913
78.827904 58.89323 -0.87400401
80.496239 58.318653 -0.48726597
82.737762 57.546665 0
82.62352 57.58601 0.55010176
69.237411 62.203297 -0.91286451
70.063492 61.91991 -0.88429952
71.208473 61.527122 -0.84412169
73.367523 60.786457 -0.82551885
78.843864 58.907787 -0.87458116
80.508003 58.336903 -0.48741099
82.725845 57.576065 0
82.645996 57.603462 0.55053675
69.300407 62.188843 -0.92346144
70.047005 61.933727 -0.88153082
71.20665 61.537476 -0.84355938
73.371399 60.797779 -0.82551885
78.835312 58.930748 -0.873716
80.529587 58.35181 -0.48784652
82.753296 57.591965 0
82.668465 57.620953 0.55097228
69.227715 62.220734 -0.91042197
70.078011 61.931332 -0.88568515
71.214432 61.544548 -0.84412169
73.370399 60.810757 -0.8250913
78.821838 58.955345 -0.87256283
80.506897 58.381832 -0.48697597
82.761032 57.614632 0
82.671242 57.645187 0.55082732
69.229858 62.227051 -0.91042197
70.023483 61.958008 -0.87737918
71.222214 61.551632 -0.84468621
73.349922 60.83033 -0.82295024
78.808327 58.9799 -0.87140965
80.513672 58.401779 -0.48697597
82.744072 57.645664 0
82.678909 57.667755 0.55082732
69.246033 62.22863 -0.91286451
70.068726 61.950844 -0.88360798
71.21553 61.563614 -0.84355938
73.382942 60.831768 -0.82551885
78.804588 59.001102 -0.87083364
80.520424 58.421738 -0.48697597
82.766533 57.663319 0
82.686546 57.690327 0.55082732
69.360619 62.197155 -0.93242371
70.080719 61.954975 -0.88499367
71.242546 61.564236 -0.84637326
73.396484 60.83984 -0.82637399
78.805702 59.020649 -0.87054449
80.551773 58.433422 -0.48770154
82.774178 57.686001 0
82.68924 57.714569 0.55068231
69.344048 62.209911 -0.92916381
70.09269 61.959141 -0.88637662
71.235855 61.576214 -0.84524858
73.405182 60.84956 -0.82680321
78.806808 59.040184 -0.87025648
80.533852 58.461678 -0.48697597
82.791672 57.705379 0
82.691879 57.738808 0.55053675
69.26181 62.244526 -0.914496
70.057076 61.979206 -0.88083935
71.238785 61.584961 -0.84524858
73.389496 60.867428 -0.8250913
78.81279 59.058079 -0.87025648
80.540535 58.481659 -0.48697597
82.799263 57.728092 0
82.699425 57.761398 0.55053675
69.371811 62.215038 -0.93323785
70.040466 61.992855 -0.87807071
71.241692 61.593708 -0.84524858
73.383522 60.882015 -0.82423455
78.813843 59.07761 -0.86996847
80.561966 58.496738 -0.48741099
82.76236 57.765587 0
82.697098 57.787273 0.55024678
69.312958 62.241722 -0.92264408
70.014313 62.009613 -0.87391907
71.23494 61.605656 -0.84412169
73.411652 60.885292 -0.82637399
78.819786 59.095512 -0.86996847
80.460075 58.552673 -0.48421818
82.774834 57.786621 0
82.684853 57.816399 0.54966617
69.385506 62.22493 -0.93486935
70.078659 61.996464 -0.88291651
71.252312 61.609627 -0.84581089
73.420296 60.895054 -0.82680321
78.825699 59.113426 -0.86996847
80.417297 58.588829 -0.48276708
82.77243 57.812576 0
79.489197 58.894737 0.45547527
69.306755 62.25444 -0.92101574
70.070328 62.003273 -0.88153082
71.239265 61.618774 -0.84412169
73.417282 60.902355 -0.82637399
78.823738 59.123997 -0.86968046
79.79364 58.804966 -0.46433532
79.592155 58.871243 0
79.452805 58.91708 0.45431471
69.318245 62.257778 -0.92264408
70.06797 62.012173 -0.88083935
71.246979 61.625935 -0.84468621
73.425911 60.912132 -0.82680321
78.805023 59.149971 -0.86823815
79.572731 58.898472 -0.45765921
79.459839 58.935455 0
79.439178 58.942226 0.45373416
69.28746 62.274933 -0.9169417
70.075134 62.017952 -0.88153082
71.273994 61.626816 -0.84750009
73.429634 60.923523 -0.82680321
78.825638 59.163048 -0.86910331
79.529472 58.933414 -0.45620751
79.391739 58.978352 0
79.469978 58.952827 0.45445973
69.162605 62.322567 -0.89493686
70.087082 62.02219 -0.88291651
71.276855 61.635605 -0.84750009
73.413811 60.941269 -0.8250913
78.816704 59.18576 -0.86823815
79.525703 58.955391 -0.45591754
79.447289 58.980873 0
64 64 0
64 64 -0
70.10379 62.02491 -0.88499367
71.265198 61.649094 -0.84581089
73.417503 60.952644 -0.8250913
78.82251 59.203667 -0.86823815
79.526848 58.975754 -0.45577252
79.45829 58.99794 0
64 64 0
69.204285 62.322918 -0.90145653
70.120483 62.027672 -0.88706815
71.282555 61.653198 -0.84750009
73.435822 60.959305 -0.82637399
78.80368 59.229515 -0.86679697
79.518066 58.999302 -0.45533696
79.469292 59.015022 0
79.42881 59.028065 0.45271805
64 64 -0
70.122864 62.035069 -0.88706815
71.261192 61.669762 -0.84468621
73.429718 60.973843 -0.82551885
78.819298 59.24424 -0.86737412
79.543892 59.011703 -0.45591754
79.450508 59.041672 0
79.370483 59.067352 0.45083138
69.264824 62.317444 -0.91123617
70.072678 62.059269 -0.87945634
71.244644 61.684723 -0.84243464
73.433372 60.985241 -0.82551885
78.815163 59.265301 -0.86679697
79.559799 59.027328 -0.45620751
79.451538 59.061928 0
79.406128 59.076439 0.45170194
64 64 -0
70.094139 62.06052 -0.88222498
71.276482 61.684235 -0.84581089
73.437012 60.996639 -0.82551885
78.83567 59.2785 -0.86766213
79.521233 59.060318 -0.4549014
79.531891 59.056923 0
79.436821 59.087181 0.45242748
69.330132 62.31076 -0.92182994
70.101257 62.066372 -0.88291651
71.284111 61.691498 -0.84637326
73.440628 61.008045 -0.82551885
78.836433 59.297989 -0.86737412
79.581688 59.061802 -0.45649809
79.587463 59.059971 0
82.900513 58.009987 0.55373007
69.214317 62.354393 -0.90145653
70.017471 62.100922 -0.8704589
71.267509 61.706417 -0.84412169
73.458931 61.014816 -0.82680321
78.827301 59.320591 -0.86650896
80.197189 58.888264 -0.47434926
79.672836 59.053745 0
82.868088 58.045341 0.55256897
69.277603 62.341427 -0.91205031
70.086761 62.087139 -0.88014787
71.284828 61.710629 -0.84581089
73.452728 61.029331 -0.82594645
78.847755 59.333858 -0.86737412
80.669365 58.761387 -0.48799154
82.945969 58.045929 0
82.8703 58.06971 0.55242342
64 64 -0
70.093857 62.092995 -0.88083935
71.273033 61.723988 -0.84412169
73.451416 61.042286 -0.82551885
78.83857 59.356438 -0.86650896
80.725288 58.76601 -0.48944321
82.973015 58.062607 0
82.872498 58.094063 0.5522784
69.512848 62.282127 -0.95198286
70.096153 62.100361 -0.88083935
71.290337 61.728241 -0.84581089
73.459877 61.052185 -0.82594645
78.819481 59.382065 -0.86506778
80.746475 58.78159 -0.48987821
82.955338 58.093281 0
82.874664 58.118416 0.55213344
69.217499 62.381077 -0.9006424
70.10804 62.104752 -0.88222498
71.288223 61.738556 -0.84524858
73.443817 61.069702 -0.82423455
78.790459 59.410706 -0.86304945
80.737885 58.806442 -0.48944321
82.987305 58.108475 0
82.886719 58.13969 0.5522784
69.285561 62.366955 -0.91205031
70.09594 62.116577 -0.88014787
71.290955 61.747364 -0.84524858
73.462074 61.076569 -0.82551885
64 64 -0
80.759033 58.822075 -0.48987821
82.989441 58.132957 0
82.903725 58.159443 0.55256897
69.386742 62.342823 -0.92916381
70.088631 62.126892 -0.87876487
71.303375 61.753189 -0.84637326
73.450874 61.092533 -0.82423455
78.687805 59.481441 -0.85641956
80.765274 58.842327 -0.48987821
83.011452 58.151314 0
82.910767 58.182289 0.55256897
69.198738 62.404095 -0.89656836
70.041786 62.145298 -0.87184191
71.285301 61.763565 -0.84412169
73.47226 61.092216 -0.82594645
78.695473 59.4888 -0.85670757
80.773376 58.850929 -0.49002376
83.01001 58.164326 0
82.919243 58.192192 0.55271399
69.328285 62.371368 -0.91857004
70.115997 62.1306 -0.88222498
71.307434 61.76643 -0.84637326
73.470863 61.105164 -0.82551885
78.720695 59.500511 -0.85786074
80.794479 58.866646 -0.49045876
83.036957 58.181217 0
82.926247 58.215057 0.55271399
69.443748 62.343269 -0.93812925
70.094261 62.145294 -0.87876487
71.310127 61.775261 -0.84637326
73.479256 61.115116 -0.82594645
78.745918 59.512276 -0.85901392
80.780777 58.892994 -0.48987821
83.009109 58.214832 0
82.93322 58.23793 0.55271399
69.346405 62.379948 -0.92101574
70.134895 62.141026 -0.88429952
71.283638 61.792934 -0.84299701
73.467995 61.131039 -0.82466209
78.771133 59.524097 -0.86016709
80.796898 58.910259 -0.49016878
83.01609 58.237804 0
82.945137 58.259304 0.55285901
64 64 -0
70.098724 62.160027 -0.87876487
71.296021 61.798805 -0.84412169
73.471451 61.142483 -0.82466209
78.82605 59.527012 -0.86304945
80.812973 58.927559 -0.49045876
83.018059 58.262287 0
82.962021 58.279194 0.55314952
69.355034 62.391453 -0.92182994
70.134567 62.157299 -0.88360798
71.284088 61.812004 -0.84243464
73.479828 61.152447 -0.8250913
78.876022 59.531536 -0.8656438
80.809143 58.950863 -0.49016878
83.034943 58.28228 0
82.968918 58.302113 0.55314952
69.314354 62.410671 -0.914496
70.117561 62.170464 -0.88083935
71.311066 61.813526 -0.84524858
73.488174 61.162434 -0.82551885
78.921059 59.537655 -0.86795014
80.810257 58.972664 -0.49002376
83.041832 58.305283 0
82.975792 58.325035 0.55314952
69.297318 62.422737 -0.91123617
70.129395 62.174988 -0.88222498
71.323441 61.819466 -0.84637326
73.4916 61.173901 -0.82551885
78.921494 59.557163 -0.86766213
80.831253 58.988537 -0.49045876
83.058685 58.325325 0
82.98761 58.346485 0.55329454
69.353271 62.420151 -0.92020154
70.104904 62.19833 -0.87807071
71.333572 61.835728 -0.84693778
73.493484 61.198299 -0.8250913
78.932182 59.593235 -0.86766213
80.828377 59.033634 -0.49002376
83.052376 58.377289 0
83.016174 58.387974 0.55373007
69.412071 62.409904 -0.92997801
70.145584 62.194393 -0.88360798
71.331291 61.846027 -0.84637326
73.496857 61.20977 -0.8250913
78.942459 59.609825 -0.86795014
80.84433 59.051044 -0.49031377
83.069138 58.397385 0
83.012962 58.413887 0.55343956
69.328598 62.441422 -0.9153102
70.070709 62.224358 -0.87253338
71.319275 61.859161 -0.84468621
73.485435 61.225574 -0.823807
78.947746 59.627884 -0.86795014
80.865265 59.067024 -0.49074933
83.07589 58.420429 0
83.014709 58.438324 0.55329454
69.373192 62.435425 -0.92264408
70.169205 62.20364 -0.88637662
71.312088 61.87085 -0.84355938
73.518349 61.228428 -0.82637399
78.948059 59.647392 -0.86766213
80.876198 59.085953 -0.49089432
83.06263 58.449303 0
83.036392 58.456944 0.55373007
64 64 -0
70.137627 62.220875 -0.88153082
71.3293 61.875443 -0.84524858
73.49704 61.247074 -0.82423455
78.953308 59.665459 -0.86766213
80.882118 59.10635 -0.49089432
83.089317 58.466545 0
83.043076 58.47995 0.55373007
64 64 -0
70.159058 62.222729 -0.88429952
71.32209 61.887119 -0.84412169
73.500359 61.258553 -0.82423455
78.96846 59.680664 -0.86823815
80.90799 59.120987 -0.4914749
83.095993 58.489616 0
83.049728 58.502964 0.55373007
69.302811 62.476746 -0.90960467
70.127457 62.239864 -0.87945634
71.334412 61.893162 -0.84524858
73.503662 61.270035 -0.82423455
78.963737 59.701607 -0.86766213
80.913879 59.141422 -0.4914749
83.102631 58.512691 0
83.056358 58.525986 0.55373007
69.375938 62.462769 -0.92182994
70.100624 62.255547 -0.87530208
71.356499 61.896435 -0.84750009
73.521767 61.277283 -0.82551885
78.968918 59.719688 -0.86766213
80.909729 59.164722 -0.49118432
83.11927 58.532913 0
83.072945 58.546158 0.55402011
69.120186 62.539246 -0.87782335
70.198181 62.231705 -0.88914531
71.318672 61.912033 -0.84299701
73.533279 61.280224 -0.82637399
78.961563 59.731571 -0.86708611
80.922653 59.172085 -0.4914749
83.117554 58.545898 0
83.08123 58.556259 0.55416512
69.240822 62.511677 -0.8981967
70.137566 62.257011 -0.88014787
71.335861 61.916714 -0.84468621
73.511871 61.298756 -0.82423455
78.97168 59.748241 -0.86737412
80.928474 59.192535 -0.4914749
83.124123 58.569 0
83.087791 58.579319 0.55416512
69.28067 62.507252 -0.90471643
70.13485 62.265793 -0.87945634
71.31881 61.931107 -0.84243464
73.529953 61.306061 -0.82551885
78.966843 59.76915 -0.86679697
80.954277 59.20734 -0.49205545
83.140701 58.589279 0
83.09433 58.602386 0.55416512
69.548927 62.43866 -0.95035136
70.175575 62.262333 -0.88499367
71.345764 61.933071 -0.84524858
73.548035 61.313404 -0.82680321
78.971947 59.787239 -0.86679697
80.945038 59.232056 -0.49161988
83.132187 58.616642 0
83.110855 58.622643 0.55445564
69.388977 62.490692 -0.92264408
70.139023 62.280624 -0.87945634
71.348251 61.941948 -0.84524858
73.516655 61.334637 -0.823807
78.967072 59.808121 -0.86622095
80.960808 59.249725 -0.49191046
83.173767 58.629936 0
83.127335 58.642941 0.55474567
64 64 -0
70.150749 62.285351 -0.88083935
71.326263 61.957649 -0.84243464
73.539658 61.340622 -0.82551885
78.952194 59.831764 -0.86506778
80.931488 59.279995 -0.49089432
83.190262 58.650314 0
64 64 0
64 64 -0
70.162498 62.290096 -0.88222498
71.328728 61.966507 -0.84243464
73.528015 61.35627 -0.82423455
78.957222 59.849834 -0.86506778
80.942184 59.299068 -0.49103934
83.191704 58.674896 0
64 64 0
69.504005 62.479969 -0.94138908
70.14521 62.302887 -0.87945634
71.355667 61.968597 -0.84524858
73.541107 61.365047 -0.8250913
78.95224 59.870667 -0.86449063
80.942848 59.320923 -0.49089432
83.203133 58.696705 0
83.166664 58.706776 0.55532622
69.372375 62.523304 -0.91857004
70.142426 62.311642 -0.87876487
71.367905 61.974796 -0.84637326
73.55912 61.372501 -0.82637399
78.967209 59.88599 -0.86506778
80.918434 59.349663 -0.49002376
83.224586 58.715771 0
83.198097 58.723053 0.55605179
69.402779 62.521969 -0.92346144
70.212204 62.300533 -0.88845378
71.380157 61.981018 -0.84750009
73.537537 61.390827 -0.82423455
78.97715 59.902714 -0.86535579
80.929047 59.368736 -0.49016878
83.220909 58.741753 0
83.279655 58.725685 0.55822903
69.499931 62.502529 -0.93975759
70.185196 62.315952 -0.88429952
71.358078 61.996609 -0.84468621
73.550598 61.399651 -0.8250913
78.992081 59.918095 -0.86593294
80.909561 59.396019 -0.48944321
83.322678 58.739002 0
83.361214 58.728508 0.56040567
64 64 -0
70.182388 62.324738 -0.88360798
71.340874 62.010818 -0.84243464
73.548759 61.41254 -0.82466209
78.987007 59.938923 -0.86535579
80.900063 59.420536 -0.48900765
83.419434 58.73785 0
83.397675 58.743748 0.56127679
69.236282 62.587898 -0.89412266
70.174728 62.33482 -0.88222498
71.328552 62.023663 -0.84074545
73.576683 61.417393 -0.82680321
78.996895 59.955688 -0.8656438
80.895538 59.443668 -0.48871711
83.501167 58.74099 0
83.409027 58.765839 0.56142181
69.514885 62.519913 -0.94138908
70.152512 62.348782 -0.87876487
71.375099 62.020664 -0.84581089
73.574821 61.430302 -0.82637399
78.99678 59.975151 -0.86535579
80.901031 59.464085 -0.48871711
83.492424 58.768604 0
83.405304 58.791985 0.56113178
64 64 -0
70.188423 62.34716 -0.88360798
71.372581 62.030888 -0.84524858
73.568008 61.444519 -0.82551885
79.011635 59.990601 -0.86593294
80.906494 59.484512 -0.48871711
83.393127 58.820366 0
83.366379 58.827511 0.55982512
64 64 -0
70.151619 62.364948 -0.87807071
71.37986 62.03849 -0.84581089
73.571091 61.456081 -0.82551885
78.986465 60.01672 -0.86420262
80.901909 59.50761 -0.4884271
83.354111 58.855835 0
83.337479 58.860256 0.55880958
69.448524 62.558872 -0.92916381
70.2118 62.356987 -0.88637662
71.396973 62.04351 -0.84750009
73.58905 61.463707 -0.82680321
79.006271 60.030861 -0.86506778
80.927422 59.52272 -0.48900765
83.309998 58.892532 0
83.303482 58.894257 0.55764842
64 64 -0
70.198235 62.364582 -0.88429952
71.398155 62.047981 -0.84750009
73.575684 61.473434 -0.82551885
78.998657 60.042568 -0.86449063
80.930122 59.532948 -0.48900765
83.308029 58.905529 0
83.316605 58.903271 0.55793846
64 64 -0
70.253593 62.358055 -0.89191395
71.410324 62.05434 -0.84862477
73.583694 61.483704 -0.82594645
79.008446 60.05938 -0.86477977
80.930481 59.554726 -0.48886266
83.314178 58.928864 0
83.297615 58.933212 0.55721289
64 64 -0
70.202171 62.379566 -0.88429952
71.358604 62.077423 -0.84243464
73.576797 61.497879 -0.8250913
79.023193 60.074902 -0.86535579
80.950912 59.571251 -0.48929766
83.330368 58.94957 0
83.3339 58.948647 0.55808401
64 64 -0
70.223549 62.382011 -0.88706815
71.395332 62.07737 -0.84637326
73.60466 61.502995 -0.82723075
79.002899 60.099564 -0.86391461
80.966324 59.589115 -0.4895882
83.331421 58.974239 0
83.309807 58.979862 0.55721289
64 64 -0
70.225494 62.38953 -0.88706815
71.397652 62.086308 -0.84637326
73.602699 61.515884 -0.82680321
79.022629 60.113808 -0.86477977
80.961563 59.612225 -0.48929766
83.362671 58.991085 0
83.310829 59.004498 0.55706787
64 64 -0
70.22744 62.397057 -0.88706815
71.390121 62.097778 -0.84524858
73.580818 61.533894 -0.82466209
79.037323 60.129387 -0.86535579
80.971901 59.631424 -0.48944321
83.353584 59.018379 0
83.34201 59.021358 0.55779344
64 64 -0
70.190483 62.414539 -0.88153082
71.397339 62.10545 -0.84581089
73.59375 61.542919 -0.82551885
79.046997 60.146278 -0.8656438
80.977173 59.651936 -0.48944321
83.36969 59.039181 0
83.337952 59.04731 0.55750346
64 64 -0
70.197273 62.420776 -0.88222498
71.384842 62.118156 -0.84412169
73.611641 61.550709 -0.82680321
79.046631 60.165737 -0.86535579
80.977356 59.67374 -0.48929766
83.355492 59.06773 0
83.323776 59.075813 0.55692291
69.467827 62.613693 -0.92997801
70.174866 62.434433 -0.87876487
71.411751 62.120831 -0.84693778
73.57975 61.571159 -0.823807
79.051254 60.183922 -0.86535579
80.977539 59.695534 -0.48915264
83.381615 59.086006 0
83.349869 59.094055 0.55750346
64 64 -0
70.215652 62.432079 -0.88429952
71.404152 62.132278 -0.84581089
73.592628 61.580227 -0.82466209
79.050842 60.203373 -0.86506778
80.997849 59.712234 -0.4895882
83.387543 59.109428 0
83.350723 59.118713 0.55735791
64 64 -0
70.25161 62.431042 -0.88914531
71.426125 62.136276 -0.84806246
73.625435 61.58432 -0.82723075
79.075493 60.216526 -0.86622095
80.997986 59.734039 -0.48944321
83.413628 59.127789 0
83.391899 59.133244 0.55837399
64 64 -0
70.238892 62.442245 -0.88706815
71.443161 62.141556 -0.84975165
73.608421 61.600925 -0.82551885
79.085068 60.233494 -0.86650896
80.99807 59.755844 -0.48929766
83.419502 59.151249 0
83.382637 59.160454 0.55793846
69.488853 62.636562 -0.93242371
70.221298 62.454624 -0.88429952
71.420746 62.156677 -0.84693778
73.626266 61.608822 -0.82680321
79.079575 60.254215 -0.86593294
80.993111 59.778889 -0.48900765
83.43544 59.172211 0
83.393524 59.182625 0.55808401
64 64 -0
70.193939 62.46936 -0.88014787
71.432831 62.163208 -0.84806246
73.614189 61.624153 -0.82551885
79.089104 60.271198 -0.86622095
81.013336 59.795685 -0.48944321
83.446304 59.19445 0
83.414452 59.202324 0.55851901
69.46814 62.655727 -0.92834961
70.229897 62.46846 -0.88499367
71.415306 62.177044 -0.84581089
73.632011 61.632095 -0.82680321
79.088585 60.290665 -0.86593294
81.018402 59.816246 -0.48944321
83.452103 59.217953 0
83.420235 59.225784 0.55851901
69.407341 62.677601 -0.91775584
70.221985 62.478374 -0.88360798
71.427383 62.183586 -0.84693778
73.619904 61.647392 -0.82551885
79.088013 60.310135 -0.8656438
81.023453 59.836811 -0.48944321
83.473038 59.237747 0
83.436096 59.246784 0.55880958
69.413734 62.682968 -0.91857004
70.287193 62.470478 -0.89260542
71.429573 62.192562 -0.84693778
73.617752 61.660233 -0.8250913
79.072357 60.33326 -0.86449063
81.033508 59.856155 -0.4895882
83.488884 59.258823 0
83.436783 59.2715 0.55866456
64 64 -0
70.206139 62.498135 -0.88083935
71.402107 62.208717 -0.84355938
73.61058 61.674271 -0.82423455
79.096886 60.346607 -0.8656438
81.023346 59.880409 -0.48915264
83.504723 59.279922 0
83.462685 59.2901 0.55924511
64 64 -0
70.182663 62.507771 -0.87737918
71.418015 62.20961 -0.84524858
73.641945 61.672848 -0.82680321
79.099091 60.355728 -0.8656438
81.046036 59.885818 -0.48973322
83.502518 59.292931 0
83.450363 59.305515 0.55880958
69.590729 62.657784 -0.94790882
70.179588 62.516411 -0.87668771
71.449806 62.21146 -0.84862477
73.619774 61.690498 -0.82466209
79.103485 60.373974 -0.8656438
81.050995 59.906418 -0.48973322
83.503113 59.317715 0
83.461075 59.327808 0.55895454
69.178864 62.763283 -0.87782335
70.210648 62.516891 -0.88083935
71.447029 62.221642 -0.84806246
73.647537 61.696156 -0.82680321
79.122955 60.388622 -0.86650896
81.05088 59.92823 -0.4895882
83.523949 59.337658 0
83.471756 59.350121 0.55909956
64 64 -0
70.275894 62.509323 -0.88983679
71.404678 62.241211 -0.84299701
73.635323 61.711376 -0.82551885
79.137383 60.404503 -0.86708611
81.070969 59.945229 -0.49002376
83.514374 59.364861 0
83.477356 59.373653 0.55909956
64 64 -0
70.219093 62.53075 -0.88153082
71.436462 62.243149 -0.84637326
73.643074 61.72184 -0.82594645
79.136665 60.423988 -0.86679697
81.065727 59.968254 -0.48973322
83.545303 59.382458 0
83.493057 59.394798 0.55939013
69.428719 62.7244 -0.91938424
70.240402 62.533676 -0.88429952
71.423752 62.255619 -0.84468621
73.645821 61.733494 -0.82594645
79.135948 60.443462 -0.86650896
81.080711 59.986496 -0.49002376
83.52552 59.412033 0
83.493553 59.419544 0.55924511
64 64 -0
70.227524 62.54464 -0.88222498
71.46048 62.2565 -0.84862477
73.653549 61.743984 -0.82637399
79.135201 60.462933 -0.86622095
81.085548 60.007137 -0.49002376
83.536133 59.434441 0
83.514244 59.439556 0.5596801
64 64 -0
70.278137 62.54081 -0.88914531
71.462578 62.265514 -0.84862477
73.67627 61.750999 -0.82808584
79.159615 60.476536 -0.86737412
81.080231 60.03014 -0.48973322
83.541634 59.45805 0
83.524796 59.461964 0.55982512
69.385155 62.755215 -0.91123617
70.172356 62.573254 -0.87391907
71.454773 62.276821 -0.84750009
73.638962 61.771942 -0.82466209
79.15377 60.497189 -0.86679697
81.090073 60.049614 -0.48987821
83.55217 59.480495 0
83.540405 59.483215 0.56011569
64 64 -0
70.227852 62.568352 -0.88153082
71.4618 62.284691 -0.84806246
73.671677 61.776688 -0.82723075
79.157997 60.515503 -0.86679697
81.099915 60.069099 -0.49002376
83.562683 59.50296 0
83.566101 59.502174 0.56069624
64 64 -0
70.244255 62.572521 -0.88360798
71.458916 62.294842 -0.84750009
73.654335 61.792953 -0.82551885
79.167252 60.532665 -0.86708611
81.129974 60.083973 -0.49074933
83.593475 59.520802 0
83.546196 59.531609 0.55997068
69.490852 62.751736 -0.92834961
70.241089 62.581177 -0.88291651
71.470871 62.301605 -0.84862477
73.677025 61.800068 -0.82723075
79.141151 60.557877 -0.86535579
81.129608 60.105827 -0.49060377
83.603958 59.54332 0
83.561707 59.552925 0.56026065
69.545395 62.74638 -0.93731505
70.272156 62.582085 -0.88706815
71.46302 62.31287 -0.84750009
73.634605 61.821949 -0.82337946
79.165482 60.571609 -0.86650896
81.169792 60.118507 -0.49161988
83.619476 59.56472 0
83.577217 59.574272 0.56055123
69.378105 62.791027 -0.90879047
70.273865 62.589664 -0.88706815
71.455124 62.32412 -0.84637326
73.652245 61.830219 -0.82466209
79.144386 60.595612 -0.86506778
81.174469 60.139256 -0.49161988
83.624817 59.588428 0
83.567337 59.601353 0.56011569
64 64 -0
70.251083 62.602718 -0.88360798
71.476982 62.328697 -0.84862477
73.694946 61.832924 -0.82808584
79.173721 60.608269 -0.86650896
81.184189 60.158878 -0.49176487
83.635208 59.611012 0
83.592918 59.620464 0.56069624
64 64 -0
70.247871 62.611359 -0.88291651
71.469086 62.339935 -0.84750009
73.637413 61.858006 -0.82295024
79.162659 60.629974 -0.8656438
81.193909 60.178513 -0.49191046
83.630348 59.636993 0
83.623558 59.638504 0.56142181
64 64 -0
70.239738 62.621078 -0.88153082
71.461151 62.351158 -0.84637326
73.685127 61.85968 -0.82680321
79.156624 60.650528 -0.86506778
81.213722 60.19593 -0.49234545
83.655937 59.656227 0
83.613586 59.665585 0.56098622
69.456306 62.801121 -0.92101574
70.241402 62.628616 -0.88153082
71.473076 62.35799 -0.84750009
73.682678 61.872486 -0.82637399
79.150551 60.671066 -0.86449063
81.233536 60.213387 -0.49278101
83.645912 59.683331 0
83.623901 59.688168 0.56113178
64 64 -0
70.203041 62.640976 -0.87599623
71.513779 62.353806 -0.85200316
73.678955 61.879436 -0.82594645
79.167725 60.676899 -0.86535579
81.256126 60.219349 -0.49336156
83.673935 59.689632 0
83.631577 59.698914 0.56127679
64 64 -0
70.2733 62.633522 -0.88568515
71.471077 62.37262 -0.84693778
73.681503 61.891132 -0.82594645
79.146454 60.700733 -0.86391461
81.270828 60.237995 -0.49365157
83.668968 59.715622 0
83.646904 59.720428 0.56156677
69.31636 62.855415 -0.89656836
70.281487 62.647633 -0.88637662
71.489876 62.38747 -0.84862477
73.681564 61.915615 -0.82551885
79.154388 60.737347 -0.86391461
81.290039 60.277554 -0.49394211
83.68943 59.760979 0
83.657188 59.767918 0.56156677
64 64 -0
70.297836 62.652069 -0.88845378
71.491821 62.396523 -0.84862477
73.674019 61.929466 -0.82466209
79.178551 60.751328 -0.86506778
81.309776 60.295181 -0.49437767
83.704727 59.782589 0
83.662285 59.791672 0.56156677
64 64 -0
70.328903 62.653419 -0.89260542
71.473869 62.409805 -0.84637326
73.681549 61.940086 -0.8250913
79.162231 60.773979 -0.86391461
81.309143 60.317184 -0.49423212
83.694534 59.809654 0
83.687691 59.811108 0.56214738
64 64 -0
70.242172 62.679752 -0.88014787
71.490707 62.415684 -0.84806246
73.689056 61.950722 -0.82551885
79.145874 60.796581 -0.86276144
81.31868 60.337025 -0.49437767
83.719948 59.829144 0
83.702911 59.832748 0.56243789
69.452431 62.853668 -0.91857004
70.248665 62.686264 -0.88083935
71.507538 62.421597 -0.84975165
73.706596 61.959263 -0.82680321
79.180092 60.808502 -0.86449063
81.312912 60.360092 -0.49408713
83.724976 59.852974 0
83.687592 59.860836 0.56185734
64 64 -0
70.328835 62.677395 -0.89191395
71.474617 62.437946 -0.84581089
73.704018 61.972046 -0.82637399
79.163681 60.831078 -0.86333746
81.307129 60.383141 -0.49379712
83.74015 59.874683 0
83.707825 59.881439 0.56229234
64 64 -0
70.266563 62.698307 -0.88291651
71.491432 62.443878 -0.84750009
73.711502 61.982723 -0.82680321
79.177643 60.847298 -0.86391461
81.316574 60.403 -0.49394211
83.729843 59.901711 0
83.717888 59.904198 0.56243789
64 64 -0
70.248482 62.709938 -0.88014787
71.493301 62.45293 -0.84750009
73.713936 61.994461 -0.82680321
79.151054 60.871914 -0.86218542
81.336182 60.420773 -0.49437767
83.750061 59.922401 0
83.748268 59.922771 0.56316346
64 64 -0
70.250031 62.717491 -0.88014787
71.500145 62.460968 -0.84806246
73.706284 62.008266 -0.82594645
79.164948 60.888145 -0.86276144
81.320129 60.4459 -0.49379712
83.760086 59.945221 0
83.753181 59.946636 0.56316346
64 64 -0
70.305664 62.714012 -0.88776231
71.506973 62.469017 -0.84862477
73.723778 62.016918 -0.82723075
79.173759 60.905437 -0.86304945
81.329498 60.465794 -0.49394211
83.759857 59.970142 0
83.752975 59.971546 0.56301844
64 64 -0
70.287544 62.72562 -0.88499367
71.518784 62.476067 -0.84975165
73.716095 62.030708 -0.82637399
79.152145 60.928913 -0.86160827
81.349037 60.483635 -0.49437767
83.780022 59.990917 0
83.762917 59.994385 0.56316346
64 64 -0
70.293991 62.732227 -0.88568515
71.520622 62.485153 -0.84975165
73.728539 62.040421 -0.82723075
79.145714 60.949265 -0.86103225
81.358368 60.503578 -0.49452266
83.80526 60.010708 0
83.788124 60.01416 0.56374401
64 64 -0
70.270927 62.744759 -0.88222498
71.527428 62.493244 -0.85031396
73.710762 62.05621 -0.82551885
79.154449 60.966553 -0.86132026
81.331993 60.530678 -0.49365157
83.799866 60.036686 0
83.787834 60.039093 0.56359905
64 64 -0
70.287186 62.749401 -0.88429952
71.519279 62.504322 -0.84918928
73.738281 62.062935 -0.8276583
79.117523 60.992939 -0.85901392
81.346375 60.549591 -0.49394211
83.825043 60.056553 0
83.787491 60.064022 0.5634535
64 64 -0
70.283775 62.757973 -0.88360798
71.516083 62.514397 -0.84862477
73.725494 62.07769 -0.82637399
79.182037 60.999172 -0.86247343
81.350533 60.570553 -0.49394211
83.819595 60.082527 0
83.792236 60.087936 0.5634535
64 64 -0
70.289444 62.760799 -0.88429952
71.526962 62.516972 -0.84975165
73.73674 62.081581 -0.82723075
79.14325 61.016342 -0.86016709
81.357697 60.580032 -0.49408713
83.827057 60.093498 0
83.814987 60.095875 0.56403404
69.220444 62.977974 -0.87700915
70.290932 62.768398 -0.88429952
71.528748 62.526066 -0.84975165
73.75415 62.090389 -0.82851338
79.146843 61.034645 -0.86016709
81.35672 60.602005 -0.49394211
83.852196 60.113457 0
83.819695 60.11982 0.56403404
64 64 -0
70.262878 62.781746 -0.88014787
71.56044 62.529346 -0.85312784
73.701035 62.112957 -0.823807
79.140244 61.054924 -0.85958993
81.355713 60.623974 -0.49379712
83.851776 60.138439 0
83.819267 60.144764 0.56388903
64 64 -0
70.348083 62.773132 -0.89191395
71.542259 62.542339 -0.85087633
73.743629 62.11689 -0.82723075
79.118408 61.078129 -0.85814875
81.349571 60.646919 -0.49350655
83.846191 60.164406 0
83.823914 60.168713 0.56388903
69.568771 62.930725 -0.93486935
70.255959 62.798775 -0.87876487
71.549019 62.550491 -0.85144085
73.745903 62.128662 -0.82723075
79.116852 61.097374 -0.85786074
81.374023 60.663967 -0.49408713
83.86615 60.185444 0
83.843842 60.189728 0.56432456
64 64 -0
70.252457 62.807278 -0.87807071
71.525787 62.564381 -0.84862477
73.748154 62.140442 -0.82723075
79.120346 61.115639 -0.85786074
81.37294 60.685936 -0.49394211
83.855408 60.212379 0
83.848434 60.213707 0.56432456
64 64 -0
70.199684 62.825108 -0.8704589
71.552498 62.568741 -0.85144085
73.745354 62.153175 -0.82680321
79.128899 61.13295 -0.85814875
81.392258 60.704025 -0.49437767
83.85997 60.236374 0
83.888718 60.230923 0.56534016
64 64 -0
70.240547 62.825176 -0.87599623
71.524246 62.583508 -0.84806246
73.747581 62.164951 -0.82680321
79.117096 61.154106 -0.85728359
81.401329 60.724083 -0.49452266
83.890091 60.255554 0
83.893265 60.254959 0.56534016
64 64 -0
70.315926 62.818886 -0.88637662
71.550926 62.587933 -0.85087633
73.734642 62.179565 -0.82551885
79.11544 61.173321 -0.85699558
81.39505 60.747025 -0.49423212
83.899712 60.278637 0
83.897774 60.278999 0.56534016
64 64 -0
70.268028 62.835678 -0.87945634
71.537651 62.599838 -0.84918928
73.772156 62.184765 -0.82851338
79.139191 61.187809 -0.85814875
81.39386 60.768993 -0.49408713
83.919548 60.299831 0
83.902252 60.303043 0.56534016
64 64 -0
70.318764 62.834152 -0.88637662
71.539337 62.608948 -0.84918928
73.744057 62.202164 -0.82594645
79.117149 61.210796 -0.85670757
81.418198 60.78624 -0.49466768
83.908646 60.326736 0
83.911835 60.326149 0.56548572
64 64 -0
70.241203 62.856258 -0.87530208
71.541016 62.618057 -0.84918928
73.791672 62.205608 -0.82979774
79.145943 61.224403 -0.85814875
81.41185 60.809158 -0.49437767
83.923302 60.348919 0
83.926468 60.348339 0.56577569
64 64 -0
70.193222 62.872784 -0.8683818
71.567673 62.622623 -0.85200316
73.753418 62.224796 -0.82637399
79.149284 61.242706 -0.85814875
81.431015 60.827412 -0.49481267
83.927696 60.372997 0
83.920654 60.374279 0.56548572
64 64 -0
70.318016 62.857956 -0.88568515
71.534317 62.638096 -0.84806246
73.765671 62.234756 -0.82723075
79.127159 61.265614 -0.85670757
81.429733 60.8494 -0.49466768
83.957687 60.392445 0
83.945473 60.394653 0.56606627
64 64 -0
70.294701 62.870022 -0.88222498
71.525963 62.648994 -0.84693778
73.737473 62.252003 -0.82466209
79.135536 61.282982 -0.85699558
81.459091 60.865871 -0.49539325
83.967148 60.415646 0
83.944687 60.419678 0.56592071
64 64 -0
70.27137 62.88203 -0.87876487
71.53759 62.656307 -0.84806246
73.759796 62.260162 -0.82637399
79.13372 61.302177 -0.85670757
81.468002 60.886055 -0.4955388
83.966347 60.440685 0
83.964355 60.44104 0.56635624
64 64 -0
70.322113 62.880863 -0.88568515
71.53421 62.666302 -0.84750009
73.756836 62.272854 -0.82594645
79.131882 61.321365 -0.85641956
81.492203 60.903545 -0.49611878
83.985992 60.462093 0
83.963524 60.466072 0.56621128
64 64 -0
70.338287 62.885899 -0.88776231
71.575851 62.668365 -0.85200316
73.74881 62.286419 -0.8250913
79.165665 61.334282 -0.85814875
81.485703 60.926479 -0.49582878
84.005646 60.483543 0
83.993362 60.485699 0.56693679
64 64 -0
70.279655 62.900116 -0.87945634
71.566635 62.674698 -0.85087633
73.810516 62.281685 -0.83022529
79.157089 61.345226 -0.85757273
81.518257 60.931667 -0.49669936
83.992378 60.498325 0
83.995483 60.49778 0.56693679
64 64 -0
70.261208 62.91114 -0.87668771
71.598282 62.678616 -0.85425472
73.777191 62.299694 -0.82723075
79.175568 61.360886 -0.85843676
81.516838 60.953728 -0.49655434
84.006859 60.520699 0
84.015068 60.519272 0.56737238
64 64 -0
70.292175 62.913589 -0.88083935
71.559814 62.694717 -0.84975165
73.769104 62.313259 -0.82637399
79.168556 61.380985 -0.85786074
81.546104 60.970474 -0.49727991
84.021294 60.543106 0
83.998779 60.546993 0.56679183
64 64 -0
70.362724 62.909321 -0.89053094
71.591423 62.698704 -0.85312784
73.806564 62.318989 -0.82937014
79.161499 61.401062 -0.85728359
81.560005 60.989922 -0.49757046
84.035728 60.56554 0
84.013168 60.569408 0.56708181
64 64 -0
70.413498 62.908596 -0.89745122
71.552917 62.714695 -0.84862477
73.788345 62.334286 -0.8276583
79.164635 61.419384 -0.85728359
81.568748 61.010269 -0.49771547
84.029594 60.591499 0
84.027557 60.591846 0.56737238
64 64 -0
70.365341 62.924702 -0.89053094
71.574509 62.720436 -0.85087633
73.79541 62.345261 -0.82808584
79.188141 61.434265 -0.85843676
81.577469 61.030636 -0.49786046
84.05423 60.612236 0
84.057274 60.611721 0.56809795
64 64 -0
70.331993 62.938202 -0.88568515
71.571037 62.730431 -0.85031396
73.761971 62.363037 -0.8250913
79.170822 61.456039 -0.85728359
81.586182 61.051014 -0.49800602
