# .PCD v0.7 - Point Cloud Data file format
VERSION 0.7
FIELDS x y z
SIZE 4 4 4
TYPE F F F
COUNT 1 1 1
WIDTH 1692
HEIGHT 1
VIEWPOINT 0 0 0 1 0 0 0
POINTS 1692
DATA ascii
59.774685 66.32621 -0.6653716
59.230667 66.625717 -0.60304266
58.590973 66.977898 -0.51469541
57.662884 67.488846 -0.40315631
57.357769 67.656822 -0.21175975
55.194134 68.847992 0
53.638714 69.704323 0.33032629
60.308857 66.026321 -0.69420958
59.793865 66.309036 -0.66191143
59.245316 66.610168 -0.6007911
58.61887 66.954071 -0.51170087
57.658672 67.481186 -0.40315631
57.362457 67.643799 -0.21146975
55.211094 68.824829 0
53.654621 69.679283 0.32960019
60.219688 66.069328 -0.71050888
59.808685 66.294312 -0.65914279
59.233242 66.609306 -0.60191792
58.592789 66.959892 -0.51384032
57.66354 67.468559 -0.40258029
57.362614 67.633286 -0.21132475
55.173321 68.831696 0
53.647766 69.666779 0.32960019
60.329994 66.003189 -0.68932134
59.814732 66.284431 -0.65775716
59.230095 66.603546 -0.60191792
58.59824 66.948433 -0.51298356
57.682068 67.448502 -0.40113798
57.38105 67.612808 -0.21059863
55.213169 68.796097 0
53.618103 69.666725 0.33032629
60.206024 66.064911 -0.71213722
59.794346 66.288971 -0.6605258
59.222492 66.600204 -0.60248029
58.585651 66.946815 -0.51384032
57.668808 67.445816 -0.40171513
57.358433 67.614738 -0.2111792
55.170807 68.805382 0
53.620403 69.6492 0.33003575
60.251308 66.034393 -0.70317495
59.7519 66.30542 -0.6667546
59.228279 66.589592 -0.60135561
58.595638 66.932922 -0.51255596
57.669193 67.435699 -0.40142712
57.372337 67.596802 -0.21059863
55.178734 68.787254 0
53.686668 69.596992 0.32771349
60.287979 66.00869 -0.69584107
59.771175 66.288353 -0.66329443
59.229633 66.581398 -0.6007911
58.587585 66.928833 -0.51298356
57.665047 67.428047 -0.40142712
57.358849 67.593742 -0.21088919
55.200417 68.761734 0
53.766739 69.537544 0.32495627
60.237713 66.030022 -0.70480329
59.781666 66.276093 -0.66121727
59.222034 66.578049 -0.60135561
58.60664 66.910103 -0.51084411
57.651814 67.425293 -0.40200314
57.368237 67.578308 -0.21045363
55.162617 68.768394 0
53.997864 69.396858 0.31740957
60.243961 66.02079 -0.70317495
59.739155 66.292381 -0.66744608
59.223412 66.569862 -0.6007911
58.580524 66.915741 -0.51298356
57.647678 67.417625 -0.40200314
57.359344 67.572754 -0.21059863
55.15686 68.757713 0
54.146946 69.301056 0.31247512
60.228466 66.023254 -0.70561749
59.731953 66.289612 -0.66814023
59.224781 66.561691 -0.60022873
58.5951 66.899483 -0.51127166
57.643555 67.409943 -0.40200314
57.345863 67.569641 -0.21088919
55.183212 68.729805 0
54.158867 69.27932 0.31189457
60.230377 66.016373 -0.70480329
59.764584 66.265518 -0.66260296
59.203766 66.565506 -0.60248029
58.587063 66.895378 -0.51170087
57.643993 67.399826 -0.40171513
57.341557 67.5616 -0.21088919
55.205048 68.704414 0
54.166245 69.260071 0.311459
60.188694 66.032745 -0.71213722
59.814976 66.232071 -0.65429699
59.227566 66.545364 -0.59910405
58.574516 66.893661 -0.51255596
57.630772 67.397003 -0.40229115
57.346436 67.548653 -0.21059863
55.20396 68.691338 0
54.219505 69.216393 0.30957231
60.212418 66.014221 -0.70724899
59.794563 66.236435 -0.65706563
59.206543 66.549141 -0.60135561
58.580082 66.882286 -0.51170087
57.626671 67.389305 -0.40229115
57.337551 67.54306 -0.21074419
55.175323 68.692924 0
59.003281 66.657234 0.15805452
60.253651 65.986488 -0.69910091
59.796291 66.229004 -0.65637416
59.198982 66.545723 -0.60191792
58.567539 66.880547 -0.51255596
57.63628 67.374344 -0.40142712
57.356247 67.522827 -0.21001807
55.169662 68.682259 0
59.02763 66.636581 0.15718341
60.187653 66.009697 -0.71050888
59.786484 66.221176 -0.65706563
59.192844 66.534111 -0.60191792
58.606003 66.843468 -0.50827712
57.618999 67.36377 -0.40200314
57.352345 67.504341 -0.20987308
55.167572 68.656052 0
59.07642 66.59549 0.15544228
60.198357 65.998184 -0.70806319
59.774929 66.220749 -0.65844864
59.198792 66.523567 -0.6007911
58.588951 66.844109 -0.50955981
57.624088 67.35125 -0.40142712
57.352711 67.493889 -0.20972808
55.171173 68.640533 0
59.068691 66.591949 0.15558729
60.261608 65.959183 -0.69584107
59.794464 66.203995 -0.65498847
59.213749 66.508331 -0.59853953
58.576412 66.842339 -0.51041657
57.629215 67.338737 -0.40084997
57.320885 67.500328 -0.21059863
55.137905 68.644363 0
59.083977 66.57634 0.15500672
60.202293 65.984421 -0.70643479
59.756229 66.217499 -0.6605258
59.210724 66.502548 -0.59853953
58.600296 66.82151 -0.50784791
57.629768 67.328644 -0.40056196
57.321262 67.489845 -0.21045363
55.169205 68.614365 0
59.108513 66.555954 0.15413561
60.293125 65.934105 -0.68932134
59.75489 66.214935 -0.6605258
59.200191 66.504356 -0.59966642
58.566723 66.834877 -0.51084411
57.623177 67.327187 -0.40084997
57.34679 67.47139 -0.20958307
55.28178 68.548836 0
59.139206 66.536179 0.15312006
60.273247 65.938751 -0.69258118
59.765575 66.202858 -0.65844864
59.201675 66.496216 -0.59910405
58.590622 66.814102 -0.50827712
57.632931 67.312317 -0.39998481
59.112888 66.542404 -0.1538523
58.960896 66.621475 0
59.154587 66.520706 0.15253949
60.231419 65.954727 -0.69991511
59.75845 66.200058 -0.65914279
59.180618 66.499771 -0.60135561
58.568996 66.817017 -0.50998902
59.125847 66.528183 -0.30600646
59.045242 66.569992 -0.15588398
59.008545 66.589027 0
59.133095 66.524422 0.15312006
60.229061 65.950172 -0.69991511
59.742435 66.201836 -0.66121727
59.159546 66.503288 -0.60360712
58.574726 66.805733 -0.50913227
59.021698 66.57457 -0.31234947
58.99136 66.590263 -0.15748066
59.070156 66.549515 0
59.139286 66.513763 0.1528295
60.182781 65.968269 -0.70806319
59.748688 66.192093 -0.65983427
59.192657 66.478806 -0.59910405
58.607845 66.78035 -0.50570852
59.014 66.570923 -0.31263748
59.062138 66.546104 -0.15515842
59.067078 66.543556 0
59.159344 66.495979 0.15210395
60.233162 65.936531 -0.69828361
59.763893 66.17778 -0.65706563
59.189667 66.472992 -0.59910405
58.677547 66.736275 -0.49886101
59.066101 66.536514 -0.30917796
59.045193 66.547264 -0.15559398
59.096397 66.520943 0
59.147079 66.494888 0.1523945
60.200027 65.947762 -0.70398915
59.743404 66.181816 -0.65983427
59.191216 66.464851 -0.59853953
58.779316 66.67598 -0.48901901
59.007801 66.558868 -0.31263748
59.032879 66.546013 -0.15588398
59.116531 66.503136 0
59.157948 66.481903 0.15195894
60.250496 65.916176 -0.69420958
59.754181 66.169823 -0.65775716
59.179184 66.463669 -0.59966642
58.876656 66.618279 -0.47960454
59.041561 66.534004 -0.31033114
59.025185 66.542374 -0.15602897
59.104229 66.501976 0
59.168839 66.468956 0.15152338
60.243782 65.913887 -0.69502372
59.724728 66.17836 -0.66191143
59.180733 66.455536 -0.59910405
58.92382 66.586441 -0.47489649
59.015465 66.539749 -0.31177232
59.045261 66.524567 -0.15530342
59.096577 66.498421 0
59.179737 66.456047 0.15108839
60.148926 65.95636 -0.71213722
59.722099 66.173195 -0.66191143
59.200417 66.43821 -0.59629017
58.948154 66.56636 -0.47232953
59.017006 66.53138 -0.31148431
59.000519 66.539757 -0.15660954
59.163155 66.457138 0
59.204582 66.436096 0.15021726
60.190655 65.929375 -0.70398915
59.719475 66.168022 -0.66191143
59.165756 66.448471 -0.60022873
58.958801 66.553291 -0.4710452
59.000103 66.532372 -0.31234947
59.011349 66.52668 -0.15617454
59.146275 66.458344 0
59.19701 66.43264 0.15036227
60.170677 65.933685 -0.70724899
59.721352 66.160583 -0.66121727
59.149185 66.449509 -0.60191792
58.974052 66.537941 -0.46933335
59.00629 66.52166 -0.31177232
59.012955 66.518295 -0.15602897
59.143307 66.452477 0
59.203342 66.422157 0.15007226
60.155094 65.93573 -0.70969468
59.750103 66.139618 -0.65637416
59.164387 66.434502 -0.59966642
58.938885 66.548035 -0.47232953
59.003246 66.515625 -0.31177232
59.028481 66.502922 -0.15544842
59.079914 66.477028 0
59.205059 66.414024 0.14992726
60.214619 65.900032 -0.69828361
59.752018 66.132225 -0.65568
59.152374 66.433212 -0.6007911
58.949577 66.535004 -0.4710452
59.009449 66.504951 -0.3111963
59.057961 66.480598 -0.15443286
59.053654 66.482765 0
59.202145 66.408226 0.14992726
60.199059 65.902092 -0.70072925
59.758411 66.122604 -0.65429699
59.158516 66.422806 -0.59966642
58.932739 66.535789 -0.47232953
59.015686 66.494286 -0.31061915
58.994553 66.50486 -0.15631953
59.050655 66.476784 0
59.189953 66.407074 0.15021726
60.07291 65.95929 -0.72354829
59.670555 66.160034 -0.66744608
59.155594 66.416954 -0.59966642
58.989399 66.49987 -0.46676636
58.998783 66.495193 -0.31148431
59.051979 66.468651 -0.15443286
59.09425 66.447563 0
59.187046 66.40126 0.15021726
60.203316 65.888504 -0.69910091
59.717354 66.130226 -0.65983427
59.157223 66.408844 -0.59910405
59.000179 66.486954 -0.46548206
58.991146 66.491447 -0.31177232
59.04435 66.464981 -0.15457787
59.095955 66.439316 0
59.198112 66.388504 0.1497817
60.223194 65.872925 -0.69502372
59.705799 66.129501 -0.66121727
59.195286 66.382668 -0.59403867
58.987988 66.485474 -0.46633714
59.011307 66.473907 -0.31033114
58.994827 66.482079 -0.15602897
59.16296 66.398697 0
59.195229 66.382698 0.1497817
60.141163 65.907799 -0.70969468
59.658245 66.146553 -0.66814023
59.155983 66.394875 -0.59853953
58.966576 66.48851 -0.46804902
59.012955 66.465584 -0.31004313
59.005795 66.469124 -0.15559398
59.094734 66.425156 0
59.201664 66.372284 0.14949171
60.143307 65.900948 -0.70887738
59.70966 66.114685 -0.65983427
59.134861 66.398003 -0.6007911
58.958954 66.484703 -0.46847823
58.982147 66.473274 -0.31177232
59.007488 66.460785 -0.15544842
59.138504 66.39621 0
59.217445 66.3573 0.14891115
60.207546 65.863586 -0.69665521
59.729618 66.098442 -0.65637416
59.154766 66.38092 -0.59797722
58.988216 66.462761 -0.46548206
58.997734 66.458084 -0.31061915
58.981186 66.466217 -0.15617454
59.135612 66.390335 0
59.2286 66.344643 0.14847559
60.209732 65.856834 -0.69584107
59.718082 66.097687 -0.65775716
59.138199 66.381775 -0.59966642
58.994457 66.452194 -0.46462694
58.957603 66.470245 -0.31292549
59.001556 66.448715 -0.15544842
59.184128 66.359268 0
59.202438 66.350304 0.14920115
60.127548 65.891296 -0.71050888
59.706528 66.096924 -0.65914279
59.15815 66.364746 -0.59685254
58.954609 66.464157 -0.46804902
58.982502 66.450531 -0.3111963
59.026611 66.428993 -0.15457787
59.129848 66.378571 0
59.176239 66.355911 0.14992726
60.16082 65.869301 -0.70398915
59.703995 66.091736 -0.65914279
59.164444 66.354439 -0.59572566
58.974709 66.446823 -0.4659096
58.974899 66.446732 -0.31148431
59.028347 66.420708 -0.15443286
59.084846 66.393196 0
59.18742 66.343254 0.14949171
60.127434 65.879776 -0.70969468
59.687943 66.093109 -0.66121727
59.147884 66.355255 -0.59741485
58.944035 66.454208 -0.46847823
58.990562 66.431625 -0.31033114
59.053486 66.401077 -0.15356174
59.152203 66.353157 0
59.184589 66.33744 0.14949171
60.156315 65.860023 -0.70398915
59.68993 66.085709 -0.6605258
59.122173 66.360458 -0.60022873
58.968811 66.434669 -0.4659096
59.001598 66.418808 -0.30946597
59.027187 66.406425 -0.15428786
59.116562 66.363174 0
59.205154 66.320305 0.14876615
60.176327 65.844635 -0.69991511
59.691925 66.078323 -0.65983427
59.151352 66.339111 -0.59629017
58.961254 66.430817 -0.46633714
58.975391 66.424004 -0.31090716
59.033653 66.395889 -0.1539973
59.10434 66.361794 0
59.244476 66.294189 0.14746003
60.178551 65.837875 -0.69910091
59.639694 66.097031 -0.66744608
59.143951 66.335449 -0.59685254
58.884293 66.460335 -0.47318465
58.981781 66.413445 -0.31033114
59.012028 66.398903 -0.15457787
59.10149 66.355873 0
59.241707 66.288437 0.14746003
60.131767 65.854622 -0.70724899
59.709534 66.05706 -0.65637416
59.145714 66.327385 -0.59629017
58.899841 66.445274 -0.47147277
58.978867 66.407379 -0.31033114
58.999752 66.397369 -0.15486842
59.108025 66.345459 0
59.25769 66.273697 0.14687948
60.126194 65.854416 -0.70806319
59.667564 66.073967 -0.66260296
59.130569 66.331032 -0.59797722
58.893719 66.444412 -0.47190195
58.972752 66.406578 -0.31061915
58.979572 66.403313 -0.15544842
59.125389 66.333511 0
59.246952 66.275314 0.14716947
60.208706 65.809288 -0.69258118
59.610722 66.094666 -0.67090887
59.132339 66.32296 -0.59741485
58.872234 66.447083 -0.47361383
59.002533 66.384903 -0.30860084
59.000118 66.386055 -0.15472287
59.108494 66.334335 0
59.248894 66.267334 0.14702447
60.144039 65.834435 -0.70398915
59.653511 66.067795 -0.66398591
59.088238 66.336723 -0.60248029
58.901741 66.425446 -0.47061765
58.971619 66.392204 -0.31033114
58.96907 66.393417 -0.15559398
59.086876 66.337372 0
59.241467 66.263824 0.14716947
60.083767 65.857307 -0.71458292
59.605675 66.084053 -0.67090887
59.12215 66.313362 -0.59797722
58.861702 66.436882 -0.4740414
59.029488 66.357315 -0.30658361
58.961494 66.389557 -0.15573898
59.149887 66.300209 0
59.234043 66.2603 0.14731447
60.170902 65.810318 -0.69828361
59.625854 66.068008 -0.66744608
59.12854 66.303131 -0.59685254
58.88662 66.417503 -0.47147277
59.007935 66.360146 -0.30773678
58.991501 66.36792 -0.15472287
59.057701 66.336624 0
59.231316 66.254539 0.14731447
60.217892 65.782516 -0.68932134
59.668736 66.041336 -0.6605258
59.130352 66.295074 -0.59629017
58.823334 66.439774 -0.47703594
59.009762 66.351913 -0.30744877
58.998035 66.357437 -0.15443286
59.050179 66.332863 0
59.242683 66.242134 0.14687948
60.171009 65.798958 -0.69746941
59.64357 66.046768 -0.66398591
59.145981 66.280548 -0.59403867
58.852901 66.418243 -0.4740414
59.006924 66.345879 -0.30744877
58.985794 66.355804 -0.15472287
59.023811 66.337944 0
59.244698 66.234169 0.14673391
60.227028 65.767082 -0.68687564
59.568398 66.075554 -0.67506051
59.120224 66.285454 -0.59685254
58.840694 66.416374 -0.47489649
59.01815 66.33326 -0.30658361
59.001778 66.340927 -0.15414231
58.997425 66.342964 0
59.256107 66.221817 0.14629892
60.099483 65.821075 -0.70969468
59.652264 66.029869 -0.66191143
59.099045 66.288155 -0.59910405
58.856388 66.401451 -0.47318465
59.038769 66.316299 -0.30514243
58.923607 66.370064 -0.15646453
59.051193 66.310501 0
59.267555 66.20948 0.14586335
60.151066 65.791328 -0.69991511
59.654373 66.022491 -0.66121727
59.12854 66.26722 -0.59516335
58.83952 66.401733 -0.47446895
58.984398 66.334305 -0.3083128
58.977287 66.337616 -0.15472287
59.067284 66.295731 0
59.27903 66.197182 0.14542781
60.157879 65.782509 -0.69828361
59.656483 66.015129 -0.6605258
59.116577 66.265617 -0.59629017
58.83197 66.397652 -0.47489649
58.990959 66.323891 -0.30773678
58.927315 66.353424 -0.15617454
59.026741 66.307297 0
59.299946 66.180542 0.14470224
60.074959 65.815224 -0.71295452
59.640385 66.016205 -0.66260296
59.109234 66.261841 -0.59685254
58.81509 66.397873 -0.47618082
58.988152 66.317841 -0.30773678
58.966923 66.32766 -0.15486842
59.113701 66.259781 0
59.292603 66.17704 0.14484724
60.144596 65.777367 -0.69991511
59.574165 66.040337 -0.67229187
59.129574 66.2453 -0.59403867
58.854156 66.372269 -0.47232953
58.966564 66.320442 -0.30888996
58.959396 66.323746 -0.15501343
59.040085 66.286552 0
59.28524 66.173531 0.1449928
60.133476 65.776833 -0.70154345
59.64465 66.001465 -0.66121727
59.122253 66.241531 -0.59460098
58.809311 66.385338 -0.47618082
59.024864 66.286285 -0.30514243
58.961311 66.315491 -0.15486842
59.023132 66.287079 0
59.292072 66.16349 0.14470224
60.176266 65.751572 -0.69339538
59.637661 65.998299 -0.66191143
59.068741 66.258911 -0.6007911
58.820442 66.37265 -0.47489649
58.975086 66.301811 -0.30802479
58.920738 66.326706 -0.15602897
59.025101 66.2789 0
59.270561 66.166458 0.1452828
60.070744 65.794174 -0.71213722
59.589615 66.013863 -0.66883171
59.107613 66.233955 -0.59572566
58.766201 66.389847 -0.47960454
58.986427 66.289291 -0.30715963
58.951008 66.305466 -0.15501343
59.00341 66.281532 0
59.272671 66.158585 0.1451378
60.145058 65.754608 -0.69828361
59.651112 65.979439 -0.65914279
59.049416 66.253304 -0.60248029
58.782009 66.375015 -0.4778927
59.016609 66.268234 -0.30514243
58.95295 66.297211 -0.15486842
58.995926 66.277649 0
59.279533 66.14856 0.14484724
60.097916 65.770378 -0.70643479
59.56192 66.013565 -0.67229187
59.1161 66.215828 -0.59403867
58.788502 66.364464 -0.47703594
58.995029 66.27076 -0.3062956
58.95018 66.291107 -0.15486842
59.111671 66.217842 0
59.272194 66.145012 0.1449928
60.154327 65.739182 -0.69584107
59.641773 65.970985 -0.65983427
59.122696 66.205734 -0.59291178
58.790321 66.356049 -0.47660837
59.011143 66.256187 -0.30514243
58.961624 66.27858 -0.15443286
59.056824 66.235527 0
59.264877 66.141434 0.1451378
60.107174 65.754845 -0.70398915
59.611958 65.978088 -0.66398591
59.096874 66.210281 -0.59572566
58.76408 66.360298 -0.47874779
58.994286 66.256523 -0.30600646
58.958874 66.272491 -0.15443286
58.982964 66.261635 0
59.267025 66.133575 0.1449928
60.150135 65.729889 -0.69584107
59.655331 65.952225 -0.65706563
59.117378 66.193947 -0.59291178
58.751858 66.358185 -0.47960454
58.953815 66.267441 -0.3083128
58.922966 66.281303 -0.15544842
59.032444 66.232109 0
59.283413 66.119339 0.14441225
60.102943 65.745438 -0.70398915
59.630081 65.957222 -0.6605258
59.09618 66.19635 -0.59516335
58.734951 66.358139 -0.48088887
58.998283 66.240196 -0.30543044
58.958138 66.258179 -0.15428786
59.091499 66.198448 0
59.26664 66.120003 0.14484724
60.109856 65.736702 -0.70236075
59.618549 65.956039 -0.66191143
59.08424 66.194572 -0.59629017
58.750858 66.343407 -0.479177
58.95779 66.251022 -0.30773678
58.979153 66.241486 -0.15356174
59.084099 66.194633 0
59.268822 66.112167 0.14470224
60.130356 65.721947 -0.69828361
59.625366 65.946655 -0.6605258
59.067677 66.194824 -0.59797722
58.748032 66.337059 -0.479177
58.964535 66.240723 -0.30715963
58.933701 66.25444 -0.15486842
59.005363 66.222549 0
59.266273 66.106445 0.14470224
60.08308 65.737312 -0.70643479
59.613834 65.945442 -0.66191143
59.051086 66.195045 -0.59966642
58.735832 66.334869 -0.48003212
58.942917 66.243019 -0.3083128
58.916744 66.254631 -0.15530342
59.031239 66.20385 0
59.268478 66.098625 0.14455724
60.162373 65.696594 -0.69176388
59.63903 65.927963 -0.65775716
59.067032 66.180847 -0.59741485
58.69545 66.345116 -0.48345584
58.944935 66.234818 -0.30802479
58.947281 66.23378 -0.15428786
59.061909 66.183105 0
59.251682 66.099213 0.1449928
60.070904 65.7342 -0.70806319
59.624092 65.931412 -0.65983427
59.065712 66.177864 -0.59741485
58.670551 66.35228 -0.48559529
58.891525 66.254745 -0.3111963
58.922165 66.241219 -0.15501343
58.989159 66.211655 0
59.245667 66.098434 0.1451378
60.08239 65.723473 -0.70561749
59.525318 65.968552 -0.67436904
59.049126 66.17804 -0.59910405
58.658306 66.349976 -0.48645204
57.705112 66.76931 -0.38326553
58.976543 66.209969 -0.15327175
59.062717 66.172058 0
59.228859 66.098969 0.14557336
60.130096 65.696907 -0.69665521
59.624027 65.918816 -0.65914279
59.106995 66.145531 -0.5917871
58.636662 66.351761 -0.48816389
57.588089 66.811554 -0.39018342
58.964367 66.208069 -0.15356174
59.083927 66.155647 0
59.231098 66.09111 0.14542781
60.042 65.729843 -0.71213722
59.640102 65.905487 -0.65637416
59.095104 66.143684 -0.59291178
58.624424 66.349388 -0.48901901
64 64 -0
58.995022 66.187424 -0.15254618
59.024094 66.174713 0
59.228577 66.08535 0.14542781
60.087696 65.698624 -0.70317495
59.575684 65.920921 -0.6653716
59.047989 66.150032 -0.59797722
58.642307 66.326172 -0.48687959
57.54472 66.802711 -0.39220175
57.211765 66.947273 -0.20668028
59.076145 66.13781 0
59.223549 66.073807 0.14542781
60.112873 65.682106 -0.69828361
59.619423 65.895645 -0.65844864
59.036057 66.148087 -0.59910405
58.625359 66.325813 -0.48816389
57.546082 66.792862 -0.39191374
57.193893 66.945267 -0.20711584
59.092674 66.123589 0
59.197205 66.078354 0.14615336
60.09269 65.685242 -0.70154345
59.580276 65.90625 -0.66398591
59.042809 66.138062 -0.59797722
58.622551 66.319321 -0.48816389
57.552219 66.78096 -0.39133659
57.16172 66.949387 -0.2079864
59.137897 66.097046 0
59.194695 66.072548 0.14615336
60.077026 65.686378 -0.70398915
59.601021 65.890999 -0.6605258
59.021553 66.140099 -0.60022873
58.624485 66.310783 -0.48773471
57.525089 66.783386 -0.3927789
57.172485 66.934959 -0.20755084
59.121033 66.097336 0
59.134903 66.09137 0.14789504
60.138596 65.654388 -0.69258118
59.571056 65.897545 -0.66468006
59.037655 66.126076 -0.59797722
58.616962 66.30632 -0.48816389
57.540749 66.76741 -0.39162573
57.211933 66.908287 -0.20624472
59.147202 66.07914 0
59.079826 66.108009 0.14949171
60.127518 65.653595 -0.69420958
59.601074 65.878395 -0.65983427
59.021065 66.126068 -0.59966642
58.604748 66.303841 -0.48901901
57.518383 66.767731 -0.3927789
57.170189 66.916412 -0.20740584
59.187771 66.054878 0
59.015156 66.128586 0.15137838
60.157364 65.635368 -0.68850398
59.63113 65.859322 -0.65498847
59.032532 66.114075 -0.59797722
58.559456 66.315414 -0.4928703
57.529327 66.753815 -0.39191374
57.190575 66.897987 -0.20668028
57.154732 66.913239 0
58.988686 66.132736 0.15210395
60.037064 65.680908 -0.70969468
59.550362 65.887352 -0.6667546
59.048695 66.100136 -0.59572566
64 64 -0
57.526005 66.745995 -0.39191374
57.177521 66.893806 -0.20697029
64 64 0
58.938259 66.14698 0.15355562
60.112431 65.643402 -0.69584107
59.594292 65.862434 -0.65983427
59.022762 66.104042 -0.59853953
58.568066 66.296257 -0.491586
57.527451 66.73616 -0.39162573
57.169228 66.887596 -0.20711584
64 64 0
58.940468 66.138832 0.15341005
60.119568 65.634865 -0.69420958
59.619797 65.845421 -0.65568
59.057671 66.082253 -0.59403867
58.546371 66.297668 -0.49329787
57.548 66.718292 -0.39018342
57.180115 66.873283 -0.20668028
64 64 0
58.928299 66.136757 0.15370061
60.09024 65.641655 -0.69910091
59.566677 65.861496 -0.66329443
59.022373 66.090042 -0.59797722
58.524662 66.299026 -0.49500972
57.54472 66.710495 -0.39018342
57.17186 66.86705 -0.20682529
64 64 0
58.916145 66.134644 0.15399061
60.106499 65.629303 -0.69584107
59.596836 65.842575 -0.65844864
59.057354 66.068336 -0.59347415
58.559776 66.27655 -0.491586
57.541451 66.70269 -0.39018342
57.158806 66.862816 -0.20711584
64 64 0
58.903976 66.132515 0.15428117
60.104534 65.624596 -0.69584107
59.58997 65.839195 -0.65914279
59.045467 66.066277 -0.59460098
58.547546 66.273933 -0.49244276
57.552498 66.688919 -0.38931939
57.164951 66.85054 -0.20682529
64 64 0
58.882217 66.134361 0.15486173
60.04324 65.644547 -0.70643479
59.601654 65.828087 -0.65706563
59.024204 66.068092 -0.59685254
58.487911 66.290993 -0.49757835
57.534935 66.687073 -0.39018342
57.166306 66.840286 -0.20668028
57.024605 66.899185 0
58.870052 66.132156 0.15515172
60.077789 65.624634 -0.69991511
59.585537 65.828529 -0.65914279
59.00293 66.069855 -0.59910405
58.451958 66.298073 -0.50057292
57.565136 66.665405 -0.38816622
57.148472 66.837997 -0.20711584
56.997047 66.900719 0
58.833866 66.139885 0.15616785
60.052986 65.629318 -0.70398915
59.555511 65.834679 -0.66329443
59.023914 66.054123 -0.59629017
58.415958 66.305084 -0.50356907
57.576267 66.651711 -0.38730106
57.169079 66.819794 -0.20638973
56.988743 66.894241 0
58.783257 66.153465 0.15761895
60.01445 65.639595 -0.71050888
59.553299 65.829308 -0.66329443
59.040234 66.040375 -0.59403867
58.432171 66.29052 -0.50185722
57.573067 66.643944 -0.38730106
57.151257 66.817474 -0.20682529
57.004505 66.877846 0
58.804684 66.137276 0.1568934
60.081081 65.606651 -0.69828361
59.541798 65.827744 -0.66468006
59.061295 66.024734 -0.59122258
58.419895 66.287689 -0.50271398
57.574661 66.634216 -0.38701305
57.147858 66.809196 -0.20682529
57.073277 66.839767 0
58.787674 66.136909 0.15732896
60.134056 65.579475 -0.68850398
59.613911 65.791992 -0.65360552
59.058853 66.018768 -0.59122258
58.407639 66.284828 -0.50356907
57.571484 66.62645 -0.38701305
57.144466 66.800911 -0.20682529
54.911335 67.713287 0
58.761047 66.140442 0.15805452
60.086361 65.593452 -0.69665521
59.551338 65.811287 -0.66260296
59.023468 66.026215 -0.59516335
58.390614 66.283882 -0.50485337
57.563526 66.620628 -0.38730106
57.141087 66.792625 -0.20682529
55.094849 67.625763 0
58.724766 66.147827 0.15907063
60.043217 65.605446 -0.70398915
59.539864 65.809677 -0.66398591
59.039856 66.01255 -0.59291178
58.425919 66.261658 -0.50142968
57.560364 66.612854 -0.38730106
57.147339 66.780434 -0.20653528
59.180267 65.955582 0
53.049702 68.443031 0.33003575
60.096272 65.57843 -0.69420958
59.58419 65.785484 -0.65706563
59.004448 66.019897 -0.59685254
58.394638 66.266464 -0.50399661
57.552422 66.607002 -0.38758907
57.139172 66.774101 -0.20668028
59.124821 65.971222 0
53.029884 68.435638 0.33047128
60.112709 65.566322 -0.69094968
59.600651 65.772644 -0.65429699
58.992592 66.017654 -0.59797722
58.406178 66.253937 -0.50271398
57.573261 66.589546 -0.38614789
57.150291 66.759979 -0.20624472
59.1852 65.940041 0
64 64 0
60.115402 65.559784 -0.69013548
59.579887 65.774803 -0.65706563
59.018444 66.000244 -0.59460098
58.389179 66.252914 -0.50399661
57.584545 66.575996 -0.38528273
57.151779 66.749763 -0.20609973
59.153889 65.945854 0
53.028851 68.405243 0.33018073
60.108936 65.556923 -0.69094968
59.582401 65.767601 -0.65637416
59.006603 65.997993 -0.59572566
58.400745 66.24041 -0.50271398
57.600647 66.560555 -0.38412955
57.14846 66.741486 -0.20609973
59.127365 65.949677 0
53.033176 68.388123 0.32989073
60.05291 65.576576 -0.70072925
59.558041 65.774239 -0.65983427
59.019539 65.989326 -0.59403867
58.39463 66.23893 -0.50314152
57.599102 66.556686 -0.38412955
57.156448 66.733498 -0.20580973
59.135864 65.942863 0
53.054653 68.371864 0.32916516
60.064789 65.566315 -0.69828361
59.565231 65.765152 -0.65844864
59.012424 65.985184 -0.59460098
58.39193 66.232155 -0.50314152
57.61042 66.543221 -0.38326553
57.124191 66.736755 -0.20668028
59.133518 65.936989 0
53.068695 68.350945 0.32858461
60.108841 65.543343 -0.69013548
59.59108 65.748695 -0.65429699
59.024204 65.973534 -0.59291178
58.398792 66.221588 -0.50228477
57.58812 66.543129 -0.3844187
57.140213 66.720779 -0.20609973
54.955925 67.587128 0
53.063446 68.33773 0.32858461
60.070202 65.553169 -0.69665521
59.584305 65.745209 -0.65498847
59.036007 65.961914 -0.59122258
58.391323 66.216713 -0.50271398
57.6091 66.525871 -0.38297752
57.112766 66.722038 -0.20682529
54.985466 67.562805 0
53.092049 68.311142 0.3275685
60.100525 65.535744 -0.69094968
59.568192 65.745392 -0.65706563
59.00526 65.967094 -0.59460098
58.407757 66.202408 -0.50100207
57.601246 66.520042 -0.38326553
57.128826 66.706093 -0.20624472
54.986023 67.550003 0
53.077164 68.301773 0.32785904
60.034245 65.556313 -0.70236075
59.566086 65.740036 -0.65706563
59.017082 65.955482 -0.59291178
58.366863 66.210655 -0.50442582
57.598206 66.512306 -0.38326553
57.130394 66.695892 -0.20609973
54.996265 67.533409 0
53.086494 68.282875 0.32742351
60.101425 65.524513 -0.69013548
59.549961 65.740158 -0.65914279
59.014725 65.949463 -0.59291178
58.354645 66.207581 -0.50528097
57.585548 66.508331 -0.38384154
57.13681 66.683807 -0.20580973
54.992001 67.522522 0
53.076492 68.271576 0.3275685
60.113407 65.51442 -0.68768984
59.571251 65.72567 -0.65568
59.012371 65.943436 -0.59291178
58.375893 66.191444 -0.50314152
57.596966 66.494949 -0.38297752
57.143269 66.671738 -0.20551917
54.963509 67.521088 0
53.085869 68.252708 0.32713294
60.083923 65.520454 -0.69258118
59.475624 65.756638 -0.66952324
59.000542 65.941093 -0.59403867
58.382832 66.180923 -0.50228477
57.613247 66.479729 -0.38182434
57.135204 66.665329 -0.20566417
54.97382 67.504509 0
53.095261 68.233879 0.32669795
60.105156 65.506805 -0.68850398
59.506248 65.738503 -0.66468006
59.021912 65.925873 -0.59122258
58.394554 66.168587 -0.50100207
57.605434 66.473869 -0.38211235
57.136833 66.655159 -0.20551917
54.969593 67.493599 0
53.095013 68.218819 0.32655239
60.038754 65.526993 -0.69991511
59.560329 65.711411 -0.65637416
58.967426 65.939972 -0.59741485
58.391937 66.161812 -0.50100207
57.621758 66.458702 -0.38095918
57.12392 66.650604 -0.20580973
54.975082 67.478943 0
53.08506 68.20752 0.32669795
59.995384 65.538155 -0.70724899
59.511436 65.724037 -0.66329443
59.036247 65.906555 -0.58897108
58.384541 66.156868 -0.50142968
57.609142 66.454697 -0.3815352
57.125587 66.640427 -0.20566417
54.946594 67.477371 0
53.1091 68.183144 0.32582682
60.030464 65.51918 -0.70072925
59.528099 65.711433 -0.6605258
59.02919 65.902374 -0.58953559
58.362759 66.157425 -0.50314152
57.596508 66.450676 -0.38211235
57.136948 66.626556 -0.20522916
54.937542 67.468285 0
53.089489 68.175552 0.32626238
60.07481 65.496773 -0.69258118
59.558857 65.69352 -0.65568
59.055393 65.885498 -0.5861572
58.388947 66.139633 -0.50057292
57.622562 66.431877 -0.38038203
57.124077 66.621956 -0.20551917
54.986862 67.436928 0
53.108727 68.153107 0.32553682
59.994453 65.521873 -0.70643479
59.552109 65.689934 -0.65637416
59.05312 65.879524 -0.5861572
58.352764 66.145615 -0.50356907
57.600285 66.431519 -0.3815352
57.101482 66.621033 -0.20609973
54.972973 67.429741 0
53.103714 68.139946 0.32553682
60.034222 65.501282 -0.69910091
59.479698 65.711205 -0.6667546
59.017578 65.886139 -0.5900979
58.359772 66.135162 -0.50271398
57.602184 66.421951 -0.38124719
57.117764 66.605331 -0.20551917
54.915283 67.439102 0
53.098721 68.126778 0.32553682
60.064789 65.484276 -0.69339538
59.538658 65.682724 -0.65775716
59.03907 65.871155 -0.58728403
58.390827 66.115662 -0.49971777
57.608936 66.410568 -0.38067117
57.104885 66.600685 -0.20580973
54.959846 67.409752 0
53.113194 68.10627 0.32495627
60.035244 65.489952 -0.69828361
59.513149 65.68615 -0.66121727
58.994007 65.881248 -0.59234947
58.320999 66.134163 -0.50570852
57.625397 66.395569 -0.379518
57.111488 66.588692 -0.20551917
54.980091 67.389671 0
53.113098 68.091286 0.32481128
60.051964 65.478226 -0.69502372
59.5252 65.675453 -0.65914279
59.00602 65.86985 -0.59066027
58.356892 66.112892 -0.50228477
57.612827 66.391487 -0.38009402
57.113224 66.578552 -0.20537417
54.932137 67.395195 0
53.093575 68.083588 0.32524627
60.01313 65.487274 -0.70154345
59.509087 65.675308 -0.66121727
58.951385 65.883354 -0.59685254
58.363953 66.102493 -0.50142968
57.643875 66.371109 -0.37807569
57.105251 66.572037 -0.20551917
54.932911 67.382416 0
53.122719 68.057693 0.3242307
60.015965 65.480736 -0.70072925
59.47414 65.682114 -0.66606307
59.011032 65.85424 -0.58953559
58.351799 66.099251 -0.50228477
57.660389 66.356224 -0.37692365
57.087528 66.569138 -0.20595473
54.95322 67.362396 0
53.098339 68.051788 0.32481128
60.037354 65.467339 -0.69665521
59.472111 65.676643 -0.66606307
59.018337 65.844673 -0.58840871
58.315559 66.104904 -0.50528097
57.647854 66.352158 -0.37749967
57.118549 66.548149 -0.20493861
55.002861 67.331573 0
53.098339 68.036804 0.32466573
60.054131 65.455704 -0.69339538
59.531281 65.648598 -0.65706563
59.025639 65.835136 -0.58728403
58.327477 66.092705 -0.50399661
57.65958 66.339104 -0.37663451
57.100845 66.545235 -0.20537417
55.194153 67.24865 0
53.112972 68.016434 0.32408515
60.075569 65.442413 -0.68932134
59.510452 65.650124 -0.65983427
58.990047 65.841393 -0.59122258
58.353859 66.075226 -0.50142968
57.656761 66.331444 -0.37663451
57.078262 66.544067 -0.20595473
55.449162 67.142838 0
53.112999 68.001488 0.32394016
60.041351 65.449562 -0.69502372
59.532017 65.63607 -0.65637416
58.99736 65.831848 -0.5900979
58.346539 66.070168 -0.50185722
57.634518 66.330887 -0.37778768
57.109356 66.523193 -0.20493861
55.523571 67.103867 0
53.127693 67.981186 0.32335961
60.030308 65.448174 -0.69665521
59.497063 65.6427 -0.66121727
58.95219 65.841476 -0.59516335
58.324745 66.070374 -0.50356907
57.651146 66.316109 -0.37663451
57.086784 66.521988 -0.20551917
55.64695 67.047249 0
53.113117 67.971611 0.32365015
60.061085 65.431549 -0.69094968
59.584663 65.604698 -0.64806819
58.945198 65.837105 -0.59572566
58.351192 66.052994 -0.50100207
57.658066 66.304901 -0.37605849
57.103279 66.506531 -0.20493861
55.643276 67.037155 0
53.113205 67.95668 0.32350516
60.054714 65.428474 -0.69176388
59.516689 65.623276 -0.65775716
58.962093 65.824081 -0.59347415
58.334248 66.051407 -0.50228477
57.660145 66.295479 -0.37577048
57.075829 66.507042 -0.20566417
55.683655 67.011108 0
53.123096 67.93821 0.3230696
60.081738 65.416016 -0.68687564
59.525139 65.617157 -0.65637416
58.960991 65.821037 -0.59347415
58.333008 66.047981 -0.50228477
57.658756 66.291649 -0.37577048
57.10363 66.492264 -0.20479362
55.672035 67.009621 0
53.150055 67.921036 0.32219848
60.061424 65.417976 -0.69013548
59.475986 65.628746 -0.66329443
58.934875 65.823555 -0.59629017
58.296719 66.053307 -0.50528097
57.665737 66.280472 -0.37519333
57.081066 66.490967 -0.20537417
55.653728 67.004845 0
55.663353 67.001373 0.24745597
60.031807 65.423225 -0.69502372
59.535416 65.601257 -0.65429699
58.937473 65.815712 -0.59572566
58.34256 66.029083 -0.50100207
57.677597 66.267578 -0.37432817
57.09763 66.475586 -0.20479362
55.669701 66.987724 0
55.703773 66.97551 0.2461493
60.011467 65.425079 -0.69828361
59.524044 65.599236 -0.65568
58.954426 65.802757 -0.59347415
58.335281 66.023972 -0.50142968
57.660244 66.26516 -0.37519333
57.089752 66.468994 -0.20493861
55.690601 66.968903 0
55.719742 66.958488 0.2455693
60.023708 65.415291 -0.69584107
59.503204 65.600555 -0.65844864
58.947449 65.79837 -0.59403867
58.318325 66.022293 -0.50271398
57.657513 66.2575 -0.37519333
57.076973 66.464134 -0.20522916
55.736046 66.941414 0
55.721085 66.946739 0.24542373
60.03598 65.405533 -0.69339538
59.567474 65.571648 -0.64875972
58.930923 65.797348 -0.59572566
58.306217 66.018852 -0.50356907
57.669418 66.244644 -0.37432817
57.093594 66.448814 -0.20464861
55.742317 66.92794 0
55.737122 66.929787 0.24484318
60.066917 65.389214 -0.68768984
59.470955 65.599716 -0.66260296
58.928757 65.791229 -0.59572566
58.29409 66.015396 -0.50442582
57.671585 66.235275 -0.37404016
57.085743 66.4422 -0.20479362
55.753498 66.912766 0
55.709072 66.928459 0.2455693
59.9813 65.413994 -0.70236075
59.540028 65.56926 -0.65221983
58.988911 65.763168 -0.58840871
58.286823 66.010201 -0.50485337
57.707928 66.21389 -0.37173381
57.0779 66.43557 -0.20493861
55.720535 66.913162 0
55.759468 66.89946 0.24397263
60.077553 65.374802 -0.6852473
59.486042 65.582123 -0.65983427
58.938816 65.773926 -0.59403867
58.269875 66.008392 -0.50613606
57.680851 66.214836 -0.373175
57.060246 66.432358 -0.20537417
55.741577 66.894547 0
55.780491 66.880913 0.24324706
60.04324 65.381462 -0.69094968
59.507816 65.568405 -0.65637416
58.936676 65.767807 -0.59403867
58.315918 65.984543 -0.50185722
57.678181 66.207199 -0.373175
57.076935 66.417122 -0.20479362
55.738083 66.884567 0
55.806465 66.860695 0.24237595
60.011879 65.381607 -0.69584107
59.523003 65.550972 -0.65360552
58.951626 65.748917 -0.5917871
58.277172 65.982567 -0.50485337
57.6973 66.183456 -0.37173381
57.076023 66.398682 -0.20464861
55.032795 67.106522 0
55.784836 66.845993 0.24281152
60.061619 65.359055 -0.68687564
59.502159 65.552109 -0.65637416
58.954334 65.74115 -0.59122258
58.313606 65.96225 -0.50142968
57.704437 66.172462 -0.3711578
57.073128 66.390312 -0.20464861
54.955238 67.121155 0
54.700684 67.209 0.27474052
59.961815 65.388031 -0.70398915
59.490807 65.549934 -0.65775716
58.966637 65.730103 -0.58953559
58.335514 65.947037 -0.49929023
57.701817 66.164856 -0.3711578
57.070244 66.381943 -0.20464861
54.95639 67.108536 0
54.564133 67.243362 0.27865887
59.997551 65.370346 -0.69746941
59.479435 65.547737 -0.65914279
58.930908 65.735535 -0.59347415
58.211735 65.981766 -0.50998902
57.718781 66.150543 -0.37000462
57.062462 66.375252 -0.20479362
54.913246 67.111092 0
54.515953 67.247116 0.27996555
60.014614 65.359123 -0.69420958
59.496563 65.535797 -0.65637416
58.914383 65.734337 -0.59516335
58.277386 65.951569 -0.50399661
57.72599 66.13961 -0.36942747
57.069443 66.36351 -0.20450306
54.99324 67.071548 0
54.521885 67.232292 0.27967498
59.984882 65.363853 -0.69910091
59.508968 65.525505 -0.65429699
58.965225 65.710205 -0.58897108
64 64 -0
57.723408 66.132027 -0.36942747
57.066589 66.355133 -0.20450306
54.935337 67.079071 0
54.552437 67.209137 0.27865887
60.067532 65.330482 -0.68442994
59.497631 65.523293 -0.65568
58.953526 65.707382 -0.5900979
64 64 -0
57.706131 66.129417 -0.37029263
57.053894 66.35009 -0.20479362
54.956268 67.059784 0
54.642082 67.166077 0.27590165
60.02845 65.338356 -0.69094968
59.519566 65.509842 -0.65221983
58.893677 65.720757 -0.59685254
64 64 -0
57.723171 66.115204 -0.36913946
57.055981 66.340034 -0.20464861
54.908192 67.063812 0
54.884495 67.071793 0.26864493
60.031517 65.331985 -0.69013548
59.436882 65.53157 -0.66398591
58.910873 65.708115 -0.59460098
64 64 -0
57.754936 66.0961 -0.36712226
57.038391 66.336601 -0.20508361
54.899567 67.054474 0
55.028584 67.011169 0.26429105
60.02523 65.328751 -0.69094968
59.477859 65.511734 -0.65775716
58.928093 65.695526 -0.59234947
64 64 -0
57.72298 66.098389 -0.36885145
57.070061 66.316658 -0.20406805
54.876137 67.050079 0
55.054516 66.990448 0.26342049
59.976715 65.339569 -0.69910091
59.46175 65.511032 -0.65983427
58.95015 65.681366 -0.58953559
64 64 -0
57.749889 66.081001 -0.36712226
57.057415 66.311562 -0.20435806
54.907013 67.02755 0
55.080502 66.96978 0.26254937
60.026718 65.317589 -0.69013548
59.507542 65.489754 -0.65291399
58.928825 65.681664 -0.5917871
64 64 -0
57.816128 66.050644 -0.3630856
57.044754 66.306442 -0.20464861
64 64 0
55.067047 66.96228 0.26283991
59.945335 65.339142 -0.70398915
59.515285 65.481171 -0.65152836
58.931641 65.673935 -0.59122258
64 64 -0
57.784172 66.05291 -0.36481592
57.041969 66.298042 -0.20464861
54.914555 67.000664 0
55.058544 66.95311 0.26298493
60.023544 65.307983 -0.69013548
59.456303 65.494568 -0.65983427
58.919956 65.67099 -0.59234947
64 64 -0
57.816101 66.034081 -0.36279759
57.063896 66.281509 -0.2039225
54.930714 66.983177 0
55.050049 66.943924 0.26312992
60.017273 65.304718 -0.69094968
59.559391 65.454712 -0.64460808
58.922764 65.663269 -0.5917871
64 64 -0
57.813648 66.026611 -0.36279759
57.031502 66.282837 -0.20479362
54.922173 66.973839 0
55.051434 66.931496 0.26298493
59.9828 65.310638 -0.69665521
59.524258 65.460236 -0.6494512
58.969078 65.641365 -0.5861572
64 64 -0
57.786617 66.027153 -0.36423877
57.028751 66.274414 -0.20479362
54.923531 66.96125 0
55.038025 66.923897 0.26327491
60.009434 65.296616 -0.69176388
59.446148 65.479637 -0.6605258
58.904274 65.655701 -0.59347415
64 64 -0
57.774323 66.022842 -0.36481592
57.04084 66.261169 -0.20435806
54.89521 66.958328 0
55.009773 66.921104 0.26400104
60.013351 65.292679 -0.69094968
59.440483 65.478432 -0.66121727
58.850098 65.669868 -0.59966642
64 64 -0
57.768188 66.020676 -0.36510393
57.05431 66.252151 -0.2039225
54.888481 66.95443 0
54.988255 66.922073 0.26458102
59.997673 65.292419 -0.69339538
59.405273 65.483719 -0.66606307
58.93029 65.637093 -0.5900979
64 64 -0
57.80513 66.000427 -0.36279759
57.036751 66.24855 -0.20435806
54.860138 66.951416 0
54.979771 66.912788 0.26472658
59.972591 65.295151 -0.69746941
59.47514 65.455116 -0.65568
58.879944 65.646523 -0.59572566
64 64 -0
57.792881 65.996109 -0.36337361
57.043926 66.236954 -0.20406805
54.871449 66.935593 0
54.936676 66.914612 0.26588771
59.947495 65.297813 -0.70154345
59.502045 65.440475 -0.65152836
58.868271 65.64344 -0.59685254
64 64 -0
57.820023 65.979141 -0.36164442
57.046192 66.226959 -0.2039225
54.838173 66.934082 0
54.928219 66.905243 0.2660327
59.927094 65.298927 -0.70480329
59.371254 65.476196 -0.67021471
58.905022 65.624886 -0.59234947
64 64 -0
57.788074 65.981102 -0.36337361
57.028648 66.223297 -0.20435806
54.829662 66.924591 0
54.909855 66.899017 0.26646826
59.982063 65.276047 -0.69502372
59.412506 65.456932 -0.66398591
58.840103 65.638725 -0.59966642
64 64 -0
57.810333 65.965767 -0.36193243
57.011101 66.219589 -0.20479362
54.806313 66.919807 0
54.827129 66.913193 0.26878995
59.867409 65.306969 -0.71458292
59.338985 65.474083 -0.67436904
58.847824 65.629417 -0.59853953
64 64 -0
57.812889 65.956726 -0.36164442
57.053017 66.197044 -0.2034875
54.837517 66.897713 0
54.719566 66.935013 0.27183774
59.912971 65.287125 -0.70643479
59.432926 65.438309 -0.6605258
58.884621 65.610985 -0.59403867
64 64 -0
57.795723 65.953911 -0.36250958
56.995853 66.205811 -0.20508361
54.853878 66.880386 0
54.602013 66.959709 0.27517608
59.892551 65.288101 -0.70969468
59.392891 65.444801 -0.66606307
58.780853 65.636734 -0.60585868
64 64 -0
57.837784 65.932487 -0.35991523
57.017982 66.189575 -0.20435806
54.83054 66.875565 0
54.558773 66.960793 0.27633721
60.004242 65.24778 -0.69013548
59.333672 65.457176 -0.67436904
58.706131 65.653145 -0.61430031
64 64 -0
57.835453 65.925034 -0.35991523
57.015343 66.181137 -0.20435806
54.797272 66.873787 0
54.555202 66.949379 0.27633721
59.913067 65.270828 -0.70561749
59.389412 65.433662 -0.66606307
58.728397 65.639206 -0.61148643
64 64 -0
57.813374 65.923729 -0.3610684
57.022629 66.169617 -0.20406805
54.833565 66.850304 0
54.571495 66.931793 0.27575663
59.906799 65.267357 -0.70643479
59.33976 65.442924 -0.67298335
58.707001 65.638847 -0.613738
64 64 -0
57.855541 65.902481 -0.35847291
57.039871 66.155029 -0.2034875
54.815208 66.843842 0
54.563 66.921936 0.27590165
59.914726 65.259499 -0.70480329
59.280483 65.455032 -0.68128932
58.675896 65.641426 -0.61711425
64 64 -0
57.779091 65.917915 -0.36279759
56.99258 66.1604 -0.20479362
54.81675 66.831215 0
54.554516 66.912056 0.27604663
59.856499 65.271965 -0.71458292
59.278728 65.449333 -0.68128932
58.703056 65.626053 -0.613738
64 64 -0
57.875683 65.880035 -0.35703173
57.019791 66.142776 -0.2039225
54.838207 66.812477 0
54.54604 66.902168 0.27619162
64 64 -0
59.300968 65.436295 -0.67782915
58.701096 65.619652 -0.613738
64 64 -0
57.794262 65.896828 -0.36164442
56.992344 66.141937 -0.20464861
54.864693 66.792274 0
54.567383 66.883148 0.27546608
64 64 -0
59.284832 65.434998 -0.67990631
58.606785 65.64135 -0.62443119
64 64 -0
57.816715 65.881798 -0.36020324
56.994747 66.131958 -0.20450306
54.821487 66.793358 0
54.618584 66.85511 0.27386996
59.875565 65.249771 -0.71050888
64 64 -0
64 64 -0
64 64 -0
57.789696 65.881828 -0.36164442
56.967293 66.131027 -0.20522916
55.346115 66.622276 0
55.579967 66.551414 0.24571429
59.812542 65.263351 -0.7211026
64 64 -0
64 64 -0
64 64 -0
57.792374 65.872826 -0.36135641
56.875175 66.149544 -0.2078414
55.691761 66.506577 0
55.770916 66.482697 0.24005428
59.886765 65.235535 -0.70806319
64 64 -0
58.664139 65.602791 -0.61711425
64 64 -0
57.78022 65.868301 -0.36193243
56.678486 66.199234 -0.21350142
55.78344 66.468094 0
55.772911 66.471252 0.23990873
59.89949 65.226311 -0.70561749
64 64 -0
58.652458 65.599251 -0.61824107
64 64 -0
57.777966 65.860786 -0.36193243
56.506557 66.241013 -0.21843588
55.760513 66.464127 0
55.764938 66.462807 0.24005428
59.864841 65.231232 -0.71132302
64 64 -0
64 64 -0
64 64 -0
57.835217 65.835548 -0.35847291
64 64 -0
55.747578 66.457138 0
55.766964 66.451363 0.23990873
59.849133 65.230453 -0.71376872
64 64 -0
64 64 -0
64 64 -0
57.847866 65.823692 -0.35760888
64 64 -0
55.739609 66.448647 0
55.754036 66.444374 0.24019928
59.923508 65.203049 -0.70072925
64 64 -0
64 64 -0
64 64 -0
57.820866 65.823578 -0.35905007
64 64 -0
55.761631 66.431297 0
55.761066 66.431465 0.23990873
59.893608 65.206482 -0.70561749
64 64 -0
64 64 -0
64 64 -0
57.828602 65.813187 -0.35847291
64 64 -0
55.708752 66.436012 0
55.708263 66.436157 0.2413604
59.863678 65.209846 -0.71050888
64 64 -0
64 64 -0
64 64 -0
57.816475 65.80864 -0.35905007
64 64 -0
55.705814 66.425995 0
55.720291 66.421761 0.24092484
59.857479 65.20623 -0.71132302
64 64 -0
64 64 -0
64 64 -0
57.814297 65.801163 -0.35905007
64 64 -0
55.722878 66.410149 0
55.722359 66.410301 0.24077983
59.950981 65.173698 -0.69502372
64 64 -0
64 64 -0
64 64 -0
57.822071 65.79081 -0.35847291
64 64 -0
55.734974 66.395798 0
55.70948 66.403191 0.24106984
59.955013 65.169876 -0.69420958
64 64 -0
64 64 -0
57.850796 65.778458 -0.35674372
64 64 -0
55.658524 66.412498 0
55.688057 66.403954 0.24165039
59.953606 65.164993 -0.69420958
64 64 -0
64 64 -0
57.818836 65.77961 -0.35847291
64 64 -0
55.665627 66.399536 0
55.690147 66.392471 0.2415054
59.971207 65.154655 -0.69094968
64 64 -0
58.668652 65.527962 -0.61430031
64 64 -0
57.861439 65.759315 -0.35587856
64 64 -0
55.632702 66.398071 0
55.692257 66.380997 0.2413604
59.979313 65.147072 -0.68932134
64 64 -0
58.730335 65.503395 -0.60698336
64 64 -0
57.844391 65.756149 -0.35674372
64 64 -0
64 64 0
55.69939 66.368103 0.24106984
59.878075 65.17057 -0.70643479
64 64 -0
58.728523 65.497032 -0.60698336
64 64 -0
57.857204 65.744476 -0.35587856
64 64 -0
55.687016 66.360779 0
55.65654 66.369431 0.24223095
59.92424 65.152138 -0.69828361
64 64 -0
58.780514 65.475449 -0.6007911
64 64 -0
57.870022 65.732834 -0.35501453
64 64 -0
64 64 0
55.623688 66.367828 0.24310151
59.927605 65.145882 -0.69746941
64 64 -0
58.876553 65.44162 -0.58953559
64 64 -0
57.828114 65.736626 -0.35731974
56.541031 66.098785 -0.21640421
55.646278 66.350548 0
55.460747 66.402748 0.24774598
59.869102 65.156952 -0.70724899
64 64 -0
58.869926 65.436798 -0.5900979
64 64 -0
57.8559 65.720802 -0.35559055
56.548515 66.08696 -0.21611366
55.653458 66.337646 0
55.037506 66.510155 0.25993714
59.97723 65.121429 -0.68850398
64 64 -0
58.784981 65.453796 -0.59966642
64 64 -0
57.823936 65.72171 -0.35731974
56.601051 66.062614 -0.21451753
55.69075 66.316376 0
54.834259 66.555145 0.26574215
60.037796 65.099388 -0.67791027
64 64 -0
58.822403 65.436623 -0.59516335
64 64 -0
57.841778 65.708717 -0.3561677
56.558502 66.064789 -0.21567865
55.687958 66.306335 0
54.926308 66.51767 0.26298493
59.912575 65.128815 -0.69910091
64 64 -0
58.781483 65.441193 -0.59966642
64 64 -0
57.83474 65.702652 -0.35645571
56.57605 66.050262 -0.2150981
55.609913 66.317078 0
54.943314 66.501167 0.26240435
59.820667 65.148766 -0.71458292
64 64 -0
58.799343 65.429497 -0.59741485
64 64 -0
57.837669 65.693832 -0.3561677
56.483391 66.066078 -0.21771033
55.652283 66.294525 0
54.965347 66.483337 0.26167881
59.943241 65.109802 -0.69339538
59.323425 65.279366 -0.66883171
58.91526 65.391029 -0.58390564
64 64 -0
57.825657 65.68911 -0.35674372
64 64 -0
55.649517 66.284431 0
54.937294 66.479279 0.26240435
59.875137 65.123077 -0.70480329
64 64 -0
58.800804 65.415588 -0.59685254
64 64 -0
57.873524 65.66806 -0.35386136
64 64 -0
55.591534 66.289383 0
54.939316 66.466957 0.26225936
64 64 -0
64 64 -0
59.024712 65.348167 -0.57096094
64 64 -0
57.876518 65.659302 -0.35357222
64 64 -0
55.463184 66.313248 0
54.986511 66.442413 0.26080769
64 64 -0
59.357574 65.251953 -0.66329443
58.93478 65.365974 -0.58109176
64 64 -0
57.879509 65.650551 -0.35328421
56.558788 66.006721 -0.2152431
55.08852 66.403221 0
56.398453 66.049957 0.21988086
59.952251 65.086342 -0.69094968
64 64 -0
58.9086 65.366432 -0.58390564
64 64 -0
57.827545 65.65657 -0.3561677
56.78223 65.937111 -0.20871195
54.859428 66.453156 0
56.556599 65.997665 0.2152364
60.003464 65.067421 -0.6819874
64 64 -0
58.808758 65.386505 -0.59516335
64 64 -0
57.860538 65.639763 -0.35414937
56.940544 65.885483 -0.20406805
54.931885 66.421967 0
56.54414 65.991356 0.21552695
64 64 -0
64 64 -0
58.816898 65.377625 -0.59403867
64 64 -0
57.868572 65.629684 -0.35357222
56.908146 65.884956 -0.20493861
55.125153 66.358864 0
56.556812 65.97834 0.21509141
59.73671 65.122124 -0.72680819
64 64 -0
58.985592 65.319824 -0.57433712
64 64 -0
57.864651 65.614861 -0.35357222
56.978985 65.847977 -0.20276193
55.517097 66.23275 0
56.557076 65.959023 0.2149464
60.07486 65.028053 -0.66894799
64 64 -0
64 64 -0
64 64 -0
57.872704 65.604828 -0.3529962
56.881252 65.864502 -0.20551917
55.645309 66.188217 0
56.55471 65.950027 0.2149464
59.958839 65.053223 -0.68850398
64 64 -0
58.913563 65.325645 -0.58221859
64 64 -0
57.910812 65.58699 -0.35068986
56.979584 65.829689 -0.20261638
56.352829 65.993034 0
56.557404 65.93972 0.21480085
60.062828 65.021042 -0.67057633
64 64 -0
58.882462 65.327148 -0.58559483
64 64 -0
57.88887 65.584824 -0.35184303
56.927063 65.834251 -0.20406805
56.531788 65.93676 0
56.53997 65.934639 0.2152364
64 64 -0
64 64 -0
58.728336 65.360329 -0.60304266
64 64 -0
57.871929 65.581314 -0.35270819
56.970135 65.814018 -0.20276193
56.433708 65.952438 0
56.567822 65.917831 0.21436584
64 64 -0
64 64 -0
64 64 -0
64 64 -0
57.900097 65.566193 -0.35097787
56.967949 65.805527 -0.20276193
56.446465 65.939415 0
56.55545 65.911438 0.21465585
64 64 -0
64 64 -0
64 64 -0
64 64 -0
57.909164 65.559937 -0.35040185
56.966858 65.801277 -0.20276193
56.404976 65.945183 0
56.529129 65.913383 0.2153814
64 64 -0
64 64 -0
64 64 -0
64 64 -0
57.892258 65.556404 -0.35126588
56.929451 65.801758 -0.20377749
56.45306 65.923149 0
56.536888 65.901787 0.21509141
64 64 -0
64 64 -0
64 64 -0
64 64 -0
57.895393 65.547752 -0.35097787
56.937344 65.790657 -0.2034875
58.680687 65.348656 0
