# .PCD v0.7 - Point Cloud Data file format
VERSION 0.7
FIELDS x y z
SIZE 4 4 4
TYPE F F F
COUNT 1 1 1
WIDTH 1707
HEIGHT 1
VIEWPOINT 0 0 0 1 0 0 0
POINTS 1707
DATA ascii
73.766922 69.171318 -0.61590558
64 64 -0
77.681328 71.243889 0
77.690727 71.248863 0.43264389
71.929077 68.210503 -0.74835318
73.756081 69.180679 -0.61561644
64 64 -0
77.667953 71.257965 0
77.663597 71.255653 0.43206334
71.991959 68.256287 -0.75477314
73.754395 69.194908 -0.61590558
64 64 -0
77.66378 71.276932 0
77.654816 71.272156 0.43206334
71.973221 68.258682 -0.75348884
73.734421 69.199371 -0.61504042
64 64 -0
77.650375 71.290977 0
77.66436 71.298447 0.43264389
71.993279 68.275604 -0.75562823
73.744965 69.212578 -0.61590558
64 64 -0
77.650574 71.301682 0
77.673698 71.314056 0.43307945
71.960968 68.270699 -0.75306123
73.734085 69.221893 -0.61561644
64 64 -0
77.627975 71.310791 0
77.651108 71.323196 0.43264389
64 64 -0
71.919632 68.260857 -0.74963754
73.768784 69.255722 -0.61821193
72.219498 68.422188 -0.26066938
77.605377 71.319847 0
74.319839 69.552193 0.32727849
71.941582 68.285042 -0.75220448
73.848907 69.314186 -0.62368864
72.172989 68.409904 -0.25936326
77.587372 71.331345 0
74.317688 69.567123 0.32742351
71.927376 68.289757 -0.75134939
72 68.329056 -0.50693601
72.181374 68.4272 -0.25979882
74.300995 69.574196 0
74.310959 69.57959 0.32742351
64 64 -0
71.91317 68.294441 -0.7504943
72.085693 68.388062 -0.51270187
72.176018 68.437088 -0.25979882
74.28511 69.58168 0
74.290497 69.584602 0.32698795
71.916985 68.308899 -0.75134939
72.044037 68.378052 -0.51039553
72.15239 68.437027 -0.25921828
74.241791 69.574196 0
74.265488 69.587097 0.32640737
71.893745 68.308624 -0.74963754
72.102303 68.422455 -0.51443112
72.18808 68.469276 -0.26052439
74.230476 69.584076 0
74.249611 69.594521 0.3261174
71.888535 68.318161 -0.74963754
72.074265 68.41983 -0.51298988
72.168991 68.47168 -0.26008883
74.232849 69.601425 0
74.256508 69.61438 0.32655239
71.860817 68.315338 -0.7474981
72.10067 68.447006 -0.51500821
72.136253 68.466545 -0.25921828
74.235207 69.618805 0
74.240616 69.621773 0.32626238
71.869095 68.33226 -0.7487824
72.095291 68.456795 -0.51500821
72.089867 68.453812 -0.25791159
74.191933 69.611084 0
74.242912 69.639153 0.32655239
71.926765 68.376503 -0.75477314
72.053665 68.446571 -0.51270187
72.043541 68.440979 -0.25660548
74.198822 69.630943 0
74.240654 69.654037 0.32669795
71.89003 68.368668 -0.75177693
72.034706 68.448776 -0.51183671
64 64 -0
74.205658 69.650818 0
74.220169 69.658859 0.32626238
71.871292 68.370728 -0.7504943
72.033844 68.460991 -0.51212478
64 64 -0
74.180618 69.653038 0
77.652534 71.58091 0.43612725
71.883926 68.390221 -0.75220448
71.996826 68.453087 -0.51010752
64 64 -0
77.606949 71.577126 0
77.629738 71.589813 0.43569168
71.872314 68.389984 -0.75134939
71.976059 68.447838 -0.50895435
64 64 -0
77.570549 71.567596 0
77.606995 71.587921 0.43511114
71.929733 68.43457 -0.75734013
71.988739 68.467575 -0.51010752
64 64 -0
77.529602 71.566208 0
77.584229 71.596756 0.43467614
71.897507 68.429085 -0.75477314
71.965294 68.467102 -0.50895435
71.746429 68.34436 -0.24804266
77.506828 71.574913 0
77.575035 71.613159 0.43467614
71.941376 68.466309 -0.75948119
71.937347 68.464043 -0.50751317
71.786476 68.379196 -0.24949434
77.511284 71.598885 0
77.565826 71.629562 0.43467614
71.918091 68.46582 -0.75776929
71.868858 68.438049 -0.50347656
71.672546 68.327332 -0.24601099
77.56102 71.648438 0
77.583748 71.661255 0.4355467
71.930565 68.485489 -0.75948119
64 64 -0
71.703499 68.357063 -0.2471721
77.583473 71.682755 0
77.560905 71.669991 0.43511114
71.95192 68.510262 -0.76204818
64 64 -0
71.738907 68.389442 -0.24847822
72.585205 68.869453 0
77.574242 71.699196 0.43583724
73.655617 69.492012 -0.92595184
64 64 -0
71.647781 68.349976 -0.245721
72.525024 68.848946 0
77.551376 71.707878 0.43540168
64 64 -0
71.770935 68.432465 -0.49857584
71.633484 68.354065 -0.24543044
72.43325 68.810242 0
77.555595 71.731979 0.43583724
64 64 -0
71.725166 68.418732 -0.49598148
71.637245 68.368446 -0.245721
72.386772 68.797173 0
77.546249 71.748352 0.43583724
64 64 -0
71.710854 68.42292 -0.49540547
71.731133 68.434555 -0.24891378
72.367416 68.79953 0
77.532349 71.762115 0.43569168
64 64 -0
71.705505 68.432236 -0.49540547
71.653687 68.402435 -0.24659155
72.325539 68.788879 0
77.522964 71.778465 0.43569168
64 64 -0
71.700142 68.441544 -0.49540547
71.589844 68.377922 -0.24470487
77.486458 71.779167 0
77.518066 71.797401 0.43583724
73.593315 69.549011 -0.92381072
71.735069 68.474152 -0.49799982
71.548561 68.366272 -0.24354376
77.508575 71.81369 0
77.504128 71.811119 0.43569168
73.607727 69.565102 -0.92552263
71.580177 68.390678 -0.48819843
71.622368 68.415115 -0.24601099
77.49485 71.816643 0
77.508408 71.824493 0.43598226
73.618759 69.587021 -0.92723447
71.650902 68.444 -0.49309912
71.612534 68.421715 -0.24586599
77.516891 71.851234 0
77.507919 71.846024 0.43627226
73.589821 69.585716 -0.92509508
71.538254 68.390755 -0.4861801
71.562271 68.404747 -0.24441431
77.493912 71.859711 0
77.507423 71.867577 0.43656281
73.558578 69.598495 -0.92338318
71.509766 68.398499 -0.48502693
71.493317 68.38887 -0.24252765
77.515297 71.91597 0
77.483887 71.897575 0.43641782
73.609352 69.643845 -0.92894638
71.522285 68.418053 -0.4861801
71.505928 68.408447 -0.2431082
77.514687 71.937561 0
77.483292 71.919121 0.43670779
73.575989 69.639824 -0.92637938
71.472374 68.400887 -0.48329774
71.505089 68.420158 -0.24325375
77.478188 71.938042 0
77.44236 71.916939 0.43569168
64 64 -0
71.533852 68.449364 -0.48762128
71.495255 68.426575 -0.2431082
77.464111 71.951675 0
77.468582 71.954323 0.43685281
64 64 -0
71.49733 68.440025 -0.48560408
71.485435 68.432983 -0.24296319
77.418663 71.946724 0
77.450027 71.965294 0.43656281
73.661407 69.737404 -0.93664896
71.451927 68.425308 -0.4830097
71.46666 68.434059 -0.24252765
77.431427 71.976212 0
77.43145 71.976227 0.43627226
73.59713 69.714928 -0.93108577
71.442123 68.431656 -0.48272058
71.470238 68.448402 -0.24281821
71.742462 68.610504 0
77.41288 71.987144 0.43598226
64 64 -0
71.458977 68.453911 -0.48416287
71.424706 68.433449 -0.24151209
71.674309 68.582489 0
77.443375 72.027321 0.43728837
64 64 -0
71.422523 68.444321 -0.48214456
71.450539 68.461098 -0.24252765
71.650909 68.581062 0
77.380157 72.01152 0.4355467
64 64 -0
71.421577 68.45594 -0.48243257
71.400597 68.443344 -0.24107653
71.569504 68.544762 0
72.692429 69.218971 0.28315833
64 64 -0
71.402885 68.456902 -0.48156741
71.408585 68.460327 -0.24151209
72.906181 69.361954 0
72.641586 69.20266 0.28170666
71.613785 68.590141 -0.7410782
71.386917 68.453369 -0.48070338
71.392532 68.456757 -0.24107653
72.996521 69.423759 0
72.625107 69.199837 0.28127167
71.555511 68.567467 -0.73594254
71.36824 68.454262 -0.47983822
71.364906 68.45224 -0.24035098
64 64 0
72.578789 69.186058 0.27996555
71.620239 68.619171 -0.74279004
71.376129 68.471207 -0.48070338
71.363968 68.463829 -0.24049596
64 64 0
72.536964 69.174873 0.27880442
71.592712 68.615051 -0.74065059
71.370728 68.480118 -0.48070338
71.362999 68.475418 -0.24064097
64 64 0
72.468529 69.147385 0.2767722
71.556442 68.605515 -0.73765445
71.356461 68.483627 -0.48012623
71.362038 68.48703 -0.24078652
64 64 0
72.431252 69.138687 0.27575663
71.515839 68.593231 -0.73423237
71.368698 68.503304 -0.4812794
71.369904 68.504044 -0.24122153
64 64 0
72.376251 69.119064 0.27415997
71.558426 68.631813 -0.73893875
71.345604 68.501396 -0.48012623
71.3423 68.499367 -0.24049596
72.965851 69.494278 0
72.33461 69.10746 0.27299884
71.4216 68.56031 -0.72610056
71.291695 68.480484 -0.47695583
71.310303 68.49192 -0.23962541
77.375946 72.21904 0
72.262032 69.076721 0.27082217
71.394234 68.555809 -0.72396111
71.352325 68.529984 -0.4812794
71.304871 68.500748 -0.23962541
77.374863 72.240654 0
72.233757 69.073059 0.27009606
71.423668 68.586327 -0.72738487
71.276428 68.495361 -0.47666672
71.317108 68.5205 -0.24020597
77.360474 72.254074 0
72.209953 69.07209 0.26951605
71.466118 68.625031 -0.73209125
71.297386 68.5205 -0.47839704
71.307213 68.526588 -0.24006042
77.350487 72.27021 0
72.128716 69.035484 0.26704884
71.412567 68.604256 -0.72738487
71.291916 68.52932 -0.47839704
71.314987 68.543648 -0.24049596
77.340485 72.286339 0
72.065224 69.009651 0.2651616
71.324188 68.561638 -0.71925306
71.290825 68.540855 -0.47868505
71.283035 68.536003 -0.23962541
77.339294 72.307945 0
72.041519 69.0084 0.26458102
71.331741 68.578644 -0.72053736
71.2985 68.557884 -0.47955021
71.273125 68.542038 -0.23947985
77.333656 72.326813 0
71.982582 68.985092 0.26283991
71.337669 68.588509 -0.72139251
71.282585 68.554062 -0.47868505
71.274796 68.549194 -0.23962541
77.341866 72.343147 0
71.944321 68.967873 0.26167881
71.362572 68.61647 -0.72438866
71.268318 68.557373 -0.478109
71.278091 68.563499 -0.23991542
77.349411 72.370323 0
71.898689 68.952621 0.2603727
71.365692 68.630829 -0.72524542
71.240898 68.552376 -0.47666672
71.259369 68.563988 -0.23947985
77.339287 72.386452 0
71.853088 68.937256 0.25906602
71.386139 68.656151 -0.72781241
71.222275 68.552849 -0.47580269
71.249458 68.569984 -0.23933485
77.320351 72.397018 0
71.838333 68.941208 0.25877601
71.298065 68.612961 -0.71968228
71.229874 68.569862 -0.47666672
71.243935 68.578743 -0.23933485
77.318985 72.418663 0
71.748901 68.897926 0.25601879
71.25779 68.599785 -0.71625853
71.219986 68.575829 -0.47637871
71.247185 68.593063 -0.23962541
77.3088 72.434746 0
71.659576 68.854424 0.253261
71.269562 68.619568 -0.71797043
71.218811 68.587318 -0.47666672
71.237228 68.599022 -0.23947985
77.302986 72.453613 0
71.57914 68.816292 0.25079376
71.233658 68.609032 -0.71497422
71.204544 68.590485 -0.4760907
71.231667 68.607765 -0.23947985
77.283997 72.464088 0
71.555786 68.814278 0.25021321
71.241074 68.626068 -0.71625853
71.207703 68.604752 -0.47666672
71.239235 68.624893 -0.23991542
77.282524 72.485733 0
71.471138 68.773048 0.24760097
71.300316 68.676346 -0.72267681
71.206505 68.616257 -0.47695583
71.251144 68.644852 -0.24049596
77.276657 72.504593 0
73.023163 69.779945 0.29926783
71.273064 68.671288 -0.72053736
71.187859 68.61657 -0.4760907
64 64 -0
77.270744 72.523438 0
73.038033 69.804886 0.2999934
71.211304 68.643944 -0.71497422
71.173569 68.619644 -0.47551355
64 64 -0
77.26918 72.545097 0
73.044128 69.824249 0.30042896
71.192741 68.644295 -0.71368992
71.189728 68.642349 -0.47695583
64 64 -0
77.267593 72.56678 0
64 64 0
71.247467 68.692047 -0.71968228
71.158051 68.634155 -0.47522554
64 64 -0
77.261604 72.585632 0
64 64 0
71.184311 68.657326 -0.71368992
71.146576 68.632858 -0.47464952
64 64 -0
77.269516 72.602135 0
64 64 0
71.221733 68.693985 -0.71797043
71.171318 68.661217 -0.47666672
64 64 -0
77.259117 72.618164 0
73.028122 69.868103 0.30071896
71.220352 68.705505 -0.71839797
71.152695 68.661415 -0.47580269
64 64 -0
77.257408 72.639854 0
73.025391 69.881851 0.30086452
71.227562 68.722656 -0.71968228
71.151382 68.672882 -0.4760907
64 64 -0
77.255676 72.661568 0
73.022621 69.895592 0.30100951
71.208961 68.722946 -0.71839797
71.132744 68.673012 -0.47522554
64 64 -0
77.236488 72.671867 0
73.011147 69.903641 0.30086452
71.216125 68.740112 -0.71968228
71.105476 68.667427 -0.47378436
64 64 -0
77.230347 72.690712 0
73.008347 69.917381 0.30100951
71.236115 68.765762 -0.72224927
71.125748 68.693077 -0.47551355
64 64 -0
77.224197 72.709564 0
73.022888 69.942551 0.30173507
71.17038 68.734901 -0.71625853
71.133026 68.710236 -0.47637871
64 64 -0
77.235374 72.739876 0
73.007034 69.947723 0.30144507
71.211731 68.774734 -0.72096497
71.131638 68.721703 -0.47666672
64 64 -0
77.211777 72.747238 0
72.943497 69.921303 0.29955783
71.158913 68.752213 -0.71625853
71.130249 68.733185 -0.47695583
64 64 -0
77.205536 72.766068 0
72.953659 69.943596 0.30013838
71.217262 68.80352 -0.72267681
71.098679 68.724594 -0.47522554
64 64 -0
77.203606 72.787796 0
72.933502 69.945786 0.29970339
71.228539 68.823639 -0.72438866
71.092964 68.73317 -0.47522554
64 64 -0
77.179985 72.795074 0
72.926308 69.956573 0.29970339
71.103226 68.752434 -0.71240562
71.095848 68.747498 -0.47580269
64 64 -0
71.221336 68.831459 0
72.919106 69.967354 0.29970339
71.152916 68.798203 -0.71797043
71.107292 68.767593 -0.47695583
64 64 -0
71.176598 68.814087 0
72.911888 69.978127 0.29970339
71.14711 68.806839 -0.71797043
71.07576 68.75885 -0.47522554
64 64 -0
71.166458 68.819855 0
71.076317 68.759224 0.23816705
71.131432 68.802551 -0.71668607
71.09005 68.774681 -0.47637871
64 64 -0
71.180817 68.835808 0
71.241562 68.876717 0.24382763
71.117104 68.805412 -0.71582931
71.084274 68.783249 -0.47637871
64 64 -0
71.166336 68.838654 0
71.270119 68.90873 0.24498874
71.119804 68.819771 -0.71668607
71.087067 68.797607 -0.47695583
71.126663 68.824417 -0.24035098
64 64 0
71.229752 68.894203 0.24382763
71.147957 68.85144 -0.72010982
71.072693 68.800354 -0.47637871
71.112221 68.827179 -0.24006042
71.184769 68.876419 0
71.232422 68.908768 0.24411762
71.125114 68.848518 -0.71839797
71.062614 68.805984 -0.4760907
71.080612 68.818237 -0.23918985
71.148743 68.864601 0
64 64 0
71.165886 68.888939 -0.72310436
71.039711 68.802856 -0.47493753
71.087669 68.835579 -0.23962541
71.117073 68.855637 0
64 64 0
71.109138 68.862823 -0.71797043
71.025352 68.805511 -0.47436038
71.077522 68.841194 -0.23947985
71.119781 68.870102 0
71.210297 68.932022 0.24397263
71.07785 68.853981 -0.71540177
71.015282 68.811073 -0.47407237
71.097389 68.867386 -0.24035098
71.113892 68.878708 0
71.221474 68.952484 0.24455318
71.101593 68.882896 -0.71839797
71.043564 68.842995 -0.47637871
71.082932 68.870064 -0.24006042
71.116577 68.893204 0
71.202637 68.95237 0.24411762
71.055984 68.876694 -0.71497422
71.002045 68.839409 -0.47436038
71.071136 68.887161 -0.24006042
71.100441 68.907417 0
71.173546 68.957947 0.24353707
71.058517 68.89106 -0.71582931
71.025963 68.868492 -0.47637871
71.052429 68.886833 -0.23962541
71.047455 68.883392 0
71.133377 68.942924 0.24237595
71.052605 68.899582 -0.71582931
70.998833 68.862228 -0.47493753
71.046516 68.895355 -0.23962541
71.054367 68.900803 0
71.106064 68.936722 0.24165039
71.021408 68.890503 -0.71326238
71.03965 68.903206 -0.478109
71.019264 68.889 -0.23889929
77.083183 73.112602 0
71.065979 68.921539 0.24048927
71.081627 68.938797 -0.71968228
71.015457 68.892654 -0.47666672
71.033356 68.905136 -0.23947985
77.08194 73.123474 0
70.994804 68.878242 0.23816705
71.0504 68.929695 -0.71711367
71.047714 68.927811 -0.47926217
77.168655 73.207626 -0.44876009
77.07943 73.145241 0
71.040009 68.922432 0.23990873
71.061256 68.949997 -0.71882552
71.075623 68.960068 -0.48156741
77.149017 73.217567 -0.44847009
77.068375 73.161034 0
70.978745 68.892151 0.23802204
71.076263 68.973282 -0.72096497
71.154266 69.028107 -0.48733327
79.242424 74.712555 -0.5203104
77.074326 73.188789 0
70.951569 68.885643 0.23729649
71.045074 68.964088 -0.71839797
71.799377 69.495583 -0.53172863
79.212479 74.718994 -0.51972979
77.050461 73.195595 0
70.924423 68.879074 0.23657092
64 64 -0
71.881454 69.56768 -0.53778249
79.191032 74.731369 -0.51943982
77.052086 73.22036 0
70.92276 68.890434 0.23671593
64 64 -0
64 64 -0
79.182289 74.752724 -0.51958483
77.040932 73.236122 0
70.908379 68.892792 0.23642594
71.056328 69.010399 -0.72139251
64 64 -0
79.17775 74.777069 -0.51987481
77.034019 73.254898 0
70.953293 68.937233 0.23816705
64 64 -0
79.173195 74.801437 -0.52016538
77.022827 73.270638 0
70.921928 68.927551 0.23729649
64 64 -0
79.160133 74.819763 -0.52016538
77.020081 73.292412 0
70.894821 68.920822 0.23657092
71.767738 69.557999 -0.53230464
79.138588 74.832016 -0.51987481
77.017319 73.314201 0
70.88887 68.929146 0.23657092
71.756813 69.564369 -0.53201663
79.138161 74.85939 -0.5203104
77.006058 73.329918 0
70.86602 68.925354 0.23599038
71.724884 69.555611 -0.53028631
79.141907 74.889816 -0.52089095
77.015892 73.360825 0
70.889603 68.954887 0.23700649
71.684593 69.540733 -0.52798003
79.120316 74.902031 -0.52060091
77.013008 73.382622 0
70.858307 68.944969 0.23613538
71.957489 69.744812 -0.81810898
71.668678 69.536301 -0.52711594
79.130562 74.923317 -0.52118093
77.007339 73.390488 0
70.855316 68.949112 0.23613538
71.975487 69.772476 -0.82067597
71.624268 69.518272 -0.52452159
79.117355 74.941589 -0.52118093
76.995987 73.406197 0
70.828285 68.942154 0.23540981
71.947739 69.767036 -0.81853652
71.596649 69.512283 -0.52307934
79.116745 74.969009 -0.52161652
76.9804 73.418839 0
70.788658 68.925987 0.2342487
71.932465 69.770599 -0.81768143
71.577446 69.512337 -0.52221525
79.107674 74.990318 -0.52176148
76.977417 73.440628 0
72.850235 70.438248 0.30565342
71.904732 69.765045 -0.81554037
71.533165 69.494057 -0.5196209
79.106987 75.017761 -0.52219707
76.978622 73.465508 0
72.838257 70.445877 0.3055084
71.901917 69.777634 -0.81596959
71.513992 69.493988 -0.51875573
79.08947 75.032936 -0.52205205
76.967178 73.481186 0
64 64 0
71.890778 69.784134 -0.81554037
71.461449 69.469421 -0.51558423
79.088707 75.060387 -0.52248758
76.968307 73.506081 0
64 64 0
71.871384 69.784546 -0.81425768
71.442345 69.469254 -0.5147202
79.058578 75.066299 -0.52190703
76.969398 73.530991 0
64 64 0
71.885056 69.80928 -0.81639713
64 64 -0
79.070297 75.102974 -0.52277762
76.95787 73.546661 0
72.84465 70.516258 0.30681452
71.869759 69.812698 -0.81554037
71.387489 69.456482 -0.51183671
79.061043 75.12426 -0.52292264
76.967262 73.577766 0
72.836769 70.526939 0.30681452
71.866867 69.825264 -0.81596959
71.37674 69.462326 -0.5115487
79.051781 75.145554 -0.52306819
76.955673 73.59343 0
72.824707 70.534523 0.30666953
71.85569 69.831696 -0.81554037
64 64 -0
79.050812 75.173012 -0.52350318
76.944077 73.609077 0
72.820969 70.548279 0.30681452
71.786873 69.795212 -0.80912209
71.338623 69.461617 -0.50981951
79.045639 75.197403 -0.5237937
76.919922 73.615387 0
72.813049 70.558929 0.30681452
71.664642 69.718651 -0.79713899
71.340302 69.476662 -0.51039553
79.061249 75.23732 -0.5248093
76.924988 73.64344 0
72.821785 70.582008 0.3073951
71.620064 69.692558 -0.79286015
71.332855 69.477997 -0.51010752
79.037804 75.233978 -0.52422875
76.944168 73.66993 0
72.821983 70.590454 0.30754066
71.6707 69.74485 -0.79885089
71.31794 69.480652 -0.50953043
79.015907 75.245911 -0.52393872
76.924149 73.679329 0
72.818169 70.604218 0.30768564
71.856712 69.898987 -0.81896412
71.31131 69.489487 -0.50953043
79.010612 75.270287 -0.52422875
76.929092 73.707436 0
72.814331 70.617989 0.30783066
71.915207 69.957878 -0.82581156
71.296417 69.492104 -0.50895435
79.005295 75.29467 -0.52451926
76.929832 73.732445 0
72.818787 70.638016 0.30826619
71.957184 70.004547 -0.83094716
71.298027 69.507141 -0.50953043
78.995781 75.315918 -0.52466428
76.930519 73.757462 0
72.814903 70.651787 0.30841121
71.986771 70.04203 -0.83479846
71.291367 69.515953 -0.50953043
79.011108 75.35598 -0.52568042
76.902115 73.760513 0
72.794426 70.65303 0.30797565
64 64 -0
71.292946 69.531021 -0.51010752
79.001518 75.377251 -0.52582538
76.882027 73.769814 0
72.79467 70.669937 0.30826619
64 64 -0
71.294487 69.546082 -0.51068354
79.008438 75.411095 -0.52655095
76.88678 73.797974 0
72.782455 70.677406 0.30812064
71.960739 70.067833 -0.83437091
71.283669 69.551758 -0.51039553
78.998764 75.432365 -0.52669597
72.615509 70.56691 0
72.786781 70.697464 0.3085562
71.945229 70.071205 -0.83351415
71.285179 69.566841 -0.51097268
78.989082 75.453644 -0.52684152
72.599304 70.571007 0
72.782806 70.711227 0.30870122
71.889 70.04335 -0.82838023
71.27433 69.572487 -0.51068354
76.92495 73.901131 -0.45471069
72.566574 70.562401 0
72.778831 70.725006 0.30884677
71.792099 69.984077 -0.81896412
71.259399 69.574974 -0.51010752
76.941833 73.938904 -0.4557268
72.579269 70.5886 0
72.787186 70.748268 0.30942732
71.585541 69.840034 -0.79799575
71.236259 69.571121 -0.50895435
76.938042 73.960861 -0.45601681
72.596039 70.618004 0
72.770782 70.752533 0.30913675
71.485001 69.777039 -0.7881521
71.258194 69.60199 -0.51097268
76.942451 73.989189 -0.45659736
72.61689 70.65065 0
72.774963 70.772659 0.30957231
71.477448 69.778427 -0.78772455
71.246613 69.600044 -0.51039553
76.944641 74.003372 -0.4568879
72.612869 70.655853 0
72.783211 70.787491 0.31000787
64 64 -0
71.256195 69.621468 -0.5115487
76.916115 74.006271 -0.45630735
72.637733 70.691757 0
72.762672 70.788551 0.30957231
71.43914 69.777588 -0.78515756
71.253479 69.6334 -0.51183671
76.899918 74.018692 -0.45616236
72.61731 70.692612 0
72.754463 70.799133 0.30957231
71.432152 69.786575 -0.78515756
71.246666 69.642159 -0.51183671
76.924698 74.062996 -0.45746848
72.60099 70.696617 0
72.766739 70.825668 0.31029788
71.429199 69.798706 -0.78558511
71.26432 69.670013 -0.51356703
72.557938 70.679726 -0.30319288
76.864014 74.040741 0
72.754395 70.833061 0.31015289
71.446442 69.826653 -0.7881521
71.224876 69.653282 -0.51126069
72.447548 70.610001 -0.29956454
76.855972 74.059479 0
72.746132 70.843636 0.31015289
71.439392 69.835648 -0.7881521
71.242447 69.68116 -0.51298988
72.472267 70.645859 -0.30072564
76.864273 74.091064 0
72.741943 70.857399 0.31029788
71.428307 69.841461 -0.78772455
71.219315 69.677116 -0.51183671
72.411125 70.614334 -0.29883897
76.892982 74.138771 0
72.713226 70.851898 0.30957231
71.42527 69.853607 -0.7881521
71.216507 69.689034 -0.51212478
72.399048 70.621277 -0.29869398
76.921608 74.186569 0
72.717186 70.872078 0.31000787
71.414169 69.859398 -0.78772455
71.213699 69.700966 -0.51241386
72.399193 70.637863 -0.29898396
76.921539 74.211861 0
72.765953 70.927711 0.31203955
71.378906 69.846031 -0.78472835
71.231125 69.728951 -0.51414305
72.407455 70.660912 -0.29956454
76.901024 74.221001 0
72.74128 70.925392 0.311459
71.351738 69.838982 -0.78258896
71.224197 69.737679 -0.51414305
72.318031 70.606438 -0.2966623
64 64 0
72.736977 70.939178 0.31160399
71.328613 69.835068 -0.78087705
71.24559 69.768967 -0.51616138
72.301903 70.610001 -0.29637173
76.884438 74.258636 0
72.724518 70.946495 0.311459
71.305504 69.831108 -0.77916521
71.226486 69.768028 -0.51529622
76.769676 74.192497 -0.45630735
76.872032 74.274193 0
72.716125 70.957031 0.311459
71.330063 69.857956 -0.78216136
71.239159 69.785316 -0.51644939
76.771629 74.206688 -0.45659736
76.869888 74.285217 0
72.715973 70.965538 0.31160399
71.34301 69.882858 -0.7843008
71.228134 69.790825 -0.51616138
72.087234 70.479095 -0.28940561
76.869644 74.310524 0
72.72377 70.989059 0.31218454
71.359924 69.911026 -0.78686941
71.204994 69.786598 -0.51500821
71.969994 70.400993 -0.2854867
76.853104 74.3228 0
72.723434 71.006111 0.31247512
71.365585 69.944916 -0.78900886
71.199036 69.810486 -0.51558423
71.849365 70.335381 -0.28171334
76.828117 74.353828 0
72.714554 71.033691 0.31276512
71.354408 69.950584 -0.78858131
71.204079 69.828941 -0.51644939
71.910378 70.400429 -0.28418058
76.831787 74.382423 0
72.714127 71.050751 0.3130551
71.339233 69.952988 -0.78772455
71.205055 69.844154 -0.51702547
71.825966 70.347786 -0.28142336
76.839439 74.414307 0
72.705597 71.061272 0.3130551
71.324074 69.955383 -0.78686941
71.206024 69.85939 -0.51760256
71.935219 70.452316 -0.28563225
76.818779 74.423256 0
72.684975 71.061958 0.3126201
71.352684 69.993416 -0.7907207
71.206947 69.874626 -0.51817864
64 64 -0
76.814232 74.445305 0
72.684486 71.07901 0.31291011
71.468674 70.102997 -0.80398649
71.199844 69.883331 -0.51817864
71.851196 70.415573 -0.28316504
76.809669 74.467377 0
72.679947 71.092781 0.3130551
64 64 -0
71.200745 69.898582 -0.51875573
71.658516 70.273575 -0.2764889
76.801041 74.486137 0
72.691483 71.119743 0.31378123
64 64 -0
71.185608 69.900711 -0.51817864
71.823616 70.424629 -0.28272948
76.792374 74.504898 0
72.682869 71.130241 0.31378123
64 64 -0
71.174484 69.906105 -0.51789057
71.727585 70.36142 -0.27953666
76.791733 74.530273 0
72.674248 71.140724 0.31378123
64 64 -0
71.179314 69.924652 -0.51875573
71.607658 70.278137 -0.27547276
76.778999 74.545723 0
72.673622 71.157814 0.31407124
64 64 -0
71.17215 69.933319 -0.51875573
71.700172 70.37014 -0.2791011
76.794327 74.584389 0
72.676987 71.17823 0.3145068
64 64 -0
71.172546 69.940948 -0.51904374
71.724342 70.397995 -0.28011724
76.779907 74.585464 0
72.664635 71.176834 0.31421623
64 64 -0
71.169334 69.952911 -0.51933181
71.736595 70.42392 -0.28084278
76.775124 74.607559 0
72.65596 71.187294 0.31421623
71.377548 70.140869 -0.8001352
71.174072 69.971504 -0.52019691
71.553078 70.28698 -0.27445665
76.762299 74.622986 0
72.647263 71.197746 0.31421623
71.362244 70.143211 -0.79928005
71.16288 69.976852 -0.51990891
64 64 -0
76.749451 74.638397 0
72.642563 71.211533 0.31436178
71.335114 70.13562 -0.79713899
71.151688 69.982193 -0.5196209
71.629547 70.381905 -0.27779502
76.740578 74.657135 0
72.64579 71.231964 0.31479678
71.280487 70.104889 -0.79200339
71.144455 69.990829 -0.5196209
71.542191 70.324333 -0.27489221
76.719704 74.665825 0
72.64502 71.249092 0.31508735
71.280975 70.1203 -0.79286015
71.137215 69.999451 -0.5196209
64 64 -0
76.722748 74.69458 0
72.648193 71.269562 0.31552291
71.242165 70.102623 -0.7894364
71.125992 70.00473 -0.51933181
71.526886 70.342545 -0.27489221
76.709816 74.709946 0
72.635414 71.276649 0.31537735
64 64 -0
71.138504 70.030037 -0.52077407
71.427917 70.274513 -0.27155441
76.716751 74.742104 0
72.638535 71.297142 0.31581289
71.12162 70.030533 -0.77788252
71.135155 70.042 -0.52106208
64 64 -0
76.719658 74.770912 0
72.633667 71.310928 0.3159579
64 64 -0
71.119949 70.043915 -0.52048492
64 64 -0
76.710594 74.789642 0
72.628784 71.324715 0.31610289
71.177399 70.107613 -0.78558511
71.136292 70.072632 -0.52221525
71.36554 70.267708 -0.27010274
76.693588 74.80162 0
72.612022 71.328407 0.31581289
64 64 -0
71.13681 70.087959 -0.52279127
71.270981 70.202408 -0.26690996
76.680527 74.816956 0
72.61898 71.352303 0.31639346
71.100182 70.071556 -0.77873766
71.109795 70.079773 -0.52135009
71.378021 70.309135 -0.27111888
76.679306 74.842407 0
72.60218 71.355949 0.31610289
71.100647 70.086815 -0.77959442
71.106369 70.091721 -0.5216381
71.299377 70.257172 -0.26850665
76.670143 74.861099 0
72.601181 71.373108 0.31639346
71.174873 70.157967 -0.7881521
71.141945 70.129715 -0.52452159
71.275879 70.244659 -0.26778108
76.67543 74.878929 0
72.608566 71.388458 0.31682903
71.140198 70.143204 -0.78515756
71.126686 70.131584 -0.52394444
71.291962 70.273781 -0.26865163
76.674118 74.904419 0
72.607498 71.405632 0.317119
71.02002 70.054588 -0.77274692
71.103607 70.126678 -0.52279127
71.276497 70.275787 -0.26836106
76.660934 74.919731 0
72.610359 71.426208 0.31755456
71.012703 70.063065 -0.77274692
71.111847 70.148788 -0.52394444
71.264977 70.281181 -0.26821607
76.643799 74.931618 0
72.593506 71.429802 0.31726402
70.931648 70.007645 -0.76461512
71.112236 70.164154 -0.52452159
71.245613 70.279755 -0.26778108
76.650238 74.963928 0
72.600235 71.453796 0.31784457
70.947647 70.036224 -0.76718378
71.124306 70.189705 -0.52596277
71.218391 70.271454 -0.26705495
76.640907 74.98262 0
72.587296 71.460777 0.31769958
71.102951 70.186226 -0.78515756
71.112923 70.194916 -0.52567476
71.234329 70.300659 -0.26792607
76.631546 75.001297 0
72.57045 71.464333 0.31740957
71.122528 70.218437 -0.7881521
71.085938 70.186485 -0.52423251
71.238449 70.319633 -0.26836106
76.618248 75.016556 0
72.57708 71.48835 0.31799012
70.999115 70.125603 -0.77531391
64 64 -0
78.500397 76.690697 -0.53816158
76.589264 75.018082 0
72.568024 71.498711 0.31799012
70.937683 70.086662 -0.76932317
71.300385 70.404861 -0.54124087
78.516304 76.735626 -0.53932267
76.587677 75.043587 0
72.578491 71.526192 0.31871569
71.026703 70.179802 -0.78002197
64 64 -0
64 64 -0
76.574326 75.058784 0
72.569389 71.536552 0.31871569
70.942207 70.120377 -0.77146262
71.1064 70.265129 -0.52798003
64 64 -0
76.57267 75.084305 0
72.575867 71.560646 0.31929624
70.977127 70.166168 -0.77617067
71.207352 70.369629 -0.53605217
64 64 -0
76.567062 75.106369 0
72.570618 71.57444 0.31944126
70.869766 70.086082 -0.76504433
71.118347 70.306305 -0.5299983
64 64 -0
76.557541 75.125008 0
72.557571 71.581345 0.31929624
70.796944 70.0289 -0.75734013
71.118401 70.314034 -0.53028631
78.462395 76.828163 -0.53990322
76.546913 75.129128 0
72.572426 71.60376 0.32002181
70.808846 70.054176 -0.75948119
71.126228 70.33638 -0.53143948
78.439117 76.83873 -0.53961325
76.521797 75.133919 0
72.547699 71.600296 0.31944126
70.636719 69.915497 -0.7410782
71.110847 70.338104 -0.53086346
78.423599 76.856171 -0.53961325
76.488892 75.131714 0
72.550148 71.620995 0.31987682
70.62574 69.920097 -0.74065059
70.968185 70.226067 -0.52077407
78.423538 76.887421 -0.5401932
76.467682 75.139862 0
72.544807 71.634781 0.32002181
70.599464 69.910973 -0.7385112
70.972206 70.244827 -0.5216381
78.419571 76.915245 -0.54062879
76.458084 75.158394 0
72.543312 71.652031 0.32031181
70.542656 69.874359 -0.73294801
70.99929 70.284348 -0.52423251
78.407822 76.936127 -0.54077381
76.444595 75.173439 0
72.537933 71.665825 0.32045737
70.619507 69.957817 -0.7423625
71.018616 70.317032 -0.52625078
78.39991 76.960487 -0.54106432
76.431084 75.188461 0
72.540245 71.686554 0.32089236
70.600861 69.95549 -0.7410782
70.96489 70.28392 -0.52279127
78.372665 76.96743 -0.54062879
76.417557 75.203476 0
72.534821 71.700363 0.32103792
70.582245 69.95314 -0.73979551
70.91893 70.257645 -0.51990891
78.360832 76.988274 -0.54077381
76.427177 75.239426 0
72.525513 71.71067 0.32103792
70.57505 69.96109 -0.73979551
70.907532 70.262527 -0.5196209
78.36824 77.026566 -0.54164493
76.417442 75.257927 0
72.527725 71.73143 0.32147291
70.526047 69.931038 -0.73508745
70.919098 70.288261 -0.52106208
78.364029 77.054405 -0.54208046
76.403831 75.272926 0
72.522217 71.745216 0.32161793
70.587181 70.001152 -0.74279004
70.88855 70.275703 -0.51933181
78.344391 77.068245 -0.54193491
76.397888 75.294907 0
72.512856 71.755508 0.32161793
70.598877 70.026413 -0.74492949
70.90007 70.301476 -0.52077407
78.347778 77.103088 -0.54266047
76.388084 75.3134 0
72.511162 71.772804 0.32190847
70.602951 70.044785 -0.74621379
70.911522 70.327271 -0.52221525
78.335777 77.123932 -0.54280603
76.38591 75.338898 0
72.509422 71.790092 0.32219848
70.550255 70.011108 -0.7410782
70.930542 70.360092 -0.52423251
78.342873 77.162323 -0.54367656
76.37603 75.357368 0
72.5 71.800369 0.32219848
70.576866 70.042847 -0.74450189
70.873375 70.315285 -0.52019691
78.334923 77.170982 -0.54367656
76.365341 75.361328 0
72.49913 71.809029 0.32234403
70.603546 70.082092 -0.74835318
70.896179 70.351624 -0.52250326
76.400154 75.420975 -0.47082019
76.370743 75.393883 0
72.501144 71.829849 0.32277903
70.535851 70.034355 -0.74150735
70.823891 70.300301 -0.51760256
76.397797 75.446526 -0.47125575
76.364624 75.415894 0
72.499321 71.847168 0.3230696
70.528549 70.042252 -0.74150735
70.812477 70.305031 -0.51731455
76.391594 75.468567 -0.47154629
76.347 75.427292 0
72.508896 71.875084 0.32379514
70.570175 70.095528 -0.74707055
70.729012 70.242889 -0.5115487
76.415817 75.518867 -0.47299743
76.336998 75.44574 0
72.484138 71.871216 0.32321459
70.581596 70.120941 -0.74920994
70.649506 70.18409 -0.50607198
72.49382 71.899323 -0.32394683
76.319351 75.4571 0
72.459396 71.86731 0.32263404
70.574196 70.128883 -0.74920994
70.573914 70.128624 -0.50088215
70.659775 70.208664 -0.25428382
64 64 0
72.442291 71.870445 0.32234403
70.563034 70.133324 -0.7487824
70.562721 70.133034 -0.50059414
70.63327 70.198959 -0.25355768
70.671257 70.234451 0
72.46315 71.909027 0.32350516
70.518257 70.121048 -0.74535865
70.532799 70.134705 -0.499441
70.584175 70.182953 -0.25225157
70.595459 70.19355 0
72.508408 71.989929 0.32597238
70.514587 70.132439 -0.74578625
70.566818 70.181602 -0.50261247
72.483772 71.986107 -0.32539797
72.471497 71.974548 0
72.502533 72.003761 0.3261174
70.503441 70.13678 -0.74535865
70.563103 70.193077 -0.50290048
64 64 -0
72.435349 71.95977 0
72.481506 72.003326 0.32568184
70.477379 70.126999 -0.74321926
70.544342 70.190338 -0.50203532
72.445572 71.988731 -0.3246724
72.444633 71.987839 0
72.460503 72.002853 0.32524627
70.514664 70.1772 -0.74835318
70.518089 70.18045 -0.50059414
64 64 -0
72.423653 71.987305 0
72.473465 72.034531 0.3261174
70.496033 70.166992 -0.74664134
70.521851 70.191498 -0.50117022
72.423553 71.99688 -0.32438239
72.4226 71.995972 0
72.49498 72.064682 0.32713294
70.477432 70.16423 -0.74535865
70.51812 70.202957 -0.5014593
72.413879 72.00705 -0.32438239
72.424248 72.016907 0
72.492767 72.082115 0.32742351
70.492264 70.193314 -0.74792564
70.49939 70.200111 -0.50059414
72.422997 72.035141 -0.32510796
72.395706 72.009109 0
72.490509 72.099541 0.32771349
70.466225 70.183411 -0.74578625
70.476936 70.193657 -0.499441
72.413284 72.045311 -0.32510796
72.397316 72.030045 0
72.461937 72.091835 0.32698795
70.473572 70.205429 -0.7474981
70.491852 70.222954 -0.50117022
72.429825 72.08065 -0.32612407
72.391357 72.043785 0
72.414642 72.066101 0.32553682
70.63266 70.373322 -0.76675624
70.476875 70.223625 -0.50059414
72.412552 72.083618 -0.32583353
72.396652 72.068344 0
72.416138 72.087067 0.32597238
71.035378 70.776665 -0.81425768
70.473068 70.235039 -0.50088215
72.406517 72.097382 -0.32597852
72.405632 72.096535 0
72.402603 72.093613 0.32582682
71.149063 70.90284 -0.82838023
70.510185 70.285973 -0.50434166
72.396729 72.107536 -0.32597852
72.403343 72.113922 0
72.404037 72.114594 0.32626238
71.17392 70.943611 -0.83223152
71.216209 70.984543 -0.55969054
72.386925 72.117676 -0.32597852
72.38604 72.116821 0
72.383018 72.113899 0.32582682
71.143402 70.930817 -0.82966286
71.304306 71.086922 -0.56718665
72.392029 72.142281 -0.32655907
72.383705 72.134201 0
72.391853 72.142113 0.32655239
71.138718 70.943031 -0.83009207
71.306847 71.106552 -0.56805068
72.385918 72.156044 -0.32670462
72.373871 72.144333 0
72.382011 72.152245 0.32655239
71.111931 70.933723 -0.82795101
71.272339 71.090111 -0.56603348
72.37606 72.166176 -0.32670462
72.371475 72.161697 0
72.361 72.151497 0.3261174
71.099876 70.938721 -0.82752347
71.260056 71.095268 -0.5657444
72.381035 72.190804 -0.32728463
72.342995 72.153625 0
72.354858 72.165222 0.32626238
71.07682 70.932922 -0.82581156
71.210846 71.064224 -0.56257397
72.371132 72.200928 -0.32728463
72.385201 72.214699 0
72.348694 72.17894 0.32640737
71.072098 70.945068 -0.82623911
71.194916 71.065674 -0.56199682
72.372345 72.221962 -0.3277202
64 64 0
72.34623 72.196312 0.32669795
71.060585 70.942146 -0.82538402
71.153763 71.03376 -0.55911446
72.374794 72.234314 -0.32801074
64 64 0
72.337563 72.197701 0.32655239
71.063164 70.961487 -0.82666832
71.141579 71.038773 -0.55882645
72.36113 72.240768 -0.32786518
72.389984 72.269211 0
72.33506 72.215073 0.32684293
71.04744 70.962791 -0.82581156
71.11467 71.029221 -0.55738527
72.354874 72.254524 -0.32801074
72.394798 72.293976 0
72.343605 72.243393 0.3275685
71.031731 70.964081 -0.82495648
71.091469 71.023254 -0.55623209
72.344894 72.264618 -0.32801074
72.373688 72.293137 0
72.344727 72.26445 0.32800406
71.008736 70.958107 -0.82324457
71.068298 71.017235 -0.55507892
72.345955 72.285667 -0.32844576
72.385818 72.325241 0
72.334732 72.274521 0.32800406
70.996689 70.962952 -0.82281703
71.045143 71.011177 -0.55392575
72.33963 72.299423 -0.32859132
72.383141 72.34272 0
72.30999 72.269928 0.32742351
70.95919 70.94239 -0.81939328
70.989059 70.972191 -0.55017823
72.340622 72.320496 -0.32902631
72.369354 72.349152 0
72.303665 72.28363 0.3275685
70.958054 70.958054 -0.82024843
70.947716 70.947716 -0.54758388
72.345261 72.345261 -0.32960686
72.351906 72.351906 0
72.30835 72.30835 0.32814905
70.931511 70.94828 -0.81810898
70.939316 70.956108 -0.54758388
72.331505 72.351662 -0.32946187
72.360184 72.380417 0
72.298309 72.31839 0.32814905
70.923111 70.95665 -0.81810898
70.916313 70.949821 -0.54643071
72.317749 72.358047 -0.32931685
72.34639 72.386826 0
72.302917 72.34314 0.32872963
70.907455 70.957718 -0.81725222
70.882393 70.932472 -0.54441237
72.33326 72.393898 -0.33033243
72.350914 72.411674 0
72.292824 72.353165 0.32872963
70.873764 70.940536 -0.81425768
70.881287 70.948128 -0.54498845
72.312149 72.392891 -0.32989743
72.362717 72.443947 0
72.279076 72.359489 0.32858461
70.854546 70.937874 -0.81297338
70.854706 70.938042 -0.54354721
72.298355 72.399239 -0.32975242
72.348846 72.45034 0
72.27993 72.380585 0.32902017
70.84256 70.942497 -0.81254584
70.839066 70.938957 -0.54297119
72.277252 72.398148 -0.32931685
72.342285 72.464127 0
72.277084 72.39798 0.32931018
70.823364 70.939774 -0.81126153
70.808907 70.925072 -0.54124087
72.197868 72.33773 -0.32655907
72.335693 72.477913 0
72.26693 72.407974 0.32931018
70.79039 70.914597 -0.80783778
70.804726 70.929184 -0.54124087
72.200119 72.350105 -0.32684964
72.348816 72.501526 0
72.269127 72.420372 0.32960019
70.785622 70.926453 -0.80826533
70.745674 70.885681 -0.53720534
72.142746 72.311752 -0.32496297
72.327606 72.50045 0
72.29895 72.471199 0.33119684
70.773659 70.930984 -0.80783778
70.744583 70.90123 -0.53778249
72.092743 72.280701 -0.32336628
72.320969 72.514221 0
72.277809 72.47007 0.33076128
70.758118 70.931816 -0.80698264
70.714569 70.887146 -0.53605217
72.155289 72.364891 -0.32626909
72.325203 72.539177 0
72.311104 72.524719 0.33250296
70.742577 70.93261 -0.80612588
70.680992 70.869293 -0.53403389
72.170525 72.40081 -0.32728463
72.31488 72.549232 0
72.282684 72.516129 0.33177739
70.712746 70.918648 -0.80355895
70.7015 70.907059 -0.53634018
72.138664 72.388306 -0.32641408
72.315422 72.57048 0
72.304955 72.559692 0.33308351
70.693665 70.915688 -0.80227458
70.631996 70.851967 -0.53143948
72.034554 72.301048 -0.32264072
72.305061 72.580521 0
70.458626 70.672844 0.25935656
70.685303 70.923767 -0.80227458
70.638084 70.874863 -0.53259265
72.057007 72.344391 -0.32394683
72.316376 72.613014 0
70.479431 70.710548 0.26051769
70.637764 70.891174 -0.7975682
70.629768 70.882874 -0.53259265
71.996445 72.301727 -0.32191518
72.302353 72.619308 0
70.489342 70.737083 0.26124325
70.62587 70.895477 -0.79713899
70.57486 70.842392 -0.52884513
72.040413 72.367584 -0.32409185
72.317177 72.655609 0
70.488403 70.752426 0.2615338
70.610435 70.896072 -0.7962839
70.573753 70.857811 -0.52942228
71.918823 72.261002 -0.31959295
72.31031 72.669411 0
70.487427 70.767754 0.2618238
70.584358 70.885506 -0.79414445
70.579765 70.880699 -0.53057545
71.984261 72.349434 -0.32264072
72.31781 72.69825 0
70.464882 70.760567 0.26124325
70.565399 70.882309 -0.79286015
70.514313 70.828758 -0.52596277
71.945465 72.328995 -0.32147962
72.300117 72.700768 0
70.46389 70.775902 0.2615338
70.557076 70.890236 -0.79286015
70.488228 70.817894 -0.52452159
71.881653 72.28212 -0.31930238
72.289597 72.710793 0
70.452103 70.77993 0.26138824
70.531075 70.879539 -0.7907207
70.508476 70.855743 -0.52682793
71.82872 72.246422 -0.31756127
72.275475 72.71701 0
70.479691 70.825417 0.26283991
70.512787 70.868584 -0.78900886
70.47229 70.825874 -0.52423251
71.848755 72.277534 -0.31857681
72.29528 72.748459 0
70.486282 70.840637 0.26327491
70.504486 70.87645 -0.78900886
70.432053 70.799873 -0.5216381
71.813759 72.260597 -0.31756127
72.295441 72.769821 0
70.478012 70.848465 0.26327491
70.478554 70.865639 -0.78686941
70.42028 70.803879 -0.52135009
71.828728 72.296478 -0.31857681
72.291969 72.787399 0
70.484001 70.871407 0.26385549
70.445618 70.84729 -0.78387326
70.373047 70.770195 -0.51817864
71.772392 72.256744 -0.31669015
72.277786 72.793625 0
70.475693 70.879242 0.26385549
70.43383 70.851334 -0.78344572
70.386116 70.800522 -0.51990891
71.744629 72.247192 -0.31596458
72.274269 72.811203 0
70.47805 70.89843 0.26429105
70.425545 70.8591 -0.78344572
70.374367 70.804466 -0.5196209
71.766632 72.290672 -0.3172707
72.263618 72.821198 0
70.462616 70.898674 0.26400104
70.406731 70.855598 -0.78216136
64 64 -0
71.643074 72.178566 -0.31262681
72.203209 72.777939 0
70.454277 70.906471 0.26400104
70.380943 70.844566 -0.78002197
64 64 -0
71.679253 72.237206 -0.31451347
72.210335 72.806877 0
70.442368 70.910454 0.26385549
70.34819 70.825951 -0.77702576
64 64 -0
71.626823 72.200813 -0.3127718
72.199692 72.816795 0
70.455261 70.941078 0.26472658
70.343422 70.837372 -0.77745336
70.358994 70.854156 -0.52106208
71.627518 72.221451 -0.31320736
72.185493 72.822884 0
70.436256 70.937439 0.26429105
70.324707 70.83374 -0.77617067
70.340157 70.850441 -0.52019691
71.564621 72.173447 -0.31103012
72.188965 72.848045 0
70.459641 70.97953 0.26559716
70.29554 70.818741 -0.77360207
70.331879 70.858093 -0.52019691
71.544159 72.171127 -0.31059456
72.188866 72.869415 0
70.447678 70.983521 0.26545215
70.290787 70.830124 -0.77403122
70.334106 70.877159 -0.52106208
71.558929 72.207001 -0.3116107
72.160515 72.860161 0
70.435715 70.987488 0.26530716
70.243027 70.811234 -0.77017832
70.306976 70.881004 -0.52019691
71.514488 72.198418 -0.31059456
72.163689 72.906708 0
70.422318 71.006844 0.26545215
70.214661 70.788506 -0.76718378
70.327271 70.911522 -0.52221525
71.484985 72.176132 -0.30957901
72.151283 72.903961 0
70.432121 71.026054 0.2660327
70.230675 70.82254 -0.77017832
70.308449 70.9077 -0.52135009
71.440048 72.14679 -0.30812734
72.133492 72.906113 0
70.416611 71.026138 0.26574215
70.218971 70.826271 -0.76975077
70.303574 70.919136 -0.5216381
71.342705 72.059738 -0.304499
72.119225 72.912086 0
70.418625 71.045418 0.26617771
70.169281 70.788185 -0.76461512
70.305649 70.93824 -0.52250326
71.388885 72.130142 -0.30682123
72.10495 72.918045 0
70.413597 71.057007 0.2663227
70.236946 70.879326 -0.77403122
70.311165 70.961182 -0.52365643
71.316231 72.069763 -0.30420899
72.087173 72.920113 0
70.412048 71.072464 0.26661327
70.2183 70.875427 -0.77274692
70.30275 70.968803 -0.52365643
71.390137 72.171104 -0.30769235
72.086868 72.94146 0
70.403503 71.080208 0.26661327
70.254692 70.932487 -0.77831006
70.28392 70.96489 -0.52279127
71.293228 72.083565 -0.30406401
72.079536 72.955086 0
70.405388 71.099518 0.26704884
70.211975 70.901886 -0.77403122
70.285889 70.984016 -0.52365643
71.2174 72.018982 -0.30130619
72.065231 72.960976 0
70.396805 71.107254 0.26704884
70.193336 70.897926 -0.77274692
70.273994 70.987755 -0.52336842
71.256302 72.081825 -0.30333787
72.054398 72.970718 0
70.395149 71.122704 0.26733881
70.232941 70.958939 -0.77873766
70.27935 71.01075 -0.52452159
71.288139 72.137039 -0.30507955
72.033134 72.968811 0
70.379608 71.122688 0.26704884
70.238213 70.981781 -0.78044951
70.239853 70.983612 -0.52192724
71.143272 71.994713 -0.29941952
72.011894 72.966873 0
70.367531 71.126503 0.26690328
70.23661 70.996979 -0.78130627
70.217644 70.9757 -0.52077407
71.206215 72.084801 -0.30246732
71.990662 72.96489 0
70.362381 71.138084 0.26704884
70.248611 71.027527 -0.78387326
70.222961 70.998672 -0.52192724
71.14119 72.031364 -0.30014509
71.976372 72.97065 0
70.371017 71.165184 0.26777437
70.202637 70.992821 -0.77916521
70.245392 71.041016 -0.52452159
71.14183 72.051659 -0.30058065
71.968979 72.984177 0
70.355446 71.165092 0.26748383
70.207794 71.015686 -0.78087705
70.192322 70.998199 -0.52077407
71.111443 72.036934 -0.29971009
71.947762 72.982094 0
70.350227 71.176651 0.26762882
70.200157 71.015594 -0.78044951
70.218918 71.036819 -0.52336842
71.051521 71.978928 -0.29738787
71.928551 72.971298 0
70.345886 71.180489 0.26762882
70.215446 71.050041 -0.78344572
70.193306 71.024933 -0.52192724
71.065926 72.014717 -0.29840341
71.917702 72.980873 0
70.354401 71.207657 0.26835495
70.189972 71.038277 -0.78130627
70.198471 71.047928 -0.52307934
71.039078 72.003738 -0.29767784
71.899979 72.98262 0
70.355972 71.22702 0.26878995
70.184845 71.049606 -0.78173381
70.20359 71.070969 -0.52423251
70.991707 71.969276 -0.29608175
71.878815 72.980415 0
70.354095 71.242516 0.26908049
70.179703 71.060928 -0.78216136
70.167801 71.047333 -0.52192724
70.930733 71.91906 -0.29390451
71.871384 72.993843 0
70.341927 71.246284 0.2689355
70.134018 71.025848 -0.77745336
70.186485 71.085938 -0.52423251
70.763939 71.747353 -0.28722838
71.836555 72.975914 0
70.329735 71.250015 0.26878995
70.11879 71.02552 -0.77659822
70.181328 71.097321 -0.52452159
70.440582 71.394989 -0.2738761
71.818863 72.977516 0
70.327805 71.265503 0.26908049
70.177643 71.11042 -0.78515756
70.1931 71.128204 -0.52625078
70.400963 71.367462 -0.27256998
71.784111 72.95945 0
70.319023 71.273148 0.26908049
70.152237 71.09848 -0.78301811
70.164154 71.112236 -0.52452159
70.279755 71.245613 -0.26778108
71.763062 72.957062 0
70.320442 71.292557 0.26951605
70.153717 71.117554 -0.7843008
70.17247 71.139244 -0.52596277
70.260796 71.241402 -0.26734552
70.261253 71.241928 0
70.31842 71.308044 0.26980606
70.192062 71.17942 -0.79029316
70.163841 71.146698 -0.52596277
64 64 -0
70.286499 71.28891 0
70.31636 71.32354 0.27009606
70.126465 71.120735 -0.78301811
70.12484 71.118851 -0.52336842
64 64 -0
70.28447 71.30439 0
70.31768 71.342987 0.27053162
70.091103 71.09697 -0.77959442
70.146553 71.161575 -0.52596277
64 64 -0
70.228188 71.256683 0
70.315582 71.358513 0.27082217
70.13929 71.170616 -0.78686941
70.144615 71.176842 -0.52653879
64 64 -0
70.229561 71.276054 0
70.310059 71.370079 0.27096719
70.131607 71.17041 -0.78644025
70.150368 71.192352 -0.52740395
64 64 -0
70.231934 71.287735 0
70.302231 71.369949 0.27082217
70.11628 71.170013 -0.78558511
70.165176 71.227333 -0.52942228
64 64 -0
70.236633 71.311104 0
70.300064 71.385452 0.27111217
70.137558 71.212585 -0.7894364
70.15979 71.238716 -0.52971029
70.217201 71.306183 -0.26792607
64 64 0
70.297874 71.400986 0.27140272
70.10891 71.196518 -0.78686941
70.120911 71.210663 -0.52711594
64 64 -0
70.229057 71.338058 0
70.295647 71.416504 0.27169272
70.100204 71.203896 -0.78686941
70.108856 71.214111 -0.52682793
70.212959 71.337044 -0.26850665
70.226906 71.353516 0
70.296761 71.436012 0.27212828
70.121315 71.246552 -0.7907207
70.120155 71.245186 -0.52855712
70.194023 71.332634 -0.26807109
70.221375 71.365013 0
70.297821 71.455513 0.27256328
70.102623 71.242165 -0.7894364
70.124733 71.268402 -0.52971029
70.195213 71.352036 -0.26850665
70.232605 71.396408 0
70.295509 71.471069 0.27285385
70.100479 71.257401 -0.79029316
70.082664 71.236206 -0.52682793
70.182968 71.35553 -0.26836106
70.233696 71.415878 0
70.3032 71.498558 0.27357942
70.104889 71.280487 -0.79200339
70.133743 71.314888 -0.53201663
70.180763 71.370964 -0.26865163
70.218048 71.415436 0
70.290794 71.50219 0.2734344
70.089508 71.279991 -0.7911483
70.095032 71.286591 -0.52942228
70.181854 71.390396 -0.2690872
70.212418 71.426933 0
70.291733 71.521751 0.27386996
70.047821 71.247932 -0.78686941
70.109413 71.321739 -0.53143948
70.17292 71.397858 -0.2690872
70.203445 71.434433 0
70.275978 71.521362 0.27357942
70.062042 71.282845 -0.78986394
70.100555 71.329117 -0.53143948
70.177277 71.421288 -0.26966774
70.201118 71.449936 0
70.283501 71.548904 0.27430496
70.056526 71.294121 -0.79029316
70.11483 71.364349 -0.53345782
70.178253 71.440727 -0.27010274
70.192116 71.45742 0
70.277702 71.560501 0.27445051
70.028053 71.277702 -0.78772455
70.099335 71.36377 -0.5328818
70.179207 71.460197 -0.2705383
70.193054 71.476913 0
70.275192 71.57608 0.27474052
70.032333 71.300819 -0.7894364
70.093727 71.375122 -0.53316981
70.160255 71.455635 -0.27010274
70.190651 71.492424 0
70.266029 71.583656 0.27474052
70.011589 71.28466 -0.78729701
70.10244 71.39476 -0.53432298
70.159065 71.463379 -0.27024829
70.192741 71.504181 0
70.268066 71.595459 0.27503109
70.0093 71.299843 -0.7881521
70.093498 71.402122 -0.53432298
70.153343 71.474823 -0.27039331
70.193596 71.52372 0
70.265488 71.611046 0.27532107
69.987442 71.291229 -0.78644025
70.07798 71.401482 -0.53374583
70.157501 71.498322 -0.27097386
70.194412 71.543266 0
70.269478 71.634674 0.27590165
69.998154 71.322296 -0.78900886
70.062485 71.400826 -0.53316981
70.145134 71.501724 -0.27082831
70.181984 71.546707 0
70.260246 71.64225 0.27590165
70.015289 71.361343 -0.79243261
70.063347 71.420151 -0.53403389
70.142647 71.517197 -0.27111888
70.172867 71.554176 0
70.257584 71.657845 0.27619162
64 64 -0
70.067451 71.443504 -0.53518707
70.143417 71.536705 -0.27155441
70.173599 71.57373 0
70.248322 71.665405 0.27619162
64 64 -0
70.058449 71.450836 -0.53518707
70.137581 71.548149 -0.27169943
70.164444 71.581184 0
70.242348 71.676987 0.27633721
64 64 -0
70.085289 71.502342 -0.53835851
70.134995 71.563622 -0.27198943
70.158554 71.592667 0
70.233063 71.684525 0.27633721
70.002243 71.418259 -0.79542714
70.056709 71.485573 -0.53662932
70.116058 71.558922 -0.27155441
70.15593 71.608208 0
70.240112 71.71225 0.27706274
69.912659 71.32563 -0.78472835
70.08989 71.545212 -0.54037684
