# .PCD v0.7 - Point Cloud Data file format
VERSION 0.7
FIELDS x y z
SIZE 4 4 4
TYPE F F F
COUNT 1 1 1
WIDTH 1712
HEIGHT 1
VIEWPOINT 0 0 0 1 0 0 0
POINTS 1712
DATA ascii
64 64 -0
64 64 -0
77.747307 70.147255 0
77.714935 70.132774 0.41958219
64 64 -0
64 64 -0
64 64 -0
80.576263 71.436302 -0.50739366
77.891838 70.232033 0
77.807083 70.194016 0.42262998
64 64 -0
64 64 -0
64 64 -0
80.628876 71.484047 -0.50928032
78.093124 70.342796 0
78.031799 70.315201 0.42974168
64 64 -0
64 64 -0
64 64 -0
80.534569 71.465645 -0.50666809
78.170845 70.398384 0
78.170975 70.398438 0.43424058
64 64 -0
64 64 -0
64 64 -0
80.582344 71.511353 -0.5084098
78.182068 70.424088 0
78.262642 70.460587 0.43728837
64 64 -0
64 64 -0
64 64 -0
80.492828 71.494835 -0.50594252
78.174294 70.441223 0
78.21225 70.458466 0.43598226
64 64 -0
64 64 -0
64 64 -0
80.412827 71.482414 -0.50376529
78.180695 70.464813 0
78.142967 70.447617 0.43409556
64 64 -0
64 64 -0
64 64 -0
80.55011 71.557083 -0.50811923
78.190994 70.479866 0
78.209961 70.488533 0.43627226
64 64 -0
64 64 -0
80.55043 71.581413 -0.5084098
78.168953 70.490509 0
104.61222 82.603622 1.2475598
64 64 -0
64 64 -0
80.55069 71.605736 -0.50869977
78.175293 70.514145 0
104.64638 82.678719 1.2493014
64 64 -0
64 64 -0
80.517899 71.614853 -0.50797421
78.153229 70.524727 0
104.64739 82.738708 1.2500275
64 64 -0
64 64 -0
80.414345 71.591179 -0.5050714
78.13118 70.535278 0
104.65773 82.80307 1.2510432
64 64 -0
64 64 -0
80.428726 71.621941 -0.50579697
80.875824 71.829369 0
104.66327 82.865311 1.2519143
64 64 -0
64 64 -0
80.438354 71.650558 -0.50637752
80.795563 71.816803 0
104.60746 82.899078 1.2508981
64 64 -0
64 64 -0
80.44323 71.67701 -0.50681311
80.790817 71.839294 0
104.62697 82.967911 1.2522043
64 64 -0
64 64 -0
80.302162 71.635155 -0.5027492
80.762482 71.850746 0
104.61815 83.023605 1.2526398
64 64 -0
64 64 -0
80.471657 71.738823 -0.50826424
80.77182 71.879852 0
104.60452 83.077087 1.2529298
64 64 -0
64 64 -0
80.509308 71.780876 -0.50971591
80.776421 71.906769 0
104.57205 83.121704 1.2526398
74.752571 69.083603 -0.99142712
64 64 -0
80.744186 71.916321 -0.51726258
80.780975 71.933708 0
104.51602 83.155167 1.2516237
74.596527 69.041191 -0.97815973
77.496979 70.421059 -0.83297843
80.781326 71.983551 -0.51900429
80.74765 71.967529 0
104.31007 83.177116 1.2466892
74.576538 69.047363 -0.97687703
77.423843 70.406166 -0.82894176
80.795113 72.015007 -0.51972979
80.742706 71.989998 0
104.29626 83.230293 1.2469798
74.561165 69.055702 -0.97602028
77.360123 70.395584 -0.82548338
80.7901 72.037537 -0.51987481
80.728348 72.00798 0
104.29642 83.290184 1.2477053
74.559669 69.070679 -0.97644782
77.431656 70.449791 -0.83038408
80.789749 72.062325 -0.52016538
80.742111 72.039444 0
104.29182 83.347855 1.2482859
74.548912 69.081207 -0.97602028
77.372581 70.441315 -0.82721257
80.812759 72.098389 -0.52118093
80.741776 72.064194 0
104.27309 83.398781 1.248431
74.56588 69.105118 -0.97815973
77.406708 70.477722 -0.82980692
80.831047 72.132263 -0.52205205
80.727318 72.082146 0
104.24963 83.447433 1.248431
74.545853 69.111176 -0.97687703
77.380249 70.484894 -0.82865375
80.751053 72.118591 -0.51987481
80.722237 72.10463 0
104.24013 83.502853 1.2488664
74.747429 69.224915 -0.99613351
77.409622 70.51915 -0.83096009
80.755264 72.145645 -0.5203104
80.71711 72.127106 0
104.24924 83.56736 1.249882
74.634987 69.186142 -0.98629153
77.420334 70.544418 -0.83211327
80.750076 72.168167 -0.52045536
80.707275 72.147293 0
104.22557 83.615982 1.249882
74.53186 69.151619 -0.97730458
77.4217 70.56517 -0.83268929
80.78688 72.211235 -0.52190703
80.706764 72.172043 0
104.21118 83.669144 1.2501726
74.574844 69.180565 -0.98158348
77.408447 70.568733 -0.83211327
80.795906 72.228226 -0.52234203
80.711182 72.186722 0
104.21328 83.700287 1.2506076
74.550148 69.18428 -0.97987157
77.405136 70.587204 -0.83240128
80.78595 72.24852 -0.52234203
80.696609 72.204613 0
104.20345 83.755737 1.2510432
74.530075 69.190224 -0.97858894
77.406456 70.607979 -0.83297843
80.794617 72.277985 -0.52292264
80.714684 72.238586 0
104.21684 83.822678 1.2522043
74.560616 69.221146 -0.98201263
77.426277 70.637924 -0.83470762
80.798584 72.305183 -0.52335817
80.695374 72.254158 0
104.1882 83.868958 1.2520592
74.554298 69.233902 -0.98201263
77.395081 70.642654 -0.83326644
80.783882 72.323166 -0.52321315
80.71804 72.290512 0
104.17813 83.924431 1.2524948
74.575539 69.260368 -0.98457962
77.368515 70.64962 -0.83211327
80.797073 72.355011 -0.52393872
80.717339 72.315353 0
104.1261 83.959076 1.2516237
64 64 -0
77.37899 70.675003 -0.83326644
64 64 -0
80.707275 72.335541 0
80.935562 72.44944 0.52857649
64 64 -0
64 64 -0
64 64 -0
80.715813 72.365044 0
103.95229 83.993195 1.2477053
74.528877 69.284851 -0.98201263
77.385933 70.718918 -0.83470762
80.808479 72.436829 -0.52524483
80.701027 72.382889 0
103.74231 83.948204 1.2418997
74.563751 69.318344 -0.98586392
77.387054 70.739746 -0.83528477
80.849335 72.482834 -0.52684152
80.681595 72.398392 0
80.909462 72.513107 0.52872151
64 64 -0
77.360428 70.74659 -0.8341316
80.834419 72.500839 -0.52669597
80.690025 72.427925 0
103.3461 83.868515 1.2310153
74.54628 69.34153 -0.98543477
77.319962 70.746361 -0.83211327
80.819504 72.518829 -0.52655095
80.670532 72.443375 0
103.16907 83.838554 1.2262259
64 64 -0
77.37175 70.792908 -0.83586079
80.813828 72.541496 -0.52669597
80.678879 72.472946 0
102.94121 83.782303 1.2198397
74.537926 69.369339 -0.98586392
64 64 -0
80.803497 72.561806 -0.52669597
80.668625 72.493088 0
102.77837 83.758568 1.2154858
74.52684 69.37973 -0.98543477
77.392143 70.844032 -0.83816713
80.797775 72.58448 -0.52684152
80.686172 72.527443 0
80.913254 72.643494 0.53046316
74.53405 69.399467 -0.98671907
77.347038 70.841331 -0.83586079
80.745773 72.583435 -0.5255354
80.671211 72.545219 0
80.875038 72.649689 0.52959204
74.522949 69.409851 -0.98629153
77.343353 70.859818 -0.8361488
80.73539 72.603661 -0.5255354
80.665512 72.567741 0
80.892319 72.684341 0.53046316
64 64 -0
74.511848 69.420212 -0.98586392
77.348854 70.883049 -0.83701396
80.738831 72.63102 -0.5259704
80.664398 72.592636 0
80.872559 72.699974 0.53017259
64 64 -0
74.514404 69.437622 -0.98671907
77.368088 70.913429 -0.83874315
80.719162 72.646469 -0.52568042
80.64476 72.607986 0
80.852814 72.715584 0.52988261
64 64 -0
74.507828 69.450317 -0.98671907
77.350555 70.92482 -0.83816713
80.71331 72.669052 -0.52582538
80.643585 72.632881 0
80.800751 72.714409 0.52857649
64 64 -0
74.528572 69.477234 -0.98928767
77.360535 70.950493 -0.8393203
80.721268 72.698837 -0.52640593
80.628525 72.650589 0
80.822472 72.751488 0.52959204
64 64 -0
74.503738 69.480453 -0.98757583
77.342941 70.961838 -0.83874315
80.719948 72.723839 -0.52669597
80.631912 72.677902 0
101.37387 83.500275 1.1773162
74.47435 69.481232 -0.98543477
77.339119 70.980362 -0.83903229
80.700195 72.73922 -0.52640593
80.639862 72.707642 0
80.888763 72.837898 0.53234982
74.485901 69.503426 -0.98714662
77.316925 70.989265 -0.83816713
80.689621 72.759392 -0.52640593
80.633926 72.730164 0
80.859665 72.848633 0.53176928
74.468956 69.502602 -0.98586392
77.326447 71.004532 -0.83903229
80.684326 72.76947 -0.52640593
80.637856 72.745049 0
80.831322 72.846733 0.53104371
74.480469 69.524826 -0.98757583
77.331688 71.027855 -0.83989632
80.682907 72.794464 -0.52669597
80.645699 72.774849 0
80.839012 72.876755 0.53162426
74.455627 69.527885 -0.98586392
77.323181 71.043961 -0.83989632
80.672272 72.814621 -0.52669597
80.635086 72.79496 0
80.865028 72.916534 0.53278542
74.453476 69.542915 -0.98629153
77.323814 71.064903 -0.84047347
80.661606 72.834755 -0.52669597
80.624443 72.815056 0
80.840462 72.929596 0.53234982
74.464897 69.565186 -0.98800337
64 64 -0
80.655518 72.85733 -0.52684152
80.613777 72.835136 0
80.857178 72.964577 0.53322041
74.440048 69.568161 -0.98629153
77.306702 71.097084 -0.84047347
80.644806 72.877449 -0.52684152
80.607681 72.857651 0
80.814255 72.967819 0.53220487
74.437836 69.583191 -0.98671907
77.298111 71.113159 -0.84047347
80.656975 72.909805 -0.52756709
80.606155 72.882622 0
80.762146 72.966064 0.53089815
74.46727 69.615219 -0.99014282
77.312302 71.141441 -0.84191465
80.646194 72.929932 -0.52756709
80.599991 72.905144 0
78.090729 71.559036 0.44657674
74.442398 69.618134 -0.98843092
77.308212 71.159973 -0.84220266
80.649124 72.957428 -0.52800262
80.607552 72.935059 0
78.104462 71.588364 0.44730228
74.444649 69.635628 -0.98928767
77.304115 71.178513 -0.84249181
80.624565 72.970131 -0.52756709
80.596741 72.955116 0
78.145599 71.632553 0.44889897
74.437828 69.648239 -0.98928767
77.30452 71.199501 -0.84306782
80.622849 72.995155 -0.52785707
80.599648 72.982597 0
64 64 0
74.417458 69.653503 -0.98800337
77.300354 71.218033 -0.84335583
80.621109 73.020195 -0.52814764
80.57962 72.997681 0
64 64 0
74.415123 69.668533 -0.98843092
77.291626 71.2341 -0.84335583
80.610199 73.040268 -0.52814764
80.582458 73.025177 0
78.095016 71.671356 0.4481734
74.399261 69.676201 -0.98757583
77.291962 71.255119 -0.84393299
80.612953 73.06781 -0.52858317
80.571541 73.045204 0
78.012756 71.648544 0.44585118
74.40139 69.693687 -0.98843092
77.283188 71.271172 -0.84393299
80.615646 73.095352 -0.52901816
80.56974 73.070221 0
77.92601 71.623055 0.44338393
74.403511 69.711197 -0.98928767
77.26078 71.279747 -0.84306782
80.6092 73.11792 -0.52916318
80.549637 73.08522 0
101.50896 84.591225 1.1950223
74.392097 69.721283 -0.98885846
77.2565 71.298256 -0.84335583
80.607285 73.142998 -0.52945375
80.543198 73.107719 0
101.52048 84.656586 1.1961834
74.398666 69.74128 -0.99014282
77.252197 71.316772 -0.84364384
80.600769 73.165573 -0.52959877
80.54586 73.135254 0
101.46819 84.686829 1.1953124
74.400696 69.758812 -0.99099791
77.252411 71.337791 -0.844221
80.603325 73.193176 -0.5300343
80.53936 73.157761 0
101.44316 84.732086 1.1953124
74.393723 69.771378 -0.99099791
77.239014 71.351288 -0.84393299
80.574028 73.20314 -0.52945375
80.532829 73.18026 0
101.39991 84.767227 1.1947318
74.377785 69.778938 -0.99014282
77.230125 71.367279 -0.84393299
80.576523 73.230743 -0.52988929
80.521721 73.200233 0
101.40657 84.830101 1.195748
74.388725 69.801483 -0.99185467
77.239281 71.393349 -0.84508616
80.560806 73.24823 -0.52974373
80.537872 73.23542 0
101.41768 84.895554 1.1969091
74.386177 69.816544 -0.99228221
77.243858 71.416916 -0.84595019
80.567757 73.278389 -0.53032428
80.531235 73.257935 0
101.37427 84.930595 1.1963285
74.369225 69.815277 -0.99099791
77.23938 71.424919 -0.84595019
80.566696 73.290947 -0.53046983
80.530174 73.270462 0
101.36614 84.955711 1.1964735
74.357719 69.825287 -0.99057037
77.252953 71.453598 -0.8473925
80.569031 73.318596 -0.53090489
80.514427 73.28788 0
101.38609 85.026321 1.1979252
74.373032 69.85041 -0.99270976
77.239418 71.467056 -0.84710336
80.562302 73.341171 -0.53105044
80.512268 73.31295 0
101.41045 85.099556 1.1995213
74.370438 69.865471 -0.99313897
77.234901 71.485603 -0.8473925
80.551003 73.361176 -0.53105044
80.505531 73.335457 0
101.59752 85.264984 1.2063425
74.363342 69.877998 -0.99313897
77.216843 71.496483 -0.84681535
80.553223 73.388847 -0.53148544
80.498764 73.357956 0
101.78424 85.430901 1.2131636
74.369606 69.898125 -0.99442166
77.185295 71.499657 -0.84537417
80.559937 73.419121 -0.53206599
80.505539 73.388176 0
101.92094 85.569031 1.2183886
74.359795 69.92572 -0.99485081
77.144684 71.518661 -0.84393299
80.541634 73.461693 -0.53221101
80.505386 73.440956 0
102.02207 85.748337 1.2233231
74.330345 69.925453 -0.99270976
77.12661 71.529388 -0.84335583
80.521179 73.476501 -0.53192097
80.498482 73.463486 0
102.00478 85.799431 1.223613
74.336533 69.945618 -0.99399412
77.135437 71.555557 -0.84450901
80.532242 73.509415 -0.53264654
80.491562 73.486015 0
102.01444 85.866066 1.2247741
74.338242 69.963234 -0.99485081
77.126297 71.571426 -0.84450901
80.529755 73.534584 -0.53293711
80.480087 73.505936 0
102.006 85.922371 1.2253547
74.339912 69.980858 -0.99570596
77.139526 71.600227 -0.84595019
80.536209 73.564957 -0.53351766
80.473083 73.528442 0
101.98399 85.970886 1.2255002
74.341568 69.998505 -0.99656272
77.143761 71.623886 -0.84681535
80.533623 73.590141 -0.53380764
80.457062 73.545731 0
101.94392 86.008942 1.2250648
74.343178 70.016159 -0.99741781
77.152428 71.650169 -0.84796852
80.522026 73.610107 -0.53380764
80.46801 73.57869 0
101.90382 86.046928 1.2246292
74.318161 70.018303 -0.99570596
77.1521 71.671265 -0.84854454
80.514885 73.632683 -0.53395265
80.469917 73.606453 0
101.75146 86.019402 1.2205652
74.333038 70.043724 -0.99784541
77.138359 71.68454 -0.84825653
80.512215 73.657883 -0.53424323
80.494225 73.647362 0
80.704887 73.770576 0.5404771
74.321304 70.053612 -0.99741781
77.142456 71.70826 -0.84912169
80.500534 73.677826 -0.53424323
80.478073 73.66465 0
80.688591 73.788132 0.54033208
74.300697 70.058266 -0.99613351
77.11084 71.711029 -0.84768051
80.493301 73.700394 -0.53438818
80.470863 73.687195 0
80.676758 73.808289 0.54033208
74.319916 70.086365 -0.99870211
77.101517 71.72686 -0.84768051
80.490509 73.725586 -0.53467822
80.481575 73.720314 0
80.642517 73.815231 0.53960651
74.316971 70.10144 -0.99912971
77.114426 71.755852 -0.84912169
80.483238 73.748161 -0.53482378
80.465324 73.737564 0
80.612747 73.824753 0.53902596
74.305176 70.111282 -0.99870211
77.09169 71.763771 -0.84825653
80.489326 73.778671 -0.53540432
80.462509 73.762772 0
80.636627 73.866028 0.54018712
74.306602 70.128975 -0.99955726
77.091202 71.784882 -0.84883368
80.495361 73.809212 -0.53598487
80.446228 73.779999 0
94.783646 82.305954 1.000255
74.299187 70.141426 -0.99955726
77.081787 71.80069 -0.84883368
80.492416 73.834457 -0.53627491
80.452286 73.810524 0
94.716881 82.316528 0.99880385
74.291763 70.153862 -0.99955726
77.090111 71.82711 -0.84998685
80.498367 73.865044 -0.53685546
80.435936 73.827713 0
94.650131 82.326965 0.99735272
77.067329 71.834938 -0.84912169
80.490883 73.887642 -0.53700042
80.437447 73.855598 0
94.525444 82.302513 0.99401438
77.062286 71.853386 -0.8494097
80.483376 73.910233 -0.53714544
80.44783 73.888863 0
94.414246 82.285843 0.99111217
77.030952 71.845276 -0.84768051
80.477386 73.920197 -0.53714544
80.441849 73.898796 0
94.296341 82.239883 0.98762882
74.270035 70.199982 -0.9999848
77.043602 71.874374 -0.84912169
80.465385 73.940094 -0.53714544
80.429878 73.918655 0
80.643143 74.047409 0.54294431
74.262535 70.212387 -0.9999848
77.042923 71.895485 -0.84969771
80.480049 73.976135 -0.53801656
80.422325 73.941193 0
80.626549 74.064819 0.54279935
77.028954 71.908554 -0.8494097
80.463547 73.993347 -0.53787154
80.42366 73.969139 0
80.627708 74.092995 0.54323488
77.019386 71.924294 -0.8494097
80.46476 74.021332 -0.53830653
80.393814 73.978149 0
80.655449 74.13739 0.544541
77.031876 71.953491 -0.85085088
80.470383 74.052048 -0.53888708
80.408409 74.014221 0
80.625443 74.146683 0.54396045
77.013443 71.963837 -0.85027486
80.462669 74.074661 -0.5390327
80.405167 74.039474 0
80.617599 74.169472 0.54410547
77.017044 71.987671 -0.85114002
80.459335 74.099976 -0.53932267
80.393028 74.059288 0
80.623016 74.200417 0.54468602
77.00296 72.000679 -0.85085088
80.447121 74.119858 -0.53932267
80.39859 74.089996 0
80.623962 74.228668 0.54512155
76.993286 72.016388 -0.85085088
80.430466 74.137001 -0.53917766
80.390816 74.112534 0
80.607155 74.24601 0.544976
76.996788 72.040245 -0.85171604
80.440292 74.170509 -0.53990322
80.405151 74.148773 0
80.625702 74.28521 0.54599214
76.987068 72.055946 -0.85171604
80.427994 74.190369 -0.53990322
80.397293 74.171326 0
80.591187 74.291595 0.54526657
76.994896 72.082558 -0.85286921
80.424484 74.215698 -0.5401932
80.384995 74.191132 0
80.618454 74.336334 0.54657269
77.002678 72.109207 -0.85402238
80.425362 74.24379 -0.54062879
80.372665 74.210922 0
80.59272 74.34816 0.54613709
76.992867 72.124908 -0.85402238
80.421799 74.269142 -0.54091936
80.369133 74.236214 0
80.602249 74.381989 0.54686326
76.965508 72.129608 -0.85286921
80.409378 74.288979 -0.54091936
80.35675 74.255981 0
80.576477 74.393753 0.54642767
76.973198 72.156281 -0.85402238
80.423325 74.325386 -0.54178989
80.34877 74.278519 0
80.594688 74.433128 0.54744321
76.963333 72.171951 -0.85402238
80.406441 74.342453 -0.54164493
80.353951 74.309364 0
80.586479 74.455956 0.54758877
76.966568 72.195908 -0.85488755
80.393929 74.362274 -0.54164493
80.337067 74.326332 0
80.569427 74.473206 0.54744321
76.930435 72.194946 -0.85315722
80.394569 74.390427 -0.54208046
80.333382 74.351639 0
80.534821 74.479309 0.5467177
76.946724 72.227219 -0.85488755
80.386383 74.41301 -0.54222548
80.338432 74.382538 0
80.509003 74.490921 0.54628265
76.949852 72.25119 -0.85575157
80.386932 74.44117 -0.54266047
80.312698 74.393875 0
80.456848 74.485725 0.544976
76.93615 72.253448 -0.85517555
80.393768 74.459457 -0.54309601
80.302032 74.400932 0
80.384811 74.453743 0.54279935
76.934875 72.274643 -0.85575157
80.389877 74.484863 -0.54338658
80.228081 74.381363 0
80.341515 74.453926 0.54178321
76.933578 72.29586 -0.85632873
80.385941 74.510269 -0.54367656
80.180473 74.378479 0
80.285141 74.44561 0.54033208
76.927895 72.314278 -0.85661674
80.377594 74.532867 -0.54382157
80.115387 74.364235 0
80.285622 74.473717 0.54076767
76.935226 72.341103 -0.85776991
80.382324 74.563919 -0.54440212
80.024124 74.332932 0
80.272957 74.493393 0.54076767
76.907768 72.34549 -0.85661674
80.369553 74.583702 -0.54440212
80.002876 74.346634 0
80.282082 74.527153 0.54149324
76.915039 72.372337 -0.85776991
80.352394 74.600647 -0.54425716
79.942314 74.334816 0
80.273705 74.549637 0.5416382
76.900574 72.385124 -0.8574819
80.343925 74.62323 -0.54440212
79.877464 74.320038 0
80.269653 74.574951 0.54192823
76.890434 72.400703 -0.8574819
80.348495 74.65432 -0.54498267
79.825745 74.313644 0
80.265579 74.600288 0.54221874
76.888931 72.421928 -0.85805792
80.344315 74.679756 -0.54527324
79.769684 74.304283 0
80.257103 74.622772 0.54236376
76.88308 72.440338 -0.85834706
80.344429 74.708038 -0.54570824
79.713692 74.294807 0
80.261642 74.653801 0.54294431
76.868538 72.453049 -0.85805792
80.348854 74.739189 -0.54628879
79.640327 74.273773 0
80.248764 74.673439 0.54294431
76.875595 72.479973 -0.85921109
80.331528 74.756081 -0.54614383
79.580101 74.261185 0
80.240189 74.695923 0.54308933
76.865341 72.495522 -0.85921109
80.322853 74.778664 -0.54628879
79.532944 74.257057 0
80.235931 74.721268 0.5433799
76.868011 72.51963 -0.86007625
80.331497 74.812737 -0.54701495
79.485817 74.252831 0
80.23597 74.749489 0.54381543
76.866318 72.540894 -0.86065227
80.314072 74.829575 -0.54686934
79.425728 74.239876 0
80.231621 74.774841 0.54410547
76.851685 72.553566 -0.86036426
80.296654 74.846405 -0.54672438
79.378677 74.235435 0
80.235901 74.805969 0.54468602
76.858551 72.580574 -0.86151743
80.300827 74.877625 -0.54730493
79.327324 74.228004 0
80.227142 74.828461 0.54483098
76.830978 72.584602 -0.86036426
80.287674 74.897316 -0.54730493
79.271698 74.217575 0
80.222702 74.853844 0.54512155
76.837776 72.611626 -0.86151743
80.287445 74.925674 -0.54774046
79.211807 74.204132 0
80.209572 74.873436 0.54512155
76.823074 72.624245 -0.86122942
80.287155 74.954041 -0.54817545
79.151955 74.190552 0
80.192093 74.890106 0.544976
76.834084 72.65419 -0.8626706
80.278229 74.976624 -0.54832107
79.079224 74.168121 0
80.196159 74.921288 0.54555655
76.800285 72.676476 -0.86180544
80.281754 75.036331 -0.54933661
78.985672 74.157799 0
80.186928 74.972054 0.54613709
76.794083 72.694847 -0.86209458
80.264114 75.053085 -0.54919159
78.934647 74.149574 0
80.182266 74.997452 0.54642767
76.801643 72.711296 -0.86295861
80.248848 75.057068 -0.54890162
78.876869 74.123459 0
80.188507 75.016006 0.54686326
76.786842 72.723846 -0.8626706
80.244057 75.082542 -0.54919159
78.847427 74.129692 0
80.170883 75.032616 0.5467177
76.789101 72.748055 -0.86353576
80.252098 75.116829 -0.54991716
78.796516 74.121178 0
80.17041 75.060959 0.54715323
76.795586 72.775208 -0.86468893
80.24295 75.139404 -0.55006272
78.745651 74.112556 0
80.165596 75.086357 0.54744321
76.836128 72.825829 -0.86814845
80.255165 75.176682 -0.55093324
78.703392 74.109718 0
80.160767 75.111778 0.54773378
76.859512 72.864815 -0.87045366
80.241646 75.19632 -0.55093324
78.64402 74.094978 0
80.160164 75.140152 0.54816937
76.861557 72.889168 -0.87131882
80.236649 75.22184 -0.55122328
78.571877 74.071243 0
80.138138 75.153748 0.5478788
76.850807 72.904701 -0.87131882
80.240166 75.253288 -0.55180383
78.529747 74.068085 0
80.137466 75.182129 0.54831433
76.86554 72.937943 -0.87304914
80.230835 75.275879 -0.55194938
78.483383 74.06189 0
80.149544 75.219398 0.54918492
76.841988 72.944603 -0.87218398
80.22998 75.304382 -0.55238438
78.424232 74.046661 0
80.127457 75.232971 0.54889488
76.852371 72.974922 -0.87362516
80.212051 75.321014 -0.55223936
78.37368 74.037262 0
80.13517 75.267326 0.54962045
76.837288 72.98748 -0.87333715
80.198364 75.340591 -0.55223936
78.335953 74.036705 0
80.125793 75.289787 0.54976547
76.81794 72.99704 -0.87276
80.210175 75.378082 -0.55311048
78.311043 74.045059 0
80.124908 75.31823 0.550201
76.815529 73.018478 -0.87333715
80.196419 75.397659 -0.55311048
78.247818 74.026398 0
80.115463 75.340691 0.55034602
76.817307 73.042908 -0.87420231
80.203857 75.432198 -0.55383605
78.210159 74.025597 0
77.715385 73.676521 0.46878183
76.814812 73.064354 -0.87477833
80.202751 75.460762 -0.55427104
78.172546 74.024734 0
77.754593 73.729095 0.47052351
76.808067 73.082825 -0.87506634
80.184654 75.477325 -0.55412608
78.096741 73.996681 0
64 64 0
76.809731 73.107285 -0.8759315
80.191948 75.511932 -0.55485159
78.07193 74.004669 0
64 64 0
76.786079 73.113747 -0.87506634
80.186501 75.537521 -0.55514216
78.017441 73.991447 0
64 64 0
76.783478 73.135208 -0.87564349
80.181 75.56311 -0.5554322
77.967247 73.98114 0
77.644005 73.750145 0.4683468
76.776634 73.153664 -0.8759315
80.15435 75.573586 -0.55499721
77.921326 73.973763 0
80.078125 75.518967 0.55237824
76.765564 73.16909 -0.8759315
80.153008 75.60218 -0.5554322
77.871223 73.963249 0
80.064194 75.538391 0.55237824
76.768417 73.182838 -0.87650752
80.150223 75.614983 -0.55557775
77.814491 73.935158 0
80.069862 75.557182 0.55281323
76.748924 73.192215 -0.8759315
80.153023 75.646629 -0.55615771
77.768707 73.92749 0
80.064323 75.58268 0.5531038
76.737808 73.207611 -0.8759315
80.147369 75.672234 -0.55644828
77.693436 73.898392 0
80.03347 75.589905 0.55252326
76.739243 73.232101 -0.87679666
80.150085 75.703934 -0.55702883
77.668816 73.905762 0
80.036285 75.621468 0.5531038
76.732262 73.250526 -0.87708467
80.148552 75.732605 -0.55746442
77.627373 73.900864 0
80.022232 75.640831 0.5531038
76.721077 73.265907 -0.87708467
80.134361 75.752113 -0.55746442
77.619606 73.920387 0
80.033356 75.678535 0.55397439
76.718216 73.287369 -0.87766069
80.124344 75.774658 -0.55760938
77.603409 73.933769 0
80.031822 75.7071 0.55440992
76.711174 73.305794 -0.87794983
80.122688 75.803345 -0.55804497
77.616585 73.968643 0
80.01767 75.726463 0.55440992
76.699921 73.321144 -0.87794983
80.112602 75.82589 -0.55818999
77.591934 73.975845 0
80.020248 75.75811 0.55499047
76.680305 73.330345 -0.87737268
80.11084 75.854584 -0.55862498
77.605034 74.010773 0
80.001846 75.774384 0.55484551
76.656532 73.336441 -0.87650752
80.096512 75.874039 -0.55862498
77.592926 74.027206 0
80.004318 75.806038 0.55542547
76.657722 73.360962 -0.87737268
80.094688 75.902756 -0.55906051
77.601723 74.059097 0
79.994232 75.828461 0.55557102
76.650551 73.379326 -0.87766069
80.096992 75.934578 -0.55964106
77.581192 74.069321 0
80.004967 75.866348 0.55644161
76.639206 73.394608 -0.87766069
80.082565 75.954018 -0.55964106
77.577377 74.091934 0
79.998962 75.891884 0.55673218
76.627846 73.409874 -0.87766069
80.080612 75.982758 -0.56007665
77.56517 74.108337 0
80.009583 75.929832 0.5576027
76.624763 73.43132 -0.87823784
80.070282 76.005287 -0.56022161
77.557114 74.127831 0
79.990997 75.94606 0.55745775
76.609222 73.443466 -0.87794983
80.072403 76.037155 -0.56080222
77.574036 74.166046 0
79.984863 75.971596 0.55774772
76.601936 73.4618 -0.87823784
80.049538 76.050339 -0.56051219
77.565903 74.185562 0
79.987007 76.003387 0.55832827
76.573959 73.464577 -0.87708467
80.043266 76.075966 -0.56080222
77.56189 74.208206 0
79.980804 76.028946 0.55861884
76.57077 73.485992 -0.87766069
80.045258 76.107864 -0.56138277
77.586952 74.252808 0
79.982849 76.060768 0.55919939
76.567558 73.507423 -0.87823784
80.030609 76.127243 -0.56138277
77.562096 74.259796 0
79.964111 76.076927 0.55905384
76.551941 73.519478 -0.87794983
80.036652 76.1623 -0.56210834
77.54969 74.276176 0
79.970222 76.111923 0.55977994
76.54866 73.540894 -0.87852585
80.03022 76.187965 -0.56239885
77.541405 74.295685 0
79.951424 76.128052 0.55963439
76.541229 73.559181 -0.87881386
80.040276 76.226219 -0.56326944
77.537239 74.318359 0
79.949165 76.156776 0.56006992
76.535454 73.566757 -0.87881386
80.020485 76.226448 -0.56283385
77.543404 74.335999 0
79.950089 76.172722 0.56036049
76.52388 73.581894 -0.87881386
80.030472 76.264755 -0.56370497
77.55159 74.368179 0
79.951859 76.204605 0.5609405
76.524612 73.606468 -0.87967902
80.01564 76.284111 -0.56370497
77.530777 74.378204 0
79.945358 76.230202 0.56123108
76.504807 73.615295 -0.879103
80.000793 76.303452 -0.56370497
77.551239 74.41993 0
79.951164 76.265297 0.56195664
76.489067 73.627228 -0.87881386
79.985909 76.322777 -0.56370497
77.546875 74.442642 0
79.952789 76.297249 0.56253719
76.485619 73.648643 -0.87939101
79.954559 76.329376 -0.56312442
77.546608 74.468552 0
79.93792 76.316521 0.56253719
76.473953 73.663727 -0.87939101
79.939651 76.348648 -0.56312442
77.533951 74.484917 0
79.935356 76.345322 0.56297272
76.470428 73.685127 -0.87996703
79.867264 76.323273 -0.56109273
77.521271 74.501259 0
79.920425 76.364563 0.56297272
76.462814 73.703377 -0.88025618
79.803154 76.304123 -0.55935109
77.516792 74.523994 0
79.913673 76.390167 0.56326276
76.455154 73.721611 -0.88054419
79.735023 76.281647 -0.55746442
77.516365 74.549919 0
79.906891 76.415794 0.56355327
76.447464 73.739838 -0.8808322
79.675148 76.265419 -0.55586773
77.520004 74.579071 0
79.900055 76.441399 0.56384331
76.419411 73.742096 -0.87967902
79.62352 76.255486 -0.55456161
77.48674 74.579338 0
79.893196 76.467026 0.56413388
76.41169 73.760292 -0.87996703
79.563759 76.239014 -0.55296493
77.490311 74.608498 0
79.869942 76.47979 0.56384331
76.379578 73.759277 -0.87852585
79.467354 76.193474 -0.55006272
77.493835 74.63768 0
79.875252 76.515038 0.56456888
76.367783 73.774223 -0.87852585
79.39959 76.170258 -0.54817545
77.505463 74.673332 0
77.528015 74.691154 0.48155352
76.344124 73.804085 -0.87852585
79.288757 76.142807 -0.54527324
77.47963 74.70594 0
79.907104 76.633919 0.56732666
76.332268 73.818993 -0.87852585
79.245613 76.138611 -0.54425716
77.474838 74.728714 0
79.899956 76.659599 0.56761664
76.308258 73.824203 -0.87766069
79.198441 76.131088 -0.54309601
77.465927 74.74823 0
79.876526 76.672325 0.56732666
76.320625 73.858467 -0.87939101
79.126968 76.103989 -0.54106432
77.444809 74.757996 0
79.861206 76.691498 0.56732666
76.300621 73.866867 -0.87881386
79.083954 76.099495 -0.54004824
77.452103 74.790512 0
79.862076 76.723663 0.56790721
76.29274 73.884972 -0.879103
79.045029 76.098175 -0.53917766
77.479607 74.839371 0
79.838577 76.736298 0.56761664
76.312988 73.925781 -0.88140821
78.957581 76.057648 -0.53656542
77.454338 74.845848 0
79.855545 76.781517 0.56877774
76.305016 73.943909 -0.88169736
78.886406 76.029976 -0.5345332
77.453369 74.871918 0
79.864349 76.820274 0.56964886
76.303024 73.95459 -0.88198537
78.834702 76.003014 -0.53293711
77.454903 74.886597 0
79.852554 76.826576 0.56950331
76.290985 73.969452 -0.88198537
78.791931 75.998016 -0.53192097
77.445778 74.90612 0
79.841087 76.849007 0.56964886
76.274925 73.981033 -0.88169736
78.73307 75.979813 -0.53032428
77.448746 74.935493 0
79.833611 76.874687 0.5699389
76.282898 74.012199 -0.88313854
78.662193 75.951637 -0.52829266
77.41938 74.938583 0
79.830132 76.903664 0.57037443
76.278793 74.033569 -0.88371456
78.635666 75.95948 -0.52785707
77.422279 74.967964 0
79.814529 76.922783 0.57037443
76.274673 74.054962 -0.88429171
78.589043 75.950806 -0.52669597
77.429138 75.000664 0
79.823013 76.961632 0.57124501
76.258522 74.066505 -0.8840037
78.506317 75.912361 -0.52422875
77.423874 75.023483 0
79.815384 76.987343 0.57153553
76.250343 74.084595 -0.88429171
78.451797 75.896858 -0.52277762
77.398506 75.029778 0
79.819733 77.022957 0.5722611
76.226173 74.089508 -0.88342655
78.409355 75.891159 -0.52176148
77.421295 75.075775 0
79.811996 77.048676 0.57255113
76.217957 74.107574 -0.88371456
78.338921 75.86219 -0.51972979
77.423943 75.105255 0
79.800232 77.071091 0.57269669
76.221657 74.135536 -0.88486773
78.276573 75.839699 -0.51798815
77.410515 75.12146 0
79.796417 77.100113 0.57313168
76.189522 74.133766 -0.88342655
78.238289 75.837013 -0.51711756
77.401062 75.140984 0
79.792572 77.129166 0.57356721
76.189194 74.158424 -0.88429171
78.19603 75.83091 -0.51610148
77.407585 75.173828 0
79.776695 77.148239 0.57356721
76.180878 74.17646 -0.88457972
78.133865 75.808075 -0.51435977
77.382103 75.180016 0
79.752831 77.160629 0.57327724
76.180466 74.201134 -0.88544488
78.063812 75.778435 -0.51232815
79.782646 77.217957 0
79.740891 77.182991 0.57342219
76.176048 74.222488 -0.8860209
78.053543 75.798759 -0.51247311
79.742737 77.216934 0
79.740875 77.215363 0.5740028
76.171616 74.243866 -0.88659805
77.987595 75.772232 -0.51058644
79.754639 77.259407 0
79.776581 77.277878 0.57588947
76.171074 74.268562 -0.88746208
77.937614 75.758965 -0.50928032
79.746552 77.285141 0
79.784348 77.317032 0.57675999
76.150772 74.276588 -0.88688606
77.891655 75.748947 -0.50811923
79.738449 77.31089 0
79.803955 77.366295 0.57806611
76.146225 74.297943 -0.88746208
77.82196 75.718681 -0.50608754
79.742203 77.346725 0
79.783836 77.382019 0.57792115
76.137726 74.315971 -0.88775122
77.811745 75.738739 -0.50623256
77.509148 75.481552 0
79.775581 77.407822 0.57821167
76.137054 74.340683 -0.88861525
77.746124 75.711609 -0.50434589
77.463562 75.470863 0
79.755402 77.423492 0.57806611
76.136353 74.365425 -0.88948041
77.712212 75.711334 -0.50362033
64 64 0
64 64 0
76.11203 74.369987 -0.88861525
77.674355 75.707611 -0.5027492
64 64 0
64 64 0
76.125412 74.39415 -0.89005756
77.627831 75.682053 -0.50129807
77.365623 75.457283 0
64 64 0
76.124603 74.418892 -0.89092159
77.582176 75.671417 -0.50013697
77.363617 75.483604 0
77.361282 75.481598 0.49200302
76.123764 74.443672 -0.89178675
77.544449 75.667473 -0.49926642
77.381279 75.526917 0
77.319832 75.473984 0.49098691
76.103317 74.451553 -0.89121073
77.5028 75.660049 -0.49825031
79.70726 77.563667 0
79.716972 77.572052 0.57995278
76.094582 74.469559 -0.89149874
77.441551 75.635544 -0.49650863
79.718414 77.606483 0
79.724144 77.61145 0.5808239
76.097549 74.497726 -0.89265192
77.411781 75.638153 -0.49592805
79.721611 77.642525 0
79.703766 77.627037 0.58067894
76.073151 74.502144 -0.89178675
77.37027 75.630486 -0.49491251
79.724747 77.678589 0
79.687286 77.645996 0.58067894
76.052658 74.509933 -0.89121073
77.356209 75.646629 -0.49491251
79.700371 77.690742 0
79.694283 77.685432 0.58154947
76.05162 74.534691 -0.89207476
77.334297 75.655914 -0.49462193
79.69165 77.716545 0
79.673828 77.700966 0.58140445
76.04277 74.55265 -0.89236277
77.331932 75.682297 -0.49505749
79.69072 77.749222 0
79.676804 77.737015 0.58213001
76.05722 74.591095 -0.89438111
77.321709 75.70182 -0.49520251
79.674095 77.768166 0
79.675812 77.769669 0.58271056
76.032768 74.595398 -0.89351594
77.323158 75.731644 -0.49578306
77.305923 75.716469 0
79.651352 77.781723 0.58242005
76.027718 74.616783 -0.8940931
77.301186 75.740868 -0.49549305
77.311264 75.749756 0
79.661964 77.824707 0.58343613
76.014877 74.63131 -0.8940931
77.283089 75.753471 -0.4953475
77.297058 75.765831 0
79.653038 77.85051 0.5837267
76.009758 74.652679 -0.89466912
77.276657 75.776421 -0.49563807
79.622948 77.857574 0
79.640175 77.872864 0.58387172
76.000755 74.670624 -0.89495826
77.293488 75.820076 -0.49679917
79.617859 77.886826 0
79.635056 77.902115 0.58430725
75.987854 74.68512 -0.89495826
77.290825 75.846497 -0.49723417
79.593292 77.89875 0
79.629875 77.931358 0.58474225
75.971069 74.696136 -0.89466912
77.276505 75.862549 -0.49723417
79.599785 77.9384 0
79.628532 77.964081 0.5853228
75.981262 74.731308 -0.89639944
77.281525 75.895927 -0.4979603
79.582932 77.957237 0
79.596161 77.969086 0.58474225
75.960579 74.738861 -0.89582229
77.274872 75.9189 -0.49825031
79.585419 77.993439 0
79.598602 78.00528 0.58546782
75.962975 74.767151 -0.89697546
77.283646 75.955803 -0.4991214
79.587837 78.029671 0
79.593262 78.034554 0.58590341
75.961479 74.791992 -0.89784062
77.261459 75.964874 -0.49883085
79.570869 78.048492 0
79.580147 78.056862 0.58604836
75.948433 74.806442 -0.89784062
77.270111 76.001801 -0.49970141
79.565468 78.077774 0
79.570869 78.082657 0.58633894
75.931534 74.817398 -0.89755261
77.25946 76.021324 -0.49984697
79.571579 78.117538 0
79.569237 78.115417 0.58691949
75.922279 74.835281 -0.89784062
77.252609 76.044319 -0.50013697
79.566071 78.146851 0
79.575241 78.15519 0.58779007
75.916824 74.856644 -0.89841664
77.245743 76.067329 -0.50042754
79.560509 78.17617 0
79.569656 78.184502 0.5882256
75.910263 74.863838 -0.89841664
77.242279 76.078835 -0.5005725
79.559624 78.192574 0
79.580276 78.211411 0.58895117
75.908585 74.888695 -0.8992818
77.243019 76.108849 -0.50115305
79.557831 78.225418 0
79.566925 78.233727 0.58909619
75.887794 74.896095 -0.89870578
77.243706 76.138885 -0.50173366
79.555977 78.25827 0
79.553558 78.25605 0.58924174
75.86319 74.899948 -0.89784062
77.236671 76.161911 -0.50202364
79.534912 78.273537 0
79.566917 78.302948 0.59040231
75.853813 74.917778 -0.89812863
77.233437 76.188461 -0.50245917
79.529144 78.302879 0
79.549622 78.321747 0.59040231
75.823601 74.942879 -0.89784062
77.2192 76.23452 -0.50303978
79.536545 78.37925 0
79.541672 78.383995 0.59141839
75.80658 74.953644 -0.89755261
77.204407 76.250488 -0.50303978
79.519157 78.39801 0
79.531906 78.409843 0.59170896
75.789536 74.964371 -0.89726347
77.197205 76.273506 -0.50332975
79.516991 78.430931 0
79.525894 78.439209 0.59214395
75.780075 74.982147 -0.89755261
77.193771 76.300079 -0.50376529
79.503349 78.453217 0
79.50843 78.457954 0.59214395
75.774353 75.003426 -0.89812863
77.194084 76.3302 -0.50434589
79.48587 78.471939 0
79.50235 78.487335 0.59257954
75.772377 75.028259 -0.89899379
77.209518 76.374557 -0.50550699
77.162766 76.330757 0
79.481041 78.502502 0.59243453
75.774124 75.056641 -0.90014696
77.190773 76.386955 -0.50536197
77.170609 76.368027 0
79.467293 78.52475 0.59257954
75.775826 75.085037 -0.90130013
77.183357 76.410004 -0.50565201
79.47879 78.570786 0
79.427032 78.522064 0.59170896
75.800034 75.134758 -0.90418249
77.187248 76.443756 -0.50637752
79.487679 78.614487 0
64 64 0
75.779068 75.141907 -0.90360647
77.194862 76.481117 -0.50724864
79.466232 78.629623 0
77.209785 76.495232 0.50782251
75.761826 75.152557 -0.90331733
77.172218 76.489891 -0.50695813
79.478745 78.676933 0
77.19091 76.507614 0.50767756
75.763344 75.181015 -0.9044705
77.160896 76.509384 -0.50710368
79.460999 78.695625 0
77.16449 76.512802 0.50724196
75.749825 75.195221 -0.9044705
77.168335 76.546783 -0.50797421
79.462082 78.732262 0
79.466934 78.736885 0.59664345
75.740036 75.212997 -0.90475965
77.149414 76.559097 -0.50782919
79.459328 78.765312 0
79.494209 78.79863 0.5983851
75.730217 75.230743 -0.90504766
77.145477 76.585754 -0.50826424
79.445229 78.787575 0
79.487572 78.828117 0.59882009
75.701706 75.230583 -0.90389448
77.149017 76.619629 -0.50899035
79.442368 78.820648 0
79.47715 78.854019 0.59911066
75.710487 75.266228 -0.90562367
77.148743 76.649918 -0.5095709
79.435707 78.850121 0
79.455429 78.869102 0.59896511
75.699959 75.269714 -0.90533566
77.148575 76.665062 -0.50986087
79.445473 78.877495 0
79.45768 78.889252 0.59940064
75.701218 75.298218 -0.90648884
77.148216 76.695381 -0.51044142
79.431229 78.899765 0
79.465851 78.933189 0.60041678
75.672691 75.297958 -0.90533566
77.147804 76.725716 -0.51102203
79.431908 78.936493 0
79.470192 78.973549 0.60128731
75.673882 75.326462 -0.90648884
77.121231 76.730736 -0.51058644
79.41758 78.958748 0
79.455818 78.995842 0.60143232
75.645355 75.326134 -0.90533566
77.128197 76.768326 -0.51145756
79.418167 78.995522 0
79.448868 79.025383 0.60186791
75.642776 75.351028 -0.90620083
77.112755 76.78418 -0.51145756
79.411201 79.025032 0
79.449303 79.062172 0.60259342
75.632744 75.368706 -0.90648884
77.101013 76.803642 -0.51160258
79.411644 79.061829 0
79.442245 79.091736 0.60302901
75.630089 75.393616 -0.907354
77.10038 76.834015 -0.51218313
79.400879 79.08773 0
79.431427 79.117661 0.60331959
75.631081 75.422157 -0.90850717
77.107109 76.871674 -0.51305366
79.382637 79.106331 0
79.420563 79.14357 0.60360956
75.624634 75.443451 -0.90908319
77.095245 76.891144 -0.51319867
79.375504 79.135864 0
79.409653 79.169479 0.60389954
75.625526 75.472023 -0.91023636
79.417374 79.213806 -0.60492235
79.360909 79.158081 0
79.413513 79.209991 0.60477066
75.622696 75.496979 -0.91110152
79.387894 79.221458 -0.60448682
79.327774 79.161987 0
79.413589 79.24688 0.60549623
75.605125 75.507378 -0.91081351
79.406403 79.276642 -0.60593849
79.368584 79.239136 0
79.417305 79.287453 0.60636735
75.5802 75.510452 -0.90994835
77.180222 77.10083 -0.51900429
79.41291 79.320076 0
79.417252 79.324387 0.60709292
75.573608 75.531731 -0.91052437
77.171738 77.124077 -0.51929426
79.379639 79.32399 0
79.409752 79.353996 0.60752791
75.545021 75.531082 -0.9093712
77.152191 77.136314 -0.51914924
79.361115 79.34256 0
79.405899 79.387299 0.60810846
75.542053 75.556007 -0.91023636
77.132645 77.148521 -0.51900429
79.353584 79.372147 0
79.40567 79.424294 0.60883456
75.50618 75.547966 -0.90850717
77.127754 77.17543 -0.51943982
64 64 0
79.394348 79.450256 0.6091246
75.499504 75.569191 -0.90908319
77.08252 77.161797 -0.51827872
64 64 0
79.379326 79.472527 0.60926956
75.492813 75.590431 -0.90966034
77.037331 77.148071 -0.51711756
64 64 0
79.382584 79.513245 0.61014068
75.496979 75.622696 -0.91110152
79.360329 79.52829 -0.6100018
64 64 0
79.367477 79.535515 0.6102857
75.490189 75.643936 -0.91167754
79.359802 79.565323 -0.61072737
77.001175 77.17514 0
79.37059 79.576256 0.61115623
75.476112 75.657806 -0.91167754
79.340988 79.583878 -0.61072737
79.300163 79.542404 0
79.366341 79.609634 0.61173683
75.465652 75.675369 -0.91196668
79.325798 79.606117 -0.61087292
79.314194 79.594299 0
79.332901 79.613358 0.61115623
75.454964 75.678589 -0.91167754
79.327271 79.626495 -0.61130792
79.319344 79.618408 0
79.334389 79.633751 0.61159182
75.458931 75.710907 -0.91311872
79.31929 79.656151 -0.61174351
79.322311 79.659241 0
79.322762 79.659706 0.61188239
75.47007 75.750656 -0.91513705
79.31488 79.689522 -0.61232406
79.303375 79.677742 0
79.307457 79.681923 0.61202735
75.463089 75.771927 -0.9157142
79.306793 79.719193 -0.61275965
79.291679 79.703674 0
79.292122 79.704124 0.61217237
75.452454 75.789474 -0.91600221
79.305885 79.75631 -0.61348516
79.269073 79.718407 0
79.298485 79.748688 0.61318851
75.441795 75.807022 -0.91629022
79.304916 79.793449 -0.61421072
79.293533 79.7817 0
79.293915 79.782089 0.61376905
75.431114 75.824554 -0.91657823
79.293053 79.819412 -0.6145013
79.274452 79.800171 0
79.274834 79.80056 0.61376905
75.424011 75.84581 -0.91715539
79.295563 79.860313 -0.61537182
79.273415 79.837341 0
79.288193 79.852669 0.61507517
75.406105 75.855881 -0.91686738
79.279991 79.88253 -0.61551684
79.247055 79.848289 0
79.28344 79.886108 0.61565572
75.391769 75.869652 -0.91686738
79.253601 79.893486 -0.61522686
79.231491 79.870453 0
79.275017 79.915802 0.61609071
75.395302 75.902084 -0.91830856
79.259529 79.938171 -0.61624241
79.1763 79.851242 0
79.259377 79.938011 0.61623627
75.384483 75.919586 -0.91859657
79.233093 79.949089 -0.61595243
79.225449 79.941086 0
79.258057 79.975227 0.61696184
75.391472 75.955795 -0.92032576
79.192307 79.944916 -0.61508185
79.177452 79.929329 0
79.253082 80.008698 0.61754239
75.377022 75.969551 -0.92032576
79.065613 79.85025 -0.61072737
79.122345 79.909935 0
79.237305 80.030884 0.6176874
75.355438 75.975792 -0.91974974
64 64 -0
79.08519 79.909302 0
79.210762 80.041733 0.61739683
75.355179 76.004532 -0.92090291
64 64 -0
79.09816 79.961563 0
86.64415 87.939072 0.92028743
75.344208 76.022003 -0.92119092
64 64 -0
79.043129 79.941925 0
86.590233 87.939957 0.91927135
75.333221 76.039467 -0.92147893
78.938965 79.869911 -0.60869569
78.945374 79.876724 0
86.543488 87.948318 0.91854578
75.297424 76.030533 -0.91974974
86.415085 87.869644 -0.91448855
79.068687 80.046524 0
86.47184 87.930084 0.91680408
75.282883 76.044174 -0.91974974
86.379128 87.88913 -0.91419858
79.106224 80.125496 0
86.414497 87.926888 0.91564351
75.271843 76.061577 -0.92003775
86.300575 87.863007 -0.91216689
79.004997 80.056282 0
86.339432 87.904579 0.91375631
75.253738 76.071411 -0.91974974
86.253998 87.870911 -0.91144079
78.942993 80.028717 0
86.292816 87.912552 0.91303074
75.22805 76.102356 -0.92003775
86.11496 87.837006 -0.90810299
78.971466 80.137268 0
86.153679 87.878746 0.90969294
75.223961 76.127304 -0.92090291
86.068497 87.84465 -0.90737742
64 64 0
86.082451 87.859726 0.9079513
75.216637 76.134087 -0.92090291
86.008224 87.808365 -0.90549076
64 64 0
86.0504 87.853989 0.90722573
75.215988 76.162842 -0.92205608
85.947739 87.80056 -0.90418464
64 64 0
85.982803 87.838577 0.90562904
75.2118 76.187813 -0.92292124
85.890823 87.796463 -0.90302348
64 64 0
85.925835 87.834534 0.90446794
75.214546 76.220398 -0.92436242
85.819885 87.776955 -0.90128183
64 64 0
85.879456 87.841866 0.90374237
75.199776 76.23394 -0.92436242
85.752533 87.761131 -0.89968514
64 64 0
85.805016 87.818459 0.90185571
75.195435 76.258911 -0.92522645
85.699287 87.760544 -0.8986696
64 64 0
85.74118 87.806419 0.90040457
75.184113 76.276268 -0.92551559
85.632057 87.744484 -0.89707291
78.44957 79.860603 0
85.680901 87.798096 0.89909846
75.169266 76.289772 -0.92551559
85.582382 87.747543 -0.89620239
64 64 0
85.610184 87.77813 0.89735681
75.161354 76.310921 -0.92609161
85.536209 87.754341 -0.89547628
64 64 0
85.557007 87.777267 0.89634067
75.167297 76.34742 -0.92782193
85.458694 87.726395 -0.8934446
64 64 0
85.489906 87.760895 0.89474398
75.159294 76.368584 -0.92839795
85.402161 87.721436 -0.89228344
78.135658 79.66748 0
85.429855 87.752121 0.89343792
75.133957 76.370514 -0.92753279
85.35611 87.727966 -0.89155793
78.155022 79.727112 0
85.373322 87.747101 0.89227676
75.118996 76.383965 -0.92753279
85.303116 87.726685 -0.89054179
78.042114 79.639633 0
85.31337 87.738106 0.89097065
75.083328 76.374275 -0.9258036
85.215485 87.6866 -0.88807458
78.016266 79.648842 0
85.253471 87.729004 0.88966453
75.061462 76.379936 -0.92522645
85.145309 87.665726 -0.88633347
64 64 0
85.200554 87.727554 0.88864899
75.074036 76.424187 -0.92753279
85.095947 87.667976 -0.88546234
64 64 0
85.144211 87.722115 0.88748789
75.05558 76.433693 -0.92724478
85.046623 87.670151 -0.88459176
77.803818 79.524506 0
85.074089 87.701042 0.88574618
75.04055 76.447044 -0.92724478
84.986969 87.660583 -0.88328564
77.854126 79.619057 0
85.017845 87.695389 0.88458508
75.035789 76.472 -0.92810994
84.920486 87.643105 -0.88168901
77.783501 79.577309 0
84.968529 87.697403 0.88371396
75.017288 76.481453 -0.92782193
84.87471 87.648888 -0.88096344
77.764671 79.593948 0
84.891739 87.66819 0.88168228
75.005615 76.498634 -0.92810994
84.811768 87.635086 -0.87951177
77.714867 79.575417 0
84.832222 87.65831 0.88037616
74.980263 76.500259 -0.92724478
84.766045 87.640694 -0.87878621
77.637642 79.525505 0
84.793327 87.671753 0.87994063
74.97197 76.521309 -0.92782193
84.689522 87.611053 -0.87675452
77.66346 79.592857 0
84.737305 87.665588 0.87877953
74.960236 76.538445 -0.92810994
84.657562 87.632126 -0.8766095
77.562408 79.51532 0
84.677917 87.655418 0.87747341
74.962074 76.571167 -0.92955112
84.581169 87.602234 -0.87457728
77.636009 79.637604 0
84.618584 87.645142 0.8761673
74.95108 76.573898 -0.92926311
84.570328 87.618591 -0.87472284
77.472733 79.469215 0
84.563339 87.610565 0.87442559
74.93927 76.591019 -0.92955112
72.698128 74.011482 -0.37038925
77.464272 79.497276 0
84.517754 87.615784 0.87370002
74.934219 76.615959 -0.93041629
72.570305 73.888466 -0.36545479
77.496674 79.57254 0
84.448364 87.59343 0.87195837
72.165115 73.443985 -0.69575787
72.531158 73.867363 -0.36429366
77.426781 79.52977 0
84.389252 87.582741 0.87065226
72.113159 73.406837 -0.69229835
64 64 -0
77.35701 79.486855 0
84.347168 87.591621 0.87007171
72.118652 73.436234 -0.69373953
72.486946 73.864311 -0.36342254
64 64 0
84.281372 87.572868 0.86847556
72.087036 73.422493 -0.69201034
72.461487 73.85878 -0.36284199
77.268707 79.459854 0
84.235939 87.577621 0.86774945
72.065544 73.420471 -0.69114518
72.43605 73.85321 -0.36226144
77.233093 79.456108 0
84.170265 87.558647 0.86615336
72.04409 73.418419 -0.69028115
72.417389 73.855499 -0.36197144
77.285393 79.555199 0
84.121529 87.55928 0.86528224
72.022636 73.416313 -0.68941599
72.402107 73.86171 -0.36182645
64 64 0
84.062714 87.547981 0.86397612
72.011253 73.426003 -0.68941599
72.37336 73.852058 -0.36110088
72.636742 74.161949 0
84.007324 87.540527 0.86281502
71.986473 73.419891 -0.68826282
72.354721 73.854233 -0.36081031
72.73217 74.299423 0
83.948624 87.529007 0.86150891
71.988449 73.445335 -0.68941599
72.302536 73.816704 -0.35906863
72.726433 74.317909 0
83.88327 87.50946 0.85991275
71.970352 73.447067 -0.68883884
72.270569 73.802902 -0.35819808
72.784439 74.41198 0
83.834732 87.509628 0.85904163
71.935623 73.428993 -0.68682164
72.235291 73.785057 -0.35718197
72.731636 74.374802 0
83.776199 87.497803 0.85773551
71.93087 73.446487 -0.68739766
72.190056 73.755203 -0.35573086
72.799416 74.481018 0
83.727753 87.497803 0.85686499
71.919449 73.45607 -0.68739766
72.1549 73.737198 -0.35471475
72.823509 74.535538 0
83.669319 87.485764 0.85555887
71.891441 73.445786 -0.68595648
72.106483 73.703186 -0.35311863
72.82412 74.562172 0
83.620926 87.48558 0.85468775
71.873405 73.447372 -0.68538046
72.08477 73.700996 -0.35268307
64 64 0
83.559265 87.46936 0.85323662
71.868591 73.464828 -0.68595648
72.069725 73.706764 -0.35253808
72.821854 74.611473 0
83.507637 87.464996 0.85222054
71.83403 73.446449 -0.68393815
72.057991 73.716507 -0.35253808
72.828964 74.646172 0
83.466003 87.472549 0.85163993
71.8424 73.479836 -0.68566847
72.036301 73.714218 -0.35210252
72.826042 74.668854 0
83.414444 87.468033 0.85062438
71.824348 73.481316 -0.68509132
72.021255 73.719917 -0.3519575
72.826393 74.695564 0
83.313293 87.40329 0.84743106
71.826035 73.506737 -0.68624449
71.989677 73.705521 -0.35108641
72.810158 74.702209 0
72.92421 74.840752 0.39215207
71.810448 73.499489 -0.68538046
71.967316 73.690285 -0.35036084
72.773941 74.671349 0
72.947372 74.882286 0.39345875
71.815361 73.528915 -0.68682164
71.952309 73.695885 -0.35021582
72.186737 73.981712 0
72.921036 74.877014 0.3928782
71.787468 73.518333 -0.68538046
71.93071 73.69342 -0.34978029
72.102165 73.902977 0
72.894722 74.871696 0.39229763
71.772682 73.52372 -0.68509132
71.909134 73.69091 -0.34934473
64 64 0
72.875 74.874374 0.39200708
64 64 -0
71.754639 73.525085 -0.6845153
71.877739 73.676285 -0.34847417
64 64 0
72.842178 74.860916 0.39113653
71.75943 73.554527 -0.68595648
71.852936 73.669662 -0.3478936
64 64 0
72.855255 74.90387 0.39229763
71.757652 73.575958 -0.68682164
71.831429 73.667023 -0.34745803
64 64 0
72.815903 74.882256 0.39113653
71.752571 73.593361 -0.68739766
71.803413 73.656273 -0.3467325
72.016014 73.919357 0
72.704765 74.771645 0.38678262
71.734482 73.594673 -0.68682164
71.794998 73.669739 -0.34687749
71.974625 73.89257 0
72.584114 74.648643 0.38199314
71.722885 73.604012 -0.68682164
71.770279 73.662949 -0.34629694
82.74543 87.311401 0
72.52565 74.602318 0.37996149
71.727455 73.633507 -0.68826282
71.735847 73.643967 -0.34528136
82.720512 87.338112 0
72.464058 74.551796 0.37778425
71.71904 73.646873 -0.68855083
71.71769 73.645187 -0.34499082
82.666283 87.328201 0
64 64 0
71.69249 73.661461 -0.68826282
71.681412 73.647545 -0.34441027
82.557983 87.30809 0
64 64 0
71.687233 73.678841 -0.68883884
71.672989 73.660904 -0.34455582
82.510391 87.306046 0
72.367714 74.535614 0.37575257
71.681961 73.696236 -0.68941599
71.677444 73.690529 -0.34528136
82.446655 87.283516 0
