# .PCD v0.7 - Point Cloud Data file format
VERSION 0.7
FIELDS x y z
SIZE 4 4 4
TYPE F F F
COUNT 1 1 1
WIDTH 1694
HEIGHT 1
VIEWPOINT 0 0 0 1 0 0 0
POINTS 1694
DATA ascii
80.753914 59.709114 0
80.771561 59.704594 0.4835155
69.677887 62.553131 -0.96600246
70.587219 62.321411 -0.93773627
72.05555 61.947243 -0.9207865
73.572853 61.560593 -0.8234666
74.681755 61.278019 -0.61432481
78.485733 60.30867 -0.4174875
80.522041 59.789764 0
80.761642 59.72871 0.48308051
69.5886 62.583073 -0.95052046
70.598961 62.326908 -0.93911922
72.058022 61.956978 -0.9207865
73.540955 61.580997 -0.82047039
74.690063 61.28965 -0.61461395
78.480103 60.328732 -0.41719693
80.365662 59.850666 0
80.766785 59.748966 0.48308051
69.5951 62.588615 -0.95133466
70.54261 62.349606 -0.93081594
72.055565 61.967957 -0.92022413
73.548859 61.591267 -0.82089961
74.703354 61.300041 -0.61518997
78.494614 60.343685 -0.4174875
80.380768 59.867897 0
80.761826 59.771774 0.48278993
69.639946 62.584549 -0.95866853
70.593254 62.345299 -0.93773627
72.062935 61.976456 -0.9207865
73.531845 61.607807 -0.81918776
74.696587 61.315495 -0.61461395
78.499016 60.361202 -0.4174875
80.461464 59.86869 0
80.766922 59.79203 0.48278993
69.512177 62.623695 -0.93666685
70.590385 62.354481 -0.93704474
72.060448 61.987431 -0.92022413
73.544685 61.61684 -0.82004285
74.714867 61.324665 -0.61547798
78.47818 60.385021 -0.41676137
80.516953 59.875973 0
80.76696 59.813549 0.48264495
69.648148 62.596992 -0.95948273
70.572891 62.367283 -0.9342761
72.057945 61.998394 -0.91966182
73.552536 61.62714 -0.82047039
74.708054 61.340103 -0.61490196
78.482536 60.402519 -0.41676137
80.552223 59.888405 0
80.761925 59.836315 0.48235494
69.573051 62.622795 -0.94644326
70.540756 62.383656 -0.92943031
72.07515 62.004478 -0.92134887
73.575333 61.633755 -0.8221823
74.711266 61.353046 -0.61490196
78.491936 60.41877 -0.41690692
80.536964 59.913406 0
80.771988 59.855328 0.48249993
69.560326 62.633064 -0.94400072
70.581688 62.381977 -0.93496758
72.067688 62.016663 -0.92022413
73.518356 61.660034 -0.8170467
74.704399 61.368462 -0.61432481
78.491188 60.437527 -0.41676137
80.562111 59.928421 0
80.761841 59.879318 0.4820644
69.619598 62.625694 -0.95378029
70.588509 62.388741 -0.93565911
72.045403 62.032448 -0.91741025
73.461349 61.686169 -0.81191272
74.722649 61.377708 -0.61518997
78.495483 60.45504 -0.41676137
80.546791 59.953381 0
80.761765 59.90081 0.48191938
69.592422 62.6395 -0.94888896
70.60508 62.393143 -0.93773627
72.042824 62.043373 -0.91684574
73.424225 61.707314 -0.80848897
74.705704 61.395561 -0.6140368
78.494713 60.473785 -0.41661638
80.480873 59.990601 0
80.766701 59.921066 0.48191938
69.675735 62.626492 -0.96274257
70.650902 62.390503 -0.94396502
72.055069 62.050701 -0.91797262
64 64 -0
74.733978 61.402416 -0.61547798
78.509071 60.488853 -0.41690692
80.450287 60.019089 0
80.761505 59.943775 0.48162884
69.624542 62.646072 -0.95378029
70.584557 62.414978 -0.9342761
72.052483 62.061623 -0.91741025
73.3349 61.752922 -0.80035716
74.732086 61.416595 -0.61518997
78.513306 60.50639 -0.41690692
80.414604 60.048714 0
80.766396 59.964031 0.48162884
69.655006 62.645966 -0.95866853
70.610863 62.417095 -0.93773627
72.089401 62.063076 -0.92134887
73.347603 61.76181 -0.80121392
74.7201 61.433182 -0.61432481
78.517517 60.52393 -0.41690692
80.409256 60.070972 0
80.745995 59.990341 0.48090327
69.680679 62.647076 -0.96274257
70.62252 62.422764 -0.93911922
72.0868 62.074028 -0.9207865
73.355286 61.771919 -0.80164152
74.758423 61.437744 -0.61634314
78.511581 60.543884 -0.41661638
80.383621 60.098034 0
80.750824 60.010578 0.48090327
69.639023 62.664192 -0.95540869
70.585381 62.440014 -0.93358463
72.094055 62.08263 -0.92134887
73.342979 61.786777 -0.80035716
74.751457 61.453129 -0.61576712
78.515747 60.56142 -0.41661638
80.393379 60.116634 0
80.75563 60.030823 0.48090327
69.592529 62.682343 -0.94726062
70.616554 62.441071 -0.93773627
72.076584 62.097073 -0.9190973
73.34565 61.798069 -0.80035716
74.734383 61.470867 -0.61461395
78.514839 60.580151 -0.41647139
80.392998 60.137638 0
80.760422 60.051071 0.48090327
69.642235 62.677826 -0.95540869
70.579353 62.458225 -0.93219894
72.088783 62.104511 -0.92022413
73.353294 61.808193 -0.80078477
74.707207 61.490921 -0.61288363
78.513908 60.598877 -0.41632637
80.387512 60.159824 0
80.749992 60.074883 0.48046771
69.677528 62.676788 -0.96111423
70.630066 62.454788 -0.93911922
72.086121 62.11544 -0.91966182
73.34095 61.822987 -0.79950207
74.735413 61.497993 -0.61432481
78.523064 60.615238 -0.41647139
80.407349 60.176086 0
80.739555 60.09866 0.48003271
69.592438 62.703743 -0.94644326
70.622162 62.465065 -0.93773627
72.083427 62.126362 -0.9190973
73.348572 61.833118 -0.79992962
74.738426 61.510967 -0.61432481
78.517006 60.635139 -0.41618082
80.411957 60.195911 0
80.75943 60.115372 0.48046771
69.61731 62.701553 -0.95052046
70.574211 62.480366 -0.93081594
72.069717 62.134674 -0.91741025
73.414902 61.823734 -0.80549282
74.719788 61.52211 -0.61317277
78.534233 60.640396 -0.41661638
80.399033 60.209347 0
80.736465 60.131351 0.47974214
69.676666 62.695057 -0.96029693
70.61026 62.480442 -0.93565911
72.086807 62.141014 -0.9190973
73.457558 61.825912 -0.80891651
74.737885 61.53159 -0.6140368
78.543343 60.656799 -0.41676137
80.393463 60.231495 0
80.725945 60.155064 0.47930714
69.697517 62.69751 -0.96355677
70.656113 62.478371 -0.94188792
72.079155 62.153049 -0.91797262
73.530235 61.821323 -0.81490725
74.735825 61.545719 -0.61374879
78.542313 60.675529 -0.41661638
80.418304 60.246666 0
80.730576 60.175278 0.47930714
69.631615 62.719734 -0.9521488
70.618797 62.495312 -0.93635058
72.071457 62.16507 -0.91684574
73.552887 61.828289 -0.8166191
74.748856 61.5564 -0.61432481
78.531105 60.696564 -0.41618082
80.524323 60.243435 0
80.730103 60.196651 0.47916159
69.681366 62.715641 -0.96029693
70.571686 62.51437 -0.92943031
72.068718 62.175945 -0.91628343
73.560509 61.838703 -0.8170467
74.741722 61.571671 -0.61374879
78.530022 60.715267 -0.41603583
80.625313 60.241596 0
80.714409 60.221455 0.47858104
69.707039 62.717083 -0.96437407
70.617523 62.512409 -0.93565911
72.080841 62.183464 -0.91741025
73.548096 61.85363 -0.81576401
74.759796 61.581245 -0.61461395
78.539047 60.731686 -0.41618082
80.716164 60.242279 0
80.734177 60.238232 0.4790166
69.602448 62.747704 -0.94644326
70.619324 62.520409 -0.93565911
72.097893 62.189907 -0.9190973
73.53064 61.869648 -0.81405216
74.742516 61.598763 -0.61346078
78.527786 60.752655 -0.41574582
80.75116 60.255672 0
80.728577 60.260719 0.4787266
69.705284 62.731953 -0.96355677
70.625999 62.527317 -0.93635058
72.095123 62.200794 -0.91853493
73.568275 61.873371 -0.8170467
74.735298 61.613991 -0.61288363
78.526627 60.771339 -0.41560081
80.781075 60.270271 0
80.722931 60.283192 0.47843602
69.708328 62.745747 -0.96355677
70.629532 62.543335 -0.93635058
72.084549 62.223633 -0.91684574
73.558365 61.899803 -0.81576401
74.741035 61.639942 -0.61288363
78.534393 60.806454 -0.41560081
80.754471 60.318649 0
80.736938 60.322502 0.47858104
69.632591 62.76952 -0.95052046
70.592094 62.55991 -0.93081594
72.091667 62.232315 -0.91741025
73.55085 61.913548 -0.81490725
74.748947 61.651814 -0.61317277
78.543312 60.82291 -0.41574582
80.774139 60.335567 0
80.726151 60.346054 0.47814605
69.663048 62.770035 -0.95540869
70.637955 62.558292 -0.93704474
72.068954 62.24749 -0.91459423
73.548355 61.926178 -0.81447971
74.741653 61.667004 -0.61259562
78.552216 60.839382 -0.41589081
80.737885 60.36467 0
80.705147 60.371784 0.47741991
69.621048 62.786266 -0.94807476
70.674011 62.558903 -0.94188792
72.085976 62.254025 -0.91628343
73.530777 61.942051 -0.8127678
74.744469 61.679985 -0.61259562
78.556023 60.856968 -0.41589081
80.762619 60.380505 0
80.719688 60.389774 0.47771049
69.608009 62.796173 -0.94562912
70.611977 62.580658 -0.93289047
72.107948 62.259529 -0.91853493
73.488083 61.963264 -0.80891651
74.757385 61.690796 -0.61317277
78.554733 60.875648 -0.41574582
80.751709 60.404041 0
80.698639 60.415432 0.47698492
69.643303 62.795727 -0.95133466
70.589157 62.593884 -0.92943031
72.100121 62.271446 -0.91741025
73.560822 61.959732 -0.81490725
74.739937 61.708115 -0.6120196
78.558495 60.893238 -0.41574582
80.761124 60.423199 0
80.723282 60.431274 0.47756547
69.552872 62.822037 -0.93584949
70.654648 62.58831 -0.93842775
72.117096 62.278072 -0.9190973
72.091805 62.28344 -0.68951982
74.752808 61.718948 -0.61259562
78.562241 60.910831 -0.41574582
80.770523 60.442375 0
80.707245 60.455795 0.47698492
69.617165 62.815491 -0.94644326
70.646545 62.598423 -0.93704474
72.104271 62.291027 -0.91741025
72.118988 62.287922 -0.69165927
74.755554 61.731941 -0.61259562
78.545624 60.932716 -0.41516528
80.749352 60.46801 0
80.716599 60.474915 0.47712991
69.671814 62.811123 -0.95540869
70.608948 62.614689 -0.93150747
72.121239 62.297695 -0.9190973
72.070808 62.308266 -0.68738043
74.753227 61.745998 -0.61230761
78.549316 60.950294 -0.41516528
80.76889 60.485046 0
80.710686 60.497246 0.47683993
69.697441 62.812935 -0.95948273
70.640076 62.616535 -0.93565911
72.11335 62.309582 -0.91797262
72.037659 62.325348 -0.68438423
74.750885 61.760048 -0.6120196
78.547913 60.968937 -0.41502026
80.788422 60.502125 0
80.725067 60.515324 0.47712991
69.698868 62.81982 -0.95948273
70.6614 62.620491 -0.93842775
72.115387 62.319386 -0.91797262
72.054764 62.33194 -0.68566853
74.753586 61.773041 -0.6120196
78.561729 60.984409 -0.41531026
80.751862 60.530857 0
80.703827 60.540802 0.47640437
69.597923 62.844254 -0.94236922
70.667137 62.623501 -0.93911922
72.111427 62.325314 -0.91741025
72.025597 62.343037 -0.68309993
74.744781 61.781631 -0.61144245
78.568634 60.992161 -0.41545525
80.738655 60.544136 0
80.675369 60.557201 0.47553325
69.754272 62.819221 -0.9684481
70.668793 62.631557 -0.93911922
72.098503 62.338181 -0.91572106
72.05275 62.347572 -0.68524098
74.762665 61.791496 -0.61230761
78.562088 61.011852 -0.41516528
80.753006 60.562275 0
80.689705 60.575264 0.47582379
69.789604 62.81926 -0.97415364
70.660622 62.641621 -0.93773627
72.105484 62.346954 -0.91628343
72.054741 62.357304 -0.68524098
74.780533 61.801399 -0.61317277
78.57077 61.028412 -0.41531026
80.741859 60.585636 0
80.68364 60.597511 0.47553325
69.665054 62.851788 -0.95296299
70.608162 62.660637 -0.93012178
72.107475 62.35675 -0.91628343
72.036591 62.371117 -0.68352914
74.818657 61.807236 -0.61518997
78.574356 61.046021 -0.41531026
80.730667 60.608971 0
80.687737 60.617672 0.47553325
69.637375 62.864487 -0.94807476
70.639297 62.662674 -0.9342761
72.129379 62.362534 -0.91853493
72.013374 62.385899 -0.68138802
72.057686 62.376976 -0.45807865
78.567734 61.065681 -0.41502026
80.71434 60.633301 0
80.696922 60.63681 0.4756788
69.653282 62.868389 -0.95052046
70.650742 62.668732 -0.93565911
72.126373 62.373352 -0.91797262
72.010292 62.396591 -0.68096048
72.084999 62.381638 -0.45951983
78.566154 61.084309 -0.4148747
80.733711 60.650433 0
80.685684 60.660049 0.47524324
69.649788 62.876186 -0.94970316
70.627739 62.68166 -0.93219894
72.123352 62.384163 -0.91741025
72.052505 62.398258 -0.68438423
72.026085 62.403511 -0.45606142
78.564575 61.102924 -0.41472971
80.758163 60.666592 0
80.674408 60.683254 0.47480768
69.728729 62.86768 -0.96274257
70.649017 62.68578 -0.93496758
72.110336 62.396938 -0.91572106
72.074585 62.404007 -0.68609607
72.028008 62.413212 -0.45606142
78.573158 61.119518 -0.4148747
80.74176 60.69088 0
80.678406 60.703403 0.47480768
69.730095 62.874603 -0.96274257
70.611214 62.70155 -0.92943031
72.112274 62.406738 -0.91572106
72.051323 62.418709 -0.68395668
72.040062 62.420921 -0.45663747
78.571533 61.13813 -0.41472971
80.715088 60.717133 0
80.687469 60.722557 0.4749527
69.779976 62.872055 -0.9708938
70.691574 62.69416 -0.94050491
72.119171 62.415569 -0.91628343
72.033066 62.432373 -0.68224478
72.006416 62.437572 -0.45461914
78.569885 61.156734 -0.4145847
80.724167 60.736332 0
80.676132 60.745708 0.47451767
69.611481 62.911976 -0.94236922
70.698067 62.701294 -0.94119638
72.111115 62.427315 -0.91515875
72.034958 62.442081 -0.68224478
72.003227 62.448235 -0.45433113
78.583504 61.172363 -0.4148747
80.7332 60.755554 0
80.664742 60.768829 0.47408214
69.763268 62.889767 -0.96763396
70.655289 62.71793 -0.93496758
72.122978 62.435196 -0.91628343
72.04187 62.450821 -0.68267238
71.994949 62.459858 -0.45375508
78.576714 61.191952 -0.4145847
80.726883 60.777744 0
80.658432 60.790932 0.47379214
69.696625 62.909744 -0.95622283
70.646988 62.727856 -0.93358463
72.124863 62.445011 -0.91628343
72.018532 62.465363 -0.68053293
71.991707 62.470497 -0.45346597
78.595413 61.206635 -0.41502026
80.710312 60.801872 0
80.6623 60.811062 0.47379214
69.68338 62.919395 -0.95378029
70.683014 62.729332 -0.93842775
72.12175 62.45578 -0.91572106
72.0103 62.476967 -0.67967784
71.983391 62.482086 -0.45288995
78.588562 61.226215 -0.41472971
80.698837 60.824982 0
80.655922 60.833141 0.47350156
69.684685 62.926262 -0.95378029
70.57608 62.757893 -0.9232015
72.123611 62.465591 -0.91572106
71.976814 62.49332 -0.67668164
71.995377 62.489815 -0.45346597
78.597 61.242882 -0.4148747
80.717995 60.842266 0
80.675064 60.850372 0.47393712
69.73941 62.923107 -0.96274257
70.626884 62.756588 -0.93012178
72.140442 62.472599 -0.91741025
71.963486 62.505802 -0.67539734
71.966705 62.505196 -0.45173678
78.574791 61.265312 -0.41414914
80.711578 60.864384 0
80.673752 60.871483 0.47379214
69.755287 62.927326 -0.96518826
70.63826 62.762756 -0.93150747
72.132286 62.484299 -0.91628343
71.940056 62.520126 -0.67325789
71.973579 62.513878 -0.45202479
78.578079 61.282925 -0.41414914
80.710236 60.885532 0
80.662186 60.894489 0.47335657
69.732285 62.938778 -0.96111423
70.634819 62.77169 -0.93081594
72.124123 62.495975 -0.91515875
71.941833 62.52972 -0.67325789
71.944862 62.529163 -0.45029557
78.591583 61.298649 -0.41443971
80.719101 60.904781 0
80.67614 60.912735 0.47364658
69.650917 62.960903 -0.94726062
70.720184 62.764282 -0.94258207
72.110939 62.508549 -0.91346955
71.933502 62.541176 -0.67240113
71.951714 62.537827 -0.45058361
78.589714 61.317226 -0.41429415
80.692108 60.930634 0
80.674751 60.933826 0.47350156
69.574364 62.981941 -0.93422115
70.662445 62.783222 -0.9342761
72.142715 62.512875 -0.91684574
71.95546 62.547073 -0.67411304
71.953476 62.547436 -0.45058361
78.592941 61.334854 -0.41429415
80.695801 60.950806 0
80.652885 60.958641 0.47277603
69.726357 62.96133 -0.95948273
70.673775 62.789482 -0.93565911
72.124512 62.526344 -0.91459423
71.967323 62.554855 -0.67496979
64 64 -0
78.60128 61.351559 -0.41443971
80.68924 60.972836 0
80.661659 60.97784 0.47292101
69.693565 62.97438 -0.95378029
70.699913 62.793102 -0.93911922
72.126282 62.53616 -0.91459423
71.979156 62.562664 -0.67582488
71.870422 62.582253 -0.44568291
78.604469 61.369205 -0.41443971
80.687775 60.993927 0
80.660187 60.998894 0.47277603
69.810936 62.956863 -0.97333634
70.611755 62.813107 -0.92666167
72.147171 62.537479 -0.91684574
71.964882 62.570202 -0.67454219
71.866188 62.587921 -0.44539487
78.595818 61.379868 -0.41414914
80.689583 61.004009 0
80.641541 61.012634 0.47219545
69.617546 62.998585 -0.94074088
70.652702 62.814053 -0.93219894
72.138939 62.549107 -0.91572106
72.052521 62.56451 -0.68181723
71.872978 62.596519 -0.44568291
78.60408 61.396595 -0.41429415
80.657318 61.030571 0
80.655357 61.030922 0.47248545
69.784241 62.976078 -0.9684481
70.688721 62.815968 -0.93704474
72.130669 62.560715 -0.91459423
72.109848 62.5644 -0.68652368
71.874672 62.606033 -0.44568291
78.61235 61.413334 -0.41443971
80.696777 61.04435 0
80.643593 61.053764 0.47205046
69.761139 62.987347 -0.96437407
70.655548 62.830132 -0.93219894
72.142426 62.568779 -0.91572106
72.131805 62.570644 -0.68823552
71.871262 62.616444 -0.44539487
78.579628 61.43729 -0.4134236
80.72084 61.060921 0
80.657372 61.072079 0.47234046
69.757469 62.995159 -0.96355677
70.691566 62.832134 -0.93704474
72.144142 62.578621 -0.91572106
72.133522 62.580475 -0.68823552
71.862724 62.627735 -0.44481775
78.592949 61.453125 -0.41371357
80.719238 61.082027 0
80.660896 61.092209 0.47234046
69.714851 63.009712 -0.95622283
70.683075 62.841938 -0.93565911
72.130829 62.591064 -0.91403186
72.104889 62.595558 -0.68566853
71.838898 62.641651 -0.44337657
78.585785 61.47253 -0.4134236
71.532845 62.694687 0
80.654167 61.114113 0.47205046
69.686821 63.021645 -0.95133466
70.654808 62.855114 -0.93150747
72.132523 62.600891 -0.91403186
72.04586 62.615799 -0.68053293
71.866013 62.64674 -0.44481775
78.588821 61.490158 -0.4134236
71.488251 62.711731 0
80.657639 61.134239 0.47205046
69.717224 63.023525 -0.95622283
70.710579 62.853867 -0.93911922
72.139214 62.609863 -0.91459423
72.001984 62.633301 -0.67668164
71.847244 62.659729 -0.44366458
78.602081 61.506039 -0.41371357
71.510307 62.717278 0
80.650833 61.15612 0.47175989
69.655052 63.041176 -0.94562912
70.677345 62.867844 -0.9342761
72.165955 62.615448 -0.91741025
72.003632 62.642971 -0.67668164
71.864166 62.666618 -0.44452974
78.605087 61.523682 -0.41371357
71.455414 62.735924 0
80.638901 61.178848 0.47132489
69.656204 63.048012 -0.94562912
70.6688 62.877583 -0.93289047
72.132538 62.631222 -0.91346955
72.02552 62.649235 -0.67839348
71.845367 62.679554 -0.44337657
78.602951 61.542194 -0.41356859
71.446663 62.746662 0
80.637161 61.199818 0.47117934
69.628105 63.059731 -0.94074088
70.665207 62.886467 -0.93219894
72.149231 62.638535 -0.91515875
72.113228 62.64455 -0.68566853
71.85717 62.687328 -0.44395369
78.626411 61.556416 -0.41414914
71.427635 62.75909 0
80.640533 61.219925 0.47117934
69.736519 63.048744 -0.95866853
70.656662 62.89616 -0.93081594
72.150864 62.648384 -0.91515875
72.114861 62.654354 -0.68566853
71.863853 62.69598 -0.44424173
78.603722 61.578339 -0.4134236
71.43428 62.767212 0
80.643875 61.240032 0.47117934
69.698639 63.062099 -0.9521488
70.702545 62.896873 -0.93704474
72.152496 62.658234 -0.91515875
72.182335 62.653324 -0.69123173
71.855202 62.707165 -0.44366458
78.601517 61.596832 -0.41327858
71.430611 62.777042 0
80.631836 61.262672 0.47074434
69.694893 63.069778 -0.95133466
70.674149 62.909828 -0.93289047
72.159119 62.667267 -0.91572106
72.158623 62.667347 -0.68909228
71.841461 62.719154 -0.44280052
78.583893 61.617828 -0.41269803
71.432083 62.786022 0
80.650497 61.280262 0.47117934
69.598427 63.092484 -0.93503535
70.764626 62.903439 -0.94535071
72.160721 62.677128 -0.91572106
72.170349 62.675568 -0.68994737
71.843002 62.72863 -0.44280052
78.602158 61.632954 -0.41313359
71.377045 62.804165 0
80.653778 61.300385 0.47117934
69.731293 63.078049 -0.95704019
70.666862 62.927551 -0.93150747
72.147263 62.689411 -0.91403186
72.141541 62.690331 -0.68738043
71.829201 62.740574 -0.44193539
78.569084 61.65638 -0.41211748
71.347641 62.818039 0
80.646774 61.322155 0.47088933
69.688461 63.091991 -0.94970316
70.633469 62.941143 -0.92666167
72.143822 62.700054 -0.91346955
72.163399 62.69693 -0.68909228
71.835823 62.749222 -0.4422234
78.535973 61.679718 -0.41110137
71.359352 62.825275 0
80.639725 61.343914 0.47059879
69.757912 63.088036 -0.96111423
70.699165 62.938957 -0.93565911
72.150406 62.709103 -0.91403186
72.159882 62.707603 -0.68866307
71.867996 62.753834 -0.44395369
71.522438 62.808563 -0.21270615
71.335068 62.838238 0
80.63266 61.365646 0.47030878
69.768768 63.09346 -0.96274257
70.700439 62.947052 -0.93565911
72.167023 62.716583 -0.91572106
72.166527 62.716663 -0.68909228
71.838821 62.768162 -0.4422234
71.559814 62.812004 -0.21372227
71.351875 62.844681 0
80.605019 61.390587 0.46943766
69.71125 63.10957 -0.95296299
70.681877 62.958241 -0.93289047
72.178604 62.724888 -0.91684574
72.183273 62.724159 -0.69037497
71.86586 62.773647 -0.44366458
71.54071 62.824341 -0.21314171
71.353264 62.853565 0
80.587639 61.413853 0.46885768
69.707443 63.117226 -0.9521488
70.653389 62.970917 -0.92873883
72.175117 62.73555 -0.91628343
72.194969 62.732479 -0.69123173
71.846886 62.786316 -0.44251141
71.501038 62.839809 -0.2119806
71.287781 62.872795 0
80.590752 61.433895 0.46885768
64 64 -0
70.659584 62.978195 -0.92943031
72.166603 62.746967 -0.91515875
72.216789 62.739265 -0.69294357
71.879036 62.791092 -0.44424173
71.466469 62.854393 -0.21096447
71.299438 62.88002 0
80.629784 61.448429 0.46987322
69.70903 63.127571 -0.9521488
70.68499 62.978432 -0.93289047
72.167358 62.7519 -0.91515875
72.16172 62.752762 -0.68823552
71.843964 62.801323 -0.4422234
71.415794 62.866753 -0.20951337
71.28981 62.886005 0
71.508018 62.852657 0.21211891
69.807831 63.119656 -0.9684481
70.740799 62.978237 -0.94050491
72.158806 62.763294 -0.91403186
72.14801 62.764931 -0.68695283
71.845406 62.810799 -0.4422234
71.432564 62.873379 -0.20994836
71.265427 62.898712 0
71.529953 62.858616 0.21269946
69.799103 63.128143 -0.9668166
70.702332 62.992348 -0.93496758
72.160294 62.773155 -0.91403186
72.108879 62.780884 -0.68352914
71.872406 62.816437 -0.44366458
71.387672 62.889313 -0.20864224
71.364555 62.892788 0
71.505638 62.871578 0.21197391
64 64 -0
70.748207 62.99379 -0.94119638
72.166786 62.782269 -0.91459423
72.064644 62.797497 -0.67967784
71.858498 62.828236 -0.44280052
71.414703 62.894409 -0.20936781
71.232048 62.921646 0
71.465874 62.88678 0.21081279
69.776749 63.145775 -0.96274257
70.66008 63.015156 -0.92873883
72.158211 62.793621 -0.91346955
72.060997 62.807995 -0.67924863
71.859909 62.83773 -0.44280052
71.380058 62.908688 -0.20835225
71.243629 62.928864 0
71.45694 62.89732 0.21052279
64 64 -0
70.69104 63.018837 -0.93289047
72.169708 62.802006 -0.91459423
72.077682 62.815502 -0.68053293
71.866417 62.846481 -0.44308856
71.381371 62.917606 -0.20835225
71.291267 62.93082 0
71.314293 62.927444 0.20645888
69.773903 63.16045 -0.96192843
70.692223 63.02692 -0.93289047
72.156075 62.814072 -0.91290718
72.063858 62.82748 -0.67924863
71.878036 62.8545 -0.44366458
71.346672 62.931763 -0.20733613
71.261658 62.944122 0
71.25901 62.944508 0.20486221
64 64 -0
70.678513 63.037155 -0.93081594
72.172577 62.821754 -0.91459423
72.060188 62.837955 -0.67882109
71.884552 62.863277 -0.44395369
71.36853 62.937675 -0.20791669
71.206253 62.961071 0
71.280853 62.950314 0.20544277
69.681374 63.194923 -0.94602054
70.69313 63.051552 -0.93253142
72.177818 62.841164 -0.9148646
72.090828 62.853493 -0.68116605
71.894852 62.881264 -0.44438019
71.31694 62.963154 -0.20638973
71.242149 62.973755 0
71.311569 62.963917 0.20623803
64 64 -0
70.719109 63.056152 -0.93599153
72.169159 62.852459 -0.91373992
72.122726 62.858982 -0.68373466
71.875702 62.893681 -0.44322702
71.292465 62.975609 -0.20566417
71.253685 62.981056 0
71.26136 62.97998 0.20478691
69.717583 63.20388 -0.95172608
70.670563 63.07119 -0.92907125
72.160461 62.863735 -0.91261303
72.16478 62.863132 -0.68715841
71.877037 62.903198 -0.44322702
71.267967 62.988007 -0.20493861
71.162125 63.002743 0
71.293457 62.984455 0.20565748
69.659775 63.218899 -0.94194651
70.711441 63.073761 -0.93460858
72.176941 62.87151 -0.91430223
72.211914 62.866684 -0.6910097
71.873238 62.913422 -0.44293901
71.26918 62.996788 -0.20493861
71.194252 63.00713 0
71.320435 62.989716 0.20638359
69.822334 63.203632 -0.96883959
70.811981 63.068272 -0.94845182
72.173264 62.88208 -0.91373992
72.253967 62.87104 -0.69443345
71.848923 62.926441 -0.4414978
71.285843 63.00346 -0.20537417
71.205772 63.014412 0
71.234123 63.010532 0.20391636
69.867371 63.204693 -0.97617346
70.703705 63.091331 -0.93322289
72.174606 62.891956 -0.91373992
72.245148 62.882393 -0.69357669
71.70668 62.955383 -0.43342564
71.287041 63.012264 -0.20537417
71.170845 63.028011 0
71.261055 63.015785 0.20464192
69.76545 63.225601 -0.95905995
70.699829 63.100101 -0.93253142
72.191055 62.899803 -0.91542912
72.292282 62.886208 -0.69742799
71.538757 62.987419 -0.42391226
71.32943 63.015533 -0.20653528
71.166862 63.037369 0
71.282845 63.021793 0.20522247
69.76638 63.232571 -0.95905995
70.725777 63.104889 -0.93599153
72.197411 62.909031 -0.91599143
72.288536 62.896904 -0.69700044
71.478439 63.004719 -0.42045274
71.315155 63.026447 -0.20609973
71.214447 63.039852 0
71.253105 63.034706 0.20435137
69.693787 63.249233 -0.94683468
70.687057 63.118263 -0.93045425
72.168488 62.922924 -0.91261303
72.284775 62.907593 -0.69657284
71.423241 63.021191 -0.41728237
71.32148 63.034611 -0.20624472
71.210449 63.049248 0
71.280037 63.040073 0.20507747
69.68 63.25803 -0.94439214
70.648315 63.131542 -0.92491698
72.189941 62.930164 -0.9148646
72.281006 62.918266 -0.6961453
71.409027 63.032173 -0.41641721
71.31234 63.0448 -0.20595473
71.190948 63.060658 0
71.281197 63.04887 0.20507747
69.774025 63.252846 -0.95987415
70.63942 63.140862 -0.92353398
72.201317 62.938755 -0.91599143
72.307762 62.92498 -0.69828475
71.40506 63.04179 -0.4161292
71.298019 63.055637 -0.20551917
71.166252 63.072689 0
64 64 0
69.779823 63.259193 -0.96068835
70.749931 63.134853 -0.93876022
72.202591 62.948666 -0.91599143
72.303947 62.935673 -0.69785553
71.365166 63.056 -0.41382286
71.273392 63.06776 -0.20479362
71.219002 63.07473 0
64 64 0
69.814598 63.258308 -0.96639389
70.720596 63.142738 -0.93460858
72.198189 62.954262 -0.91542912
72.31987 62.93874 -0.69913983
71.365738 63.060448 -0.41382286
71.320343 63.066238 -0.20609973
71.198914 63.081726 0
64 64 0
69.756638 63.272766 -0.95661432
70.632034 63.162178 -0.92215097
72.194389 62.964809 -0.9148646
72.300774 62.95137 -0.69742799
71.36174 63.069996 -0.41353485
71.264748 63.082249 -0.20450306
71.210335 63.089123 0
64 64 0
64 64 -0
70.682823 63.163967 -0.92907125
72.190598 62.975342 -0.91430223
72.291855 62.962673 -0.69657284
71.342323 63.081459 -0.41238168
71.260696 63.091671 -0.20435806
71.242424 63.09396 0
64 64 0
69.827065 63.278172 -0.96802539
70.748558 63.164024 -0.93806869
72.181747 62.986485 -0.91317755
72.308372 62.970802 -0.69785553
71.322891 63.092876 -0.41122851
71.287575 63.097252 -0.20508361
71.176369 63.111027 0
71.225464 63.104946 0.20333581
64 64 -0
70.749557 63.172176 -0.93806869
72.193047 62.995136 -0.91430223
72.31472 62.980213 -0.69828475
71.323982 63.101727 -0.41122851
71.288658 63.10606 -0.20508361
71.208427 63.115898 0
71.216217 63.114944 0.20304525
69.779716 63.298214 -0.95987415
70.685806 63.188194 -0.92907125
72.199295 63.004425 -0.9148646
72.321037 62.989643 -0.69871229
71.319916 63.111202 -0.41093937
71.263947 63.117996 -0.20435806
71.121651 63.135273 0
64 64 0
69.863991 63.295174 -0.97372776
70.706711 63.193878 -0.93183988
72.210594 63.013119 -0.91599143
72.347733 62.996635 -0.70085174
71.315849 63.120663 -0.41065136
71.254692 63.128014 -0.20406805
71.133041 63.142635 0
71.21833 63.132385 0.20304525
64 64 -0
70.70768 63.201984 -0.93183988
72.211777 63.023041 -0.91599143
72.359146 63.005508 -0.7017085
71.31691 63.129505 -0.41065136
71.255745 63.13678 -0.20406805
71.196075 63.143879 0
71.209061 63.142334 0.20275524
69.738037 63.324371 -0.95254028
70.703659 63.210674 -0.93114841
72.223038 63.031776 -0.91711611
72.329742 63.019215 -0.69913983
71.282005 63.142578 -0.40863416
71.256783 63.14555 -0.20406805
71.135086 63.159878 0
71.189453 63.153477 0.20217469
64 64 -0
70.669716 63.222843 -0.92630261
72.229263 63.041122 -0.91768062
72.397209 63.021553 -0.70470303
71.252197 63.154972 -0.40690383
71.242317 63.156124 -0.20363249
71.182625 63.163078 0
71.211113 63.15976 0.20275524
64 64 -0
70.700546 63.227455 -0.93045425
72.225357 63.051651 -0.91711611
72.383102 63.033463 -0.70342034
71.25322 63.163734 -0.40690383
71.207184 63.169041 -0.20261638
71.193962 63.170567 0
71.186317 63.171448 0.20202969
69.774834 63.341255 -0.95824581
70.771278 63.227589 -0.94014585
72.196213 63.065044 -0.91373992
72.537285 63.026138 -0.71625853
71.228531 63.17543 -0.40546265
71.228836 63.175396 -0.20319694
71.153587 63.183979 0
71.187317 63.18013 0.20202969
69.731422 63.353222 -0.95091188
70.717361 63.241962 -0.93253142
72.207428 63.073811 -0.9148646
73.395493 62.939739 -0.7881521
71.239792 63.183006 -0.40603867
71.22467 63.184711 -0.20305194
71.15976 63.192039 0
71.188301 63.188816 0.20202969
69.776413 63.355213 -0.95824581
70.708305 63.25119 -0.93114841
72.203491 63.084293 -0.91430223
73.44268 62.945969 -0.79200339
71.240768 63.191753 -0.40603867
71.204994 63.195747 -0.20247138
71.145203 63.202423 0
71.168617 63.19981 0.20144913
64 64 -0
70.754089 63.254341 -0.93737721
72.229843 63.091415 -0.91711611
64 64 -0
71.231468 63.201637 -0.40546265
71.216301 63.203312 -0.20276193
71.135803 63.2122 0
71.154076 63.210182 0.20101357
69.753387 63.371857 -0.95417178
70.690147 63.269581 -0.92837977
72.205681 63.104118 -0.91430223
73.404388 62.973248 -0.78858131
71.216995 63.212063 -0.40459749
71.212074 63.212601 -0.20261638
71.178146 63.216305 0
71.170525 63.217136 0.20144913
69.79837 63.374035 -0.96150565
70.696007 63.27713 -0.92907125
72.201706 63.114578 -0.91373992
73.400505 62.985165 -0.7881521
71.217941 63.220783 -0.40459749
71.207863 63.22187 -0.20247138
71.17392 63.225536 0
71.161125 63.226917 0.20115857
69.720474 63.389435 -0.94846618
70.6819 63.286819 -0.92699409
72.197723 63.125031 -0.91317755
73.422142 62.994343 -0.78986394
71.21888 63.229504 -0.40459749
71.224304 63.228928 -0.20290694
71.128273 63.239174 0
71.156891 63.236122 0.20101357
64 64 -0
70.727661 63.290154 -0.93322289
72.239204 63.130669 -0.91768062
71.294357 63.230362 -0.61141187
71.204384 63.239853 -0.40373346
64 64 -0
71.046364 63.256527 0
71.142296 63.246407 0.20057802
69.893997 63.385315 -0.97698766
70.698586 63.301407 -0.92907125
72.225082 63.142208 -0.91599143
71.361664 63.232254 -0.61697507
71.189857 63.250172 -0.4028683
71.169281 63.252316 -0.20131026
71.057625 63.263962 0
71.112198 63.25827 0.19970745
69.820999 63.40004 -0.96476549
70.694435 63.310013 -0.92837977
72.231163 63.151627 -0.9165538
71.408539 63.236412 -0.62082636
71.175316 63.260448 -0.40200314
71.118492 63.266308 -0.19985914
71.089561 63.269287 0
71.09758 63.268463 0.1992719
69.811874 63.408073 -0.96313399
70.75016 63.312511 -0.93599153
72.237236 63.161057 -0.91711611
71.363495 63.250046 -0.61697507
71.181351 63.268597 -0.40229115
71.119377 63.27491 -0.19985914
71.085266 63.278381 0
71.082939 63.278618 0.19883634
64 64 -0
70.715645 63.320126 -0.93114841
72.212463 63.168594 -0.91430223
71.358841 63.255013 -0.61654752
71.186951 63.272411 -0.40258029
71.155991 63.275547 -0.2008747
71.137474 63.27742 0
71.062698 63.284992 0.19825578
69.827698 63.417133 -0.96557969
70.791336 63.320755 -0.94152886
72.193237 63.180538 -0.91205072
71.334183 63.26646 -0.61440641
71.172379 63.282642 -0.40171513
71.15686 63.284195 -0.2008747
71.371399 63.262737 0
71.032539 63.296631 0.19738522
69.907104 63.416401 -0.97861916
70.8321 63.325012 -0.94706613
72.244804 63.185444 -0.91768062
71.355499 63.273304 -0.61611831
71.173241 63.291309 -0.40171513
71.426651 63.266273 -0.20842196
72.175102 63.192329 0
70.862717 63.321987 0.19259576
64 64 -0
70.683105 63.347885 -0.92630261
72.266006 63.193432 -0.91993219
71.320618 63.285679 -0.61312377
71.158638 63.301487 -0.40084997
72.105072 63.209137 -0.22743425
72.160545 63.203724 0
72.937538 63.127907 0.25079376
64 64 -0
70.778763 63.346821 -0.93945169
72.236618 63.206345 -0.9165538
71.316345 63.295021 -0.61269456
71.154335 63.310631 -0.40056196
72.199127 63.209957 -0.23004648
72.135597 63.21608 0
72.881676 63.144192 0.24919708
64 64 -0
70.719627 63.36071 -0.93114841
72.232521 63.216778 -0.91599143
71.306984 63.304832 -0.61183947
71.103676 63.324173 -0.3976796
72.225937 63.217407 -0.23077205
72.126167 63.226898 0
72.898232 63.153446 0.24963264
64 64 -0
70.745369 63.366486 -0.93460858
72.192978 63.23053 -0.91148835
71.29248 63.315102 -0.61055511
71.083885 63.334694 -0.39652643
72.252739 63.224915 -0.2314976
72.111542 63.238178 0
72.88372 63.165657 0.24919708
64 64 -0
70.73613 63.375565 -0.93322289
72.249573 63.235268 -0.91768062
71.288193 63.324387 -0.61012757
71.105286 63.341343 -0.3976796
72.279564 63.232491 -0.23222372
72.107285 63.248459 0
72.931305 63.172073 0.25050375
64 64 -0
70.736877 63.383705 -0.93322289
72.220116 63.248016 -0.91430223
71.2481 63.336937 -0.60670382
71.188484 63.342392 -0.40229115
72.264954 63.243916 -0.23178816
72.134094 63.255886 0
72.932297 63.182865 0.25050375
64 64 -0
70.722641 63.393196 -0.93114841
72.215965 63.258404 -0.91373992
71.254005 63.345234 -0.60713142
71.79718 63.296207 -0.436308
72.265862 63.253902 -0.23178816
72.134987 63.265713 0
72.948792 63.192257 0.25093877
64 64 -0
70.73835 63.399986 -0.93322289
72.226967 63.267433 -0.9148646
71.244576 63.354908 -0.60627627
72.004128 63.287277 -0.44783971
72.240875 63.266193 -0.23106261
72.130692 63.276005 0
72.903183 63.207218 0.24963264
64 64 -0
70.754066 63.406811 -0.93530005
72.237976 63.276485 -0.91599143
71.229996 63.365013 -0.60499197
72.004982 63.296947 -0.44783971
72.288345 63.27206 -0.23236872
72.115997 63.287197 0
72.867889 63.221161 0.24861653
64 64 -0
70.774773 63.413242 -0.93806869
72.198349 63.289948 -0.91148835
71.256332 63.371532 -0.60713142
72.000656 63.307068 -0.44755057
64 64 -0
72.122055 63.296555 0
72.915436 63.22784 0.2499232
64 64 -0
70.695488 63.428257 -0.92699409
72.23465 63.296825 -0.91542912
71.221291 63.383358 -0.60413688
71.960274 63.320255 -0.44524536
72.30043 63.29121 -0.23265871
72.174751 63.301941 0
72.890457 63.240826 0.24919708
64 64 -0
70.721169 63.434246 -0.93045425
72.230408 63.307205 -0.9148646
71.232254 63.391224 -0.60499197
72.022926 63.324669 -0.44870374
72.296104 63.301674 -0.23251371
72.206696 63.3092 0
72.886192 63.252003 0.24905209
64 64 -0
70.791862 63.436558 -0.94014585
72.251495 63.315468 -0.91711611
71.192055 63.403358 -0.60156822
72.018585 63.334789 -0.44841573
72.286591 63.312557 -0.23222372
72.207527 63.319118 0
72.88192 63.263168 0.24890709
64 64 -0
70.767517 63.446812 -0.93668306
72.252319 63.325439 -0.91711611
71.182541 63.412884 -0.60071313
71.967834 63.348694 -0.44553337
72.277046 63.323418 -0.23193316
72.197975 63.32988 0
72.934586 63.269669 0.25035819
64 64 -0
70.783188 63.453777 -0.93876022
72.263268 63.334595 -0.91824299
71.162781 63.423214 -0.59900123
71.911896 63.362888 -0.44236186
72.422905 63.321739 -0.23599707
72.203964 63.339371 0
72.940659 63.280048 0.25050375
64 64 -0
70.768837 63.463165 -0.93668306
72.233665 63.346992 -0.9148646
71.173691 63.431057 -0.59985638
71.979691 63.367134 -0.44610938
72.874397 63.296173 -0.24862322
72.215141 63.348461 0
72.993317 63.286743 0.25195488
64 64 -0
70.729477 63.474468 -0.93114841
72.224319 63.357731 -0.91373992
71.159035 63.440922 -0.59857368
72.042336 63.371944 -0.4495689
73.015137 63.295975 -0.25254214
72.283379 63.353119 0
73.004524 63.296803 0.25224489
64 64 -0
70.750122 63.481064 -0.93391705
72.235214 63.36689 -0.9148646
71.154572 63.44997 -0.59814447
64 64 -0
73.057434 63.30368 -0.25370324
72.294525 63.362331 0
64 64 0
64 64 -0
70.765739 63.488083 -0.93599153
72.235977 63.376842 -0.9148646
71.145004 63.459389 -0.59728938
72.116035 63.385918 -0.45360443
73.084175 63.312664 -0.2544288
72.305679 63.371567 0
64 64 0
64 64 -0
70.776062 63.491421 -0.93737721
72.256622 63.380295 -0.91711611
71.155556 63.462936 -0.59814447
72.044197 63.39624 -0.4495689
73.110497 63.316208 -0.25515437
64 64 0
64 64 0
64 64 -0
70.636566 63.509953 -0.91799664
72.221901 63.392891 -0.91317755
71.176682 63.47007 -0.59985638
72.055252 63.405197 -0.45014605
73.111313 63.327217 -0.25515437
72.311989 63.386238 0
64 64 0
64 64 -0
70.747238 63.509979 -0.93322289
72.227692 63.402458 -0.91373992
71.151718 63.480602 -0.59771693
72.050789 63.415306 -0.44985691
73.106941 63.338604 -0.25500935
72.478828 63.38422 0
64 64 0
64 64 -0
70.737823 63.518845 -0.93183988
72.238541 63.411678 -0.9148646
71.167709 63.488148 -0.59900123
72.036026 63.42614 -0.44899288
73.086998 63.351089 -0.2544288
72.687241 63.379635 0
64 64 0
64 64 -0
70.728378 63.527691 -0.93045425
72.254456 63.420567 -0.9165538
71.152954 63.497887 -0.59771693
72.047028 63.435127 -0.4495689
73.118874 63.359886 -0.25529936
72.765846 63.384666 0
73.03051 63.366089 0.25282544
64 64 -0
70.623833 63.543072 -0.91591954
72.275429 63.429142 -0.9188053
71.168922 63.50547 -0.59900123
72.037392 63.44556 -0.44899288
73.10408 63.371979 -0.2548638
72.84967 63.389526 0
73.046829 63.375927 0.253261
64 64 -0
70.719498 63.544628 -0.92907125
72.230484 63.44223 -0.91373992
71.149025 63.515522 -0.59728938
72.069008 63.453175 -0.45072207
73.120392 63.381924 -0.25529936
72.91272 63.396 0
73.032013 63.387913 0.25282544
64 64 -0
70.6605 63.564796 -0.92076534
72.257156 63.460468 -0.9165538
71.155296 63.532463 -0.59771693
72.059998 63.473351 -0.45014605
73.127037 63.403629 -0.25544435
72.940117 63.41584 0
73.033463 63.409744 0.25282544
64 64 -0
70.751144 63.567062 -0.93322289
72.257805 63.470444 -0.9165538
71.155853 63.541111 -0.59771693
72.070938 63.48243 -0.45072207
73.148499 63.413326 -0.25602493
72.987556 63.423649 0
73.044556 63.419991 0.25311598
64 64 -0
70.77169 63.573963 -0.93599153
72.243217 63.48138 -0.9148646
71.146164 63.5504 -0.59686184
72.081894 63.491531 -0.45129919
73.14402 63.424706 -0.25587991
72.993462 63.434181 0
73.04007 63.431248 0.25297099
64 64 -0
70.762192 63.58276 -0.93460858
72.259064 63.490402 -0.9165538
71.146706 63.559036 -0.59686184
72.097977 63.50034 -0.45216325
73.160271 63.434795 -0.25631547
72.978546 63.446011 0
73.040749 63.442169 0.25297099
64 64 -0
70.762695 63.590931 -0.93460858
72.244446 63.501305 -0.9148646
71.14209 63.567982 -0.59643263
72.093414 63.510437 -0.45187524
73.124634 63.448063 -0.25529936
72.994797 63.455914 0
73.056961 63.452156 0.25340599
64 64 -0
70.723114 63.601479 -0.92907125
72.219688 63.512768 -0.91205072
71.142609 63.576614 -0.59643263
72.073349 63.521442 -0.45072207
73.135681 63.458473 -0.2555899
72.979858 63.467709 0
73.057617 63.4631 0.25340599
64 64 -0
70.688522 63.611641 -0.92422545
72.230423 63.52211 -0.91317755
71.137993 63.585541 -0.59600508
72.073921 63.531197 -0.45072207
73.151878 63.468609 -0.25602493
72.959709 63.479767 0
73.068649 63.473442 0.25369656
64 64 -0
70.709023 63.618584 -0.92699409
72.236069 63.531769 -0.91373992
71.12825 63.594749 -0.59514993
72.084816 63.540367 -0.45129919
73.162903 63.479076 -0.25631547
72.92395 63.492661 0
73.069275 63.484398 0.25369656
64 64 -0
70.719505 63.626133 -0.92837977
72.226471 63.542286 -0.91261303
71.144096 63.602509 -0.59643263
72.06987 63.550999 -0.45043406
73.173889 63.489571 -0.25660548
72.857002 63.507202 0
73.064713 63.495647 0.25355154
64 64 -0
70.885262 63.625252 -0.95121777
72.227013 63.552227 -0.91261303
71.13945 63.61142 -0.59600508
72.096222 63.559345 -0.45187524
73.164131 63.501221 -0.25631547
72.867996 63.517338 0
73.070496 63.506317 0.25369656
64 64 -0
70.81057 63.637573 -0.94083732
72.237709 63.561626 -0.91373992
71.155304 63.619228 -0.59728938
72.132919 63.567204 -0.45389357
73.164726 63.512295 -0.25631547
72.826988 63.530266 0
73.060699 63.51783 0.25340599
64 64 -0
70.916222 63.640327 -0.9553721
72.238235 63.571579 -0.91373992
71.155754 63.627872 -0.59728938
72.174759 63.574879 -0.45619988
73.191254 63.522018 -0.25704104
72.837936 63.540394 0
73.066475 63.528507 0.25355154
64 64 -0
70.791382 63.655048 -0.93806869
72.248886 63.58102 -0.9148646
71.176712 63.635479 -0.59900123
72.314743 63.577675 -0.46398297
73.186638 63.53339 -0.25689602
72.843697 63.550808 0
73.061836 63.539726 0.25340599
64 64 -0
70.646469 63.67046 -0.91799664
72.254471 63.590733 -0.91542912
71.182266 63.643894 -0.59942883
72.604561 63.573376 -0.48012623
73.182007 63.544746 -0.25675103
72.880615 63.559689 0
73.072777 63.550163 0.25369656
64 64 -0
70.681747 63.67276 -0.92284244
72.269936 63.594975 -0.91711611
71.156845 63.64949 -0.59728938
72.671982 63.575287 -0.48387375
73.182281 63.550293 -0.25675103
72.865273 63.565819 0
73.073044 63.555645 0.25369656
64 64 -0
70.717209 63.679157 -0.92768562
72.229805 63.606911 -0.91261303
71.193169 63.656422 -0.60028559
71.530624 63.640305 -0.42016473
71.464684 63.643456 -0.20871195
72.886589 63.575539 0
73.073578 63.566608 0.25369656
64 64 -0
70.802795 63.683308 -0.93945169
72.230278 63.616852 -0.91261303
71.183311 63.665592 -0.59942883
71.556885 63.648201 -0.42160591
71.563744 63.647884 -0.21146975
72.933907 63.584099 0
73.079277 63.577328 0.25384155
64 64 -0
70.657837 63.698116 -0.91938233
72.215515 63.627487 -0.91092604
71.16832 63.674973 -0.59814447
71.562469 63.657101 -0.42189392
71.574539 63.656551 -0.21175975
72.970779 63.593243 0
73.105736 63.587124 0.25456712
64 64 -0
70.703308 63.70417 -0.92561114
72.231178 63.636745 -0.91261303
71.173851 63.683407 -0.59857368
71.562881 63.666237 -0.42189392
71.569763 63.665932 -0.21161474
73.00248 63.602703 0
73.090645 63.598812 0.25413156
64 64 -0
70.613419 63.716145 -0.91315085
72.201157 63.647995 -0.90923685
71.210121 63.690533 -0.60156822
71.552948 63.675819 -0.42131791
71.544205 63.676193 -0.21088919
73.002953 63.613583 0
73.08075 63.610245 0.25384155
64 64 -0
70.854385 63.7141 -0.94637465
72.20665 63.657696 -0.90979916
71.184845 63.700314 -0.59942883
71.568848 63.684299 -0.42218307
71.529007 63.685959 -0.21045363
72.998199 63.62468 0
73.091591 63.620785 0.25413156
64 64 -0
64 64 -0
72.247681 63.665966 -0.91430223
71.185204 63.708996 -0.59942883
71.553711 63.694073 -0.42131791
71.544968 63.694427 -0.21088919
73.102661 63.63134 0
73.092041 63.631771 0.25413156
64 64 -0
64 64 -0
72.222694 63.676929 -0.91148835
71.20607 63.716873 -0.60114068
71.559242 63.702995 -0.42160591
71.534935 63.703953 -0.21059863
73.129097 63.641315 0
73.092484 63.642754 0.25413156
64 64 -0
64 64 -0
72.263702 63.685318 -0.91599143
71.196152 63.725971 -0.60028559
71.564758 63.711933 -0.42189392
71.530098 63.713253 -0.21045363
73.113937 63.652943 0
73.087715 63.653938 0.25398654
64 64 -0
64 64 -0
72.26915 63.695118 -0.9165538
71.211861 63.7341 -0.60156822
71.565102 63.721073 -0.42189392
71.530441 63.722351 -0.21045363
73.119545 63.663761 0
73.093315 63.66473 0.25413156
64 64 -0
64 64 -0
72.279678 63.704746 -0.91768062
71.19165 63.743546 -0.59985638
71.575783 63.729847 -0.42247108
71.535957 63.731266 -0.21059863
73.130341 63.674412 0
73.093719 63.675716 0.25413156
64 64 -0
64 64 -0
72.234306 63.716324 -0.91261303
71.171432 63.752941 -0.59814447
71.56575 63.739357 -0.42189392
71.525894 63.74073 -0.21030863
73.141136 63.685085 0
73.094101 63.686707 0.25413156
64 64 -0
64 64 -0
72.183861 63.727962 -0.90698528
71.176872 63.761436 -0.59857368
71.571243 63.748325 -0.42218307
71.521019 63.749996 -0.21016364
80.502121 63.451458 0
73.120461 63.696831 0.25485766
64 64 -0
64 64 -0
72.229889 63.736389 -0.91205072
71.233582 63.768299 -0.60328013
71.587044 63.756981 -0.4230471
71.510918 63.759418 -0.20987308
80.487183 63.471897 0
77.660332 63.562447 0.3817026
64 64 -0
64 64 -0
72.265762 63.745235 -0.91599143
71.213333 63.777676 -0.60156822
71.582161 63.766308 -0.42275909
71.526787 63.768013 -0.21030863
80.461807 63.492622 0
77.629692 63.57991 0.38083205
64 64 -0
64 64 -0
72.205109 63.75703 -0.90923685
71.228996 63.785934 -0.60285252
71.603127 63.774857 -0.42391226
71.542648 63.776646 -0.21074419
80.446793 63.512974 0
77.65097 63.595764 0.3814126
64 64 -0
64 64 -0
72.225723 63.766365 -0.91148835
71.218979 63.79496 -0.60199577
71.634422 63.783161 -0.42564255
71.542915 63.785759 -0.21074419
80.442169 63.532997 0
77.625481 63.612999 0.38068703
64 64 -0
64 64 -0
72.205673 63.776859 -0.90923685
71.178177 63.804798 -0.59857368
71.639847 63.792244 -0.42593059
71.543167 63.794876 -0.21074419
80.432304 63.553146 0
77.625938 63.629463 0.38068703
64 64 -0
64 64 -0
72.246582 63.785717 -0.91373992
71.234848 63.812008 -0.60328013
71.609055 63.802284 -0.42420027
71.548599 63.803856 -0.21088919
80.412018 63.573544 0
77.626373 63.645927 0.38068703
64 64 -0
64 64 -0
72.211266 63.796562 -0.90979916
71.224815 63.821003 -0.60242498
71.619644 63.811222 -0.42477742
71.554024 63.812847 -0.21103419
80.443756 63.592602 0
77.600822 63.663036 0.37996149
64 64 -0
64 64 -0
72.24707 63.805649 -0.91373992
71.24041 63.829369 -0.60370767
71.619865 63.820427 -0.42477742
71.528275 63.822586 -0.21030863
80.38179 63.613941 0
77.637573 63.678612 0.38097703
64 64 -0
64 64 -0
72.267624 63.815159 -0.91599143
71.220085 63.838577 -0.60199577
71.640762 63.829174 -0.42593059
71.554451 63.8311 -0.21103419
80.371826 63.633968 0
77.62236 63.695438 0.38054147
64 64 -0
64 64 -0
72.196617 63.821701 -0.90811211
71.194519 63.843498 -0.59985638
71.646034 63.833675 -0.4262186
71.544174 63.835892 -0.21074419
72.311836 63.819195 0
77.601776 63.704121 0.37996149
64 64 -0
64 64 -0
72.227303 63.830978 -0.91148835
71.199852 63.852085 -0.60028559
71.646225 63.842915 -0.4262186
71.513184 63.84565 -0.20987308
72.254799 63.830414 0
77.602127 63.720558 0.37996149
64 64 -0
64 64 -0
72.242744 63.840626 -0.91317755
71.215408 63.860489 -0.60156822
71.646408 63.852154 -0.4262186
71.565331 63.853722 -0.21132475
72.228981 63.840889 0
77.612831 63.736794 0.38025147
64 64 -0
64 64 -0
72.197212 63.851414 -0.90811211
71.184784 63.869766 -0.59900123
71.646584 63.861393 -0.4262186
71.549911 63.863148 -0.21088919
80.409668 63.702549 0
77.62352 63.753052 0.38054147
64 64 -0
64 64 -0
72.21769 63.860973 -0.91036153
71.236259 63.877579 -0.60328013
71.626053 63.870983 -0.42506543
71.539665 63.872444 -0.21059863
80.441223 63.721848 0
77.603043 63.769867 0.37996149
64 64 -0
64 64 -0
72.258499 63.870266 -0.9148646
71.210739 63.886726 -0.60114068
71.641731 63.879955 -0.42593059
71.519028 63.881882 -0.21001807
80.451973 63.74155 0
77.634483 63.785812 0.38083205
64 64 -0
64 64 -0
72.253571 63.880318 -0.91430223
71.246811 63.894917 -0.60413688
71.67289 63.888737 -0.42765978
71.519165 63.890968 -0.21001807
80.441849 63.761581 0
77.645111 63.802135 0.38112205
64 64 -0
64 64 -0
72.233383 63.89056 -0.91205072
71.226395 63.903946 -0.60242498
71.931641 63.894573 -0.44207385
71.415382 63.901432 -0.20711584
80.426529 63.781658 0
77.733681 63.817451 0.38358927
64 64 -0
64 64 -0
72.233513 63.900509 -0.91205072
71.231636 63.912617 -0.60285252
72.236923 63.900467 -0.45908228
71.373924 63.910896 -0.20595473
80.431976 63.801441 0
77.848221 63.832664 0.38678262
64 64 -0
64 64 -0
72.264122 63.910126 -0.91542912
71.211205 63.921577 -0.60114068
72.174973 63.911095 -0.45562276
71.384415 63.919693 -0.20624472
80.42701 63.821354 0
80.337448 63.822327 0.45630068
64 64 -0
64 64 -0
72.228653 63.920456 -0.91148835
71.216423 63.930241 -0.60156822
72.216454 63.920574 -0.4579291
71.374123 63.928715 -0.20595473
80.44281 63.841053 0
80.30648 63.842369 0.45543009
64 64 -0
64 64 -0
72.213493 63.930527 -0.90979916
71.216499 63.938961 -0.60156822
72.195854 63.930676 -0.45677593
71.400177 63.937408 -0.20668028
77.606514 63.884911 0
80.275467 63.862335 0.454559
64 64 -0
64 64 -0
72.233894 63.940304 -0.91205072
71.226845 63.947605 -0.60242498
72.185593 63.940655 -0.45619988
71.348289 63.946724 -0.20522916
77.585846 63.901505 0
80.213257 63.882454 0.45281732
64 64 -0
64 64 -0
72.203484 63.950439 -0.90867448
71.201241 63.956493 -0.60028559
72.175301 63.950607 -0.45562276
71.348351 63.955605 -0.20522916
77.601555 63.917824 0
80.119858 63.902611 0.45020509
64 64 -0
64 64 -0
72.23909 63.960178 -0.91261303
71.175598 63.965317 -0.59814447
72.165024 63.960537 -0.45504674
71.35878 63.964432 -0.20551917
77.612061 63.934208 0
79.834152 63.92347 0.44222283
64 64 -0
64 64 -0
72.244232 63.970116 -0.91317755
71.247528 63.973728 -0.60413688
72.113327 63.970589 -0.45216325
71.379608 63.973248 -0.20609973
77.617332 63.950638 0
79.699127 63.943092 0.43844947
64 64 -0
64 64 -0
72.239166 63.980087 -0.91261303
71.216736 63.982559 -0.60156822
72.025421 63.980606 -0.44726256
71.358849 63.982216 -0.20551917
77.627777 63.967068 0
79.569267 63.962376 0.43482113
64 64 -0
64 64 -0
72.259514 63.990021 -0.9148646
71.268105 63.991219 -0.60584873
71.875427 63.990482 -0.43890235
71.358864 63.991108 -0.20551917
77.591393 63.983578 0
79.64724 63.981094 0.4369978
64 64 -0
64 64 -0
72.274765 64 -0.9165538
71.268112 64 -0.60584873
71.870262 64 -0.43861434
71.343277 64 -0.20508361
77.617416 64 0
79.766785 64 0.44033617
64 64 -0
64 64 -0
72.239182 64.009956 -0.91261303
71.298897 64.00882 -0.60841572
72.009933 64.009682 -0.4463985
71.338074 64.008865 -0.20493861
77.622612 64.016457 0
79.979843 64.01931 0.44628674
64 64 -0
64 64 -0
72.218842 64.019859 -0.91036153
71.273216 64.017578 -0.60627627
72.10302 64.019585 -0.45158723
71.338058 64.017731 -0.20493861
77.638199 64.032959 0
80.094124 64.038895 0.44947952
64 64 -0
64 64 -0
72.239136 64.029869 -0.91261303
71.273193 64.026367 -0.60627627
