# .PCD v0.7 - Point Cloud Data file format
VERSION 0.7
FIELDS x y z
SIZE 4 4 4
TYPE F F F
COUNT 1 1 1
WIDTH 1622
HEIGHT 1
VIEWPOINT 0 0 0 1 0 0 0
POINTS 1622
DATA ascii
55.071762 61.365112 -0.77596509
53.462387 60.890156 -0.61230761
52.643173 60.648392 -0.33069828
51.630745 60.349602 0
49.981873 59.862991 0.40819243
58.38229 62.334728 -0.96600246
57.218025 61.989601 -0.97580314
56.404964 61.748585 -0.87744707
55.074955 61.354324 -0.77596509
53.466152 60.877422 -0.61230761
52.647232 60.63467 -0.33069828
51.6651 60.343533 0
49.991879 59.847538 0.40804687
58.40799 62.334991 -0.96192843
57.331051 62.014336 -0.95988542
56.422306 61.743759 -0.87575787
55.078156 61.343544 -0.77596509
53.464977 60.863224 -0.61259562
52.646332 60.619473 -0.33084327
51.654556 60.324173 0
49.952065 59.817261 0.40935355
58.438412 62.336731 -0.95704019
57.28059 61.990471 -0.96749723
56.415291 61.731689 -0.87688476
55.076462 61.331295 -0.77639264
53.468777 60.850494 -0.61259562
52.655399 60.607246 -0.33069828
51.654022 60.30777 0
49.972073 59.80476 0.40891799
58.402569 62.318642 -0.96355677
57.326267 61.995342 -0.96126842
56.466717 61.737152 -0.8712548
55.069866 61.317566 -0.77724779
53.462669 60.834793 -0.61317277
52.659508 60.59354 -0.33069828
51.678432 60.298843 0
49.97715 59.787811 0.40891799
58.432991 62.320442 -0.95866853
57.347908 61.993076 -0.95849979
56.420795 61.713367 -0.87688476
55.087845 61.311218 -0.77596509
53.461555 60.820572 -0.61346078
52.663631 60.579838 -0.33069828
51.672958 60.280956 0
49.957378 59.763367 0.40964356
58.482323 62.328053 -0.95052046
57.273506 61.961758 -0.96957433
56.404129 61.698322 -0.87913412
55.066536 61.293011 -0.77810454
53.470352 60.809338 -0.61317277
52.662804 60.56464 -0.33084327
51.662514 60.261532 0
49.952572 59.743393 0.40993354
58.366127 62.285404 -0.9708938
57.295174 61.959476 -0.9668057
56.406914 61.689148 -0.87913412
55.074722 61.28371 -0.777677
53.474213 60.796619 -0.61317277
52.691818 60.558506 -0.3301177
51.667038 60.246628 0
49.972626 59.730957 0.40949854
58.44384 62.30172 -0.95785433
57.345619 61.966042 -0.95988542
56.424278 61.684425 -0.87744707
55.082935 61.274433 -0.77724779
53.468208 60.78088 -0.61374879
52.686035 60.541805 -0.33040828
51.681526 60.234768 0
49.992706 59.718571 0.40906298
58.355076 62.270859 -0.97333634
57.337265 61.959084 -0.96126842
56.440262 61.684315 -0.87575787
55.104218 61.275063 -0.77553588
53.484997 60.779064 -0.61288363
52.683159 60.533447 -0.33055326
51.678833 60.225803 0
49.985352 59.707062 0.40935355
58.385509 62.272758 -0.9684481
57.339737 61.951035 -0.96126842
56.409058 61.664722 -0.87969863
55.122227 61.268841 -0.77425325
53.488899 60.766361 -0.61288363
52.672451 60.51519 -0.33098882
51.693363 60.213985 0
49.950829 59.67791 0.41051412
58.486778 62.296616 -0.95133466
57.347008 61.944469 -0.96057689
56.455578 61.669052 -0.87463319
55.135353 61.26115 -0.77339649
53.502686 60.756714 -0.61230761
52.67667 60.501507 -0.33098882
51.727776 60.208332 0
49.931221 59.653263 0.41124022
58.446354 62.276772 -0.95866853
57.315964 61.926025 -0.96542007
56.395309 61.640362 -0.88195014
55.153366 61.255001 -0.7721138
53.496742 60.740971 -0.61288363
52.67099 60.484749 -0.33127883
51.841721 60.22744 0
49.876942 59.61779 0.41298133
58.434277 62.265652 -0.96111423
57.265778 61.901531 -0.9730345
56.436981 61.643269 -0.87744707
55.132183 61.236675 -0.77425325
53.480934 60.722126 -0.6140368
52.695091 60.477249 -0.33069828
51.955605 60.246815 0
49.867355 59.596092 0.41341689
58.426952 62.255978 -0.96274257
57.287472 61.899391 -0.97026587
56.405899 61.623512 -0.88138562
55.174728 61.238232 -0.7708295
53.479969 60.707874 -0.61432481
52.684471 60.458931 -0.33113384
51.989964 60.241592 0
49.892529 59.585224 0.41283634
58.372471 62.231461 -0.97252214
57.376163 61.918354 -0.95780826
56.476639 61.635666 -0.87350637
55.148693 61.218338 -0.77339649
53.488884 60.696716 -0.6140368
52.69371 60.446819 -0.33098882
51.999474 60.228645 0
49.84333 59.551041 0.414433
58.398178 62.232098 -0.9684481
57.359547 61.904312 -0.96057689
56.440731 61.614342 -0.87800944
55.112892 61.195282 -0.77682024
53.483009 60.680901 -0.61461395
52.702984 60.434731 -0.33084327
52.023895 60.220413 0
46.305397 58.415688 0.5182023
58.390903 62.222347 -0.9700765
57.352524 61.893261 -0.9619599
56.4533 61.608276 -0.87688476
55.106491 61.181442 -0.777677
53.491974 60.669762 -0.61432481
52.717197 60.424217 -0.33055326
52.018555 60.202801 0
46.312157 58.394314 0.5182023
58.487247 62.245548 -0.95378029
57.369408 61.88979 -0.95988542
56.470726 61.603783 -0.87519556
55.139267 61.180042 -0.77510834
53.505852 60.660202 -0.61374879
52.711632 60.40744 -0.33084327
52.033062 60.191483 0
46.318947 58.372944 0.5182023
58.376381 62.202778 -0.97333634
57.27639 61.851238 -0.97372597
56.468792 61.593143 -0.87575787
55.132889 61.166206 -0.77596509
53.51482 60.649097 -0.61346078
52.70607 60.390636 -0.33113384
52.037674 60.177025 0
46.320808 58.350006 0.51834732
58.524452 62.242805 -0.94807476
57.350643 61.866108 -0.96334559
56.486225 61.588703 -0.87406868
55.155876 61.16177 -0.77425325
53.509033 60.633274 -0.6140368
52.690647 60.37064 -0.33171439
52.032398 60.159397 0
46.327652 58.328648 0.51834732
58.404263 62.196774 -0.9692623
57.300705 61.841152 -0.97095734
56.469799 61.573391 -0.87632024
55.144665 61.146366 -0.77553588
53.503254 60.617424 -0.61461395
52.729671 60.368137 -0.33069828
52.056866 60.151325 0
46.334518 58.307297 0.51834732
58.495789 62.218925 -0.95378029
57.379684 61.857769 -0.95988542
56.467888 61.562725 -0.87688476
55.157879 61.138828 -0.77468079
53.497513 60.601559 -0.61518997
52.724167 60.351318 -0.33098882
52.066471 60.138496 0
46.361183 58.292355 0.51776671
58.360527 62.171391 -0.97741038
57.285538 61.822823 -0.97372597
56.450043 61.55191 -0.87913412
55.144951 61.128735 -0.77596509
53.504486 60.596809 -0.61490196
52.70166 60.336494 -0.33171439
52.078697 60.134495 0
46.399227 58.292915 0.51675117
58.480225 62.202827 -0.95704019
57.378811 61.844223 -0.96057689
56.467487 61.547508 -0.87744707
55.133797 61.113274 -0.77724779
53.498775 60.580929 -0.61547798
52.711033 60.324451 -0.33156937
52.068542 60.115265 0
46.668037 58.356926 0.50905895
58.440121 62.182339 -0.96437407
57.305115 61.811275 -0.97165149
56.480125 61.541569 -0.87632024
55.122646 61.097775 -0.77853209
53.512741 60.571457 -0.61490196
52.725372 60.314045 -0.33127883
52.068287 60.099228 0
47.415764 58.578201 0.4872894
58.493988 62.192581 -0.95540869
57.384041 61.828228 -0.96057689
56.454124 61.522972 -0.87969863
55.101776 61.079044 -0.78067154
53.516891 60.558784 -0.61490196
52.729836 60.300426 -0.33127883
52.077969 60.086441 0
47.506264 58.58572 0.48482218
58.449238 62.17046 -0.96355677
57.319962 61.798248 -0.97026587
56.481251 61.521809 -0.87688476
55.149193 61.08276 -0.77682024
53.525963 60.547741 -0.61461395
52.72443 60.283554 -0.33156937
52.087643 60.073666 0
47.483212 58.556038 0.48569274
58.479599 62.173069 -0.95866853
57.40836 61.81855 -0.95780826
56.455315 61.503147 -0.88026094
55.118599 61.060772 -0.77981639
53.515423 60.530216 -0.61547798
52.728931 60.269932 -0.33156937
52.08746 60.057644 0
47.563812 58.560577 0.4835155
58.500576 62.172634 -0.95540869
57.391953 61.80426 -0.96057689
56.477627 61.500443 -0.87800944
55.151398 61.059761 -0.77724779
53.529434 60.520809 -0.61490196
52.718666 60.251404 -0.3320044
52.06752 60.035042 0
48.236153 58.76194 0.46392265
58.488716 62.161297 -0.95785433
57.356537 61.783573 -0.96611422
56.499931 61.497787 -0.87575787
55.150074 61.04744 -0.777677
53.523842 60.50489 -0.61547798
52.737976 60.242706 -0.33156937
52.057522 60.015686 0
48.410095 58.798813 0.45898819
58.406578 62.126381 -0.97252214
57.359219 61.775547 -0.96611422
56.488503 61.483883 -0.87744707
55.139057 61.031864 -0.77895963
53.54277 60.497158 -0.61461395
52.747467 60.230755 -0.33142382
52.062344 60.001259 0
48.436104 58.786583 0.45840761
58.528206 62.152401 -0.9521488
57.416908 61.777164 -0.95849979
56.499413 61.467361 -0.87688476
55.141376 61.008812 -0.77938884
53.536579 60.466938 -0.61547798
52.78614 60.213547 -0.33055326
51.95369 59.932461 0
64 64 0
58.446182 62.117226 -0.9668166
57.362579 61.749878 -0.9668057
56.497673 61.456673 -0.87744707
55.183899 61.011295 -0.77596509
53.54575 60.455956 -0.61518997
52.913765 60.241711 -0.32692492
51.731865 59.841042 0
48.420647 58.718517 0.45942375
58.528011 62.137592 -0.95296299
57.417557 61.759647 -0.95919126
56.505558 61.449245 -0.87688476
55.163216 60.992374 -0.77810454
53.530449 60.436661 -0.61634314
53.361065 60.379009 -0.31386322
51.786167 59.842987 0
48.412273 58.694672 0.45985931
58.44606 62.102207 -0.96763396
57.387028 61.740337 -0.96403706
56.508644 61.440189 -0.87688476
55.15715 60.978382 -0.77895963
53.554344 60.430702 -0.61518997
53.44413 60.393044 -0.31154096
51.889706 59.861893 0
48.433453 58.680885 0.45942375
58.476418 62.105125 -0.96274257
57.385021 61.730721 -0.96472853
56.516563 61.432796 -0.87632024
55.151085 60.964367 -0.77981639
53.563553 60.419762 -0.61490196
53.468159 60.387035 -0.31096041
51.973488 59.874287 0
48.439892 58.662079 0.45942375
58.384071 62.069653 -0.97904187
57.419594 61.738136 -0.95988542
56.489273 61.418358 -0.87969863
55.191765 60.97237 -0.77639264
53.551037 60.408409 -0.61576712
53.485092 60.385742 -0.31052485
52.020279 59.882248 0
48.418552 58.644234 0.46014929
58.437813 62.080608 -0.9700765
57.42709 61.731831 -0.95919126
56.511612 61.415916 -0.87744707
55.180862 60.956703 -0.777677
53.560287 60.39748 -0.61547798
53.489468 60.373039 -0.31052485
52.025265 59.867775 0
48.425034 58.625412 0.46014929
58.440136 62.073887 -0.9700765
57.396645 61.712391 -0.96403706
56.538742 61.415188 -0.87463319
55.189415 60.947735 -0.77724779
53.545097 60.378094 -0.61663115
53.474216 60.353539 -0.31110543
52.045025 59.858421 0
48.475731 58.621906 0.45884317
58.489147 62.083405 -0.96192843
57.309383 61.673103 -0.97718614
56.522675 61.399494 -0.87688476
55.183399 60.933716 -0.77810454
53.54948 60.365463 -0.61663115
53.47863 60.34082 -0.31110543
52.069702 59.850819 0
48.536221 58.621925 0.45724708
58.486805 62.075119 -0.96274257
57.440086 61.709671 -0.95849979
56.506649 61.38377 -0.87913412
55.211342 60.931526 -0.77596509
53.553879 60.352837 -0.61663115
53.463432 60.321259 -0.31168598
52.079636 59.83812 0
48.64576 58.639214 0.45419928
58.470474 62.06192 -0.96600246
57.43338 61.698421 -0.95988542
56.514606 61.376396 -0.87857175
55.195675 60.914116 -0.777677
53.538769 60.333374 -0.61778432
53.487503 60.315407 -0.31110543
52.089577 59.825439 0
48.78957 58.668797 0.45013538
58.50079 62.065083 -0.96111423
57.417252 61.683834 -0.96265143
56.536957 61.3741 -0.87632024
55.194572 60.901775 -0.77810454
53.4944 60.303566 -0.62066782
53.487064 60.300983 -0.31125042
52.138817 59.826599 0
51.732353 59.683582 0.36320114
58.475174 62.048565 -0.96600246
57.457886 61.689243 -0.95711678
56.511375 61.354927 -0.87969863
55.154758 60.875751 -0.78195584
53.303787 60.221966 -0.63219839
53.481731 60.284821 -0.31154096
52.143867 59.812267 0
52.149178 59.814144 0.35100999
58.519463 62.056755 -0.95866853
57.451233 61.67799 -0.95849979
56.519379 61.347584 -0.87913412
55.14402 60.859917 -0.78324014
52.469803 59.911716 -0.68178248
53.505821 60.27906 -0.31096041
52.129314 59.790989 0
52.325665 59.860607 0.34593052
58.568375 62.066708 -0.95052046
57.439857 61.665031 -0.96057689
56.522591 61.338547 -0.87913412
55.113976 60.837173 -0.78623468
52.455254 59.890846 -0.68293566
53.520107 60.269863 -0.31067041
52.154022 59.78363 0
52.360039 59.856956 0.34505996
58.510204 62.038525 -0.96111423
57.395443 61.640228 -0.96749723
56.530594 61.331223 -0.87857175
55.132294 60.831615 -0.78495198
52.45536 59.875164 -0.68322366
53.519733 60.255455 -0.31081542
52.159126 59.769318 0
64 64 0
58.549801 62.045242 -0.95459449
57.464413 61.65596 -0.95780826
56.548161 61.327339 -0.87688476
55.131302 60.819172 -0.78537959
52.470085 59.864704 -0.68264765
53.524265 60.242798 -0.31081542
52.149563 59.749748 0
52.326065 59.813053 0.34636608
58.459148 62.005173 -0.9708938
57.467247 61.648064 -0.95780826
56.560966 61.321785 -0.87575787
55.144821 60.811939 -0.78452283
52.489697 59.856033 -0.68178248
53.533699 60.231899 -0.31067041
52.149796 59.733665 0
52.360481 59.809517 0.34549496
58.498756 62.011917 -0.96437407
57.465382 61.63847 -0.95849979
56.535542 61.302437 -0.87913412
55.129364 60.794262 -0.78623468
52.582272 59.873775 -0.67659378
53.528492 60.215725 -0.31096041
52.154961 59.719349 0
52.370434 59.797218 0.34534997
58.53714 62.022057 -0.95785433
57.48568 61.641354 -0.95573109
64 64 -0
55.155437 60.797642 -0.78409523
53.110054 60.057068 -0.64545929
53.545444 60.21471 -0.31052485
52.177124 59.71928 0
52.377857 59.791962 0.34520498
58.553478 62.020527 -0.95540869
57.502686 61.63863 -0.95365399
56.535652 61.28717 -0.87969863
55.164131 60.788708 -0.78366768
53.304424 60.11282 -0.63421673
53.545128 60.200302 -0.31067041
52.167641 59.699669 0
52.38295 59.77792 0.34520498
58.48621 61.988533 -0.96763396
57.430126 61.603268 -0.96472853
56.515072 61.269447 -0.88251251
55.153545 60.772755 -0.78495198
53.338299 60.110538 -0.6324864
53.549728 60.187672 -0.31067041
52.143501 59.674667 0
52.397816 59.767445 0.34491497
58.544346 62.00227 -0.95785433
57.465996 61.607403 -0.95988542
56.542229 61.269142 -0.87969863
55.14782 60.758541 -0.78580713
53.367287 60.106552 -0.63104522
53.539715 60.169689 -0.31110543
52.138969 59.656769 0
52.368793 59.740925 0.34593052
58.518936 61.985451 -0.96274257
57.483025 61.604702 -0.95780826
56.545536 61.260132 -0.87969863
55.156555 60.749615 -0.78537959
53.396271 60.102627 -0.62960404
53.54435 60.157055 -0.31110543
52.075821 59.617298 0
52.408077 59.739418 0.34491497
58.53064 61.982246 -0.96111423
57.448265 61.582935 -0.96334559
56.56316 61.256405 -0.87800944
55.18457 60.747814 -0.78324014
53.434967 60.102352 -0.62758571
53.558746 60.148018 -0.31081542
51.885811 59.530838 0
52.403492 59.721821 0.34520498
58.514538 61.968773 -0.96437407
57.498249 61.592449 -0.95642263
56.556957 61.243896 -0.87913412
55.174076 60.731823 -0.78452283
53.454224 60.094975 -0.62672168
53.558537 60.133602 -0.31096041
51.744797 59.461987 0
52.389175 59.700596 0.34578553
58.498463 61.955257 -0.96763396
57.491749 61.581097 -0.95780826
56.536461 61.226048 -0.88195014
55.173203 60.719368 -0.78495198
53.483208 60.091251 -0.62527937
53.563217 60.120987 -0.31096041
51.569771 59.380089 0
52.394379 59.686569 0.34578553
58.528736 61.958981 -0.96274257
57.480568 61.56797 -0.95988542
56.582668 61.233013 -0.87688476
55.196415 60.715881 -0.78324014
53.487938 60.078545 -0.62527937
53.543571 60.0993 -0.31168598
51.550987 59.35598 0
52.423943 59.681629 0.34505996
58.572865 61.967972 -0.95540869
57.502308 61.567131 -0.95711678
56.586018 61.224052 -0.87688476
55.185982 60.699852 -0.78452283
53.507202 60.071285 -0.62441534
53.56776 60.093956 -0.31110543
51.741829 59.41029 0
52.297775 59.618446 0.34897831
58.533684 61.945766 -0.96274257
57.467697 61.54517 -0.96265143
56.565594 61.206161 -0.87969863
55.17075 60.68198 -0.78623468
53.497444 60.053154 -0.62527937
53.533569 60.06673 -0.31226653
51.878922 59.444916 0
48.902813 58.326496 0.45042536
58.577793 61.954861 -0.95540869
57.545765 61.565601 -0.95157951
56.549957 61.190006 -0.88195014
55.174767 60.671314 -0.78623468
53.50222 60.040466 -0.62527937
53.528595 60.050415 -0.3125571
51.96722 59.461498 0
49.070118 58.368774 0.44563645
58.561775 61.941311 -0.95866853
57.483025 61.53294 -0.96126842
56.572369 61.188202 -0.87969863
55.173981 60.658829 -0.78666389
53.516682 60.031445 -0.62470335
53.53825 60.039608 -0.31241155
51.992188 59.454334 0
49.149841 58.378338 0.44345924
58.536549 61.92421 -0.96355677
57.509457 61.533974 -0.95780826
56.575771 61.17923 -0.87969863
55.178024 60.648167 -0.78666389
53.535995 60.024292 -0.62383819
53.567329 60.036198 -0.31168598
51.929577 59.413948 0
49.200363 58.37701 0.44215313
58.566765 61.928173 -0.95866853
57.521828 61.529713 -0.95642263
56.569698 61.166645 -0.88082331
55.18689 60.639343 -0.78623468
53.511795 60.000591 -0.62556851
53.581825 60.027294 -0.31139597
51.954582 59.406784 0
52.751755 59.71077 0.33620659
58.554161 61.919598 -0.96111423
57.528004 61.527588 -0.95573109
56.585655 61.167599 -0.87913412
55.208107 60.64135 -0.78452283
53.533546 60.00164 -0.62441534
53.623066 60.035839 -0.31023484
51.918461 59.384651 0
52.832005 59.733639 0.33388492
58.547455 61.909485 -0.96274257
57.526314 61.517975 -0.95642263
56.603306 61.164093 -0.87744707
55.221748 60.634399 -0.78366768
53.523907 59.983444 -0.62527937
53.632713 60.025162 -0.31008986
51.962925 59.38496 0
64 64 0
58.582268 61.915318 -0.95704019
57.538673 61.513756 -0.95503962
56.597263 61.151512 -0.87857175
55.235397 60.62748 -0.7828126
53.528767 59.970791 -0.62527937
53.608429 60.001442 -0.31096041
52.007374 59.385376 0
64 64 0
58.552525 61.896313 -0.96274257
57.541683 61.505951 -0.95503962
56.600708 61.142567 -0.87857175
55.244282 60.618748 -0.78238338
53.552948 59.965595 -0.6241262
53.627819 59.994507 -0.31052485
52.046932 59.384007 0
64 64 0
58.591942 61.904022 -0.95622283
57.540028 61.496338 -0.95573109
56.594681 61.129951 -0.87969863
55.224442 60.598896 -0.78452283
53.552994 59.951099 -0.62441534
53.627808 59.980095 -0.31067041
52.028255 59.360165 0
52.881836 59.690983 0.3330138
58.539196 61.875988 -0.96600246
57.524353 61.481258 -0.95849979
56.598156 61.121006 -0.87969863
55.223759 60.58643 -0.78495198
53.567543 59.942234 -0.62383819
53.642365 59.971336 -0.31037986
51.980526 59.324951 0
52.877357 59.673782 0.33330438
58.601624 61.892757 -0.95540869
57.564793 61.488029 -0.95296246
56.606384 61.113918 -0.87913412
55.22789 60.575825 -0.78495198
53.557991 59.923985 -0.62470335
53.627876 59.951263 -0.31096041
51.995872 59.314217 0
52.877754 59.658455 0.33344936
58.567352 61.871811 -0.96192843
57.577168 61.483913 -0.95157951
56.59568 61.099426 -0.88082331
55.217705 60.559616 -0.78623468
53.572567 59.91515 -0.6241262
53.652134 59.94632 -0.31037986
52.020927 59.307308 0
52.883011 59.64502 0.33344936
58.625134 61.886951 -0.9521488
57.566216 61.470654 -0.95365399
56.608639 61.094196 -0.87969863
55.236191 60.554638 -0.78495198
53.601578 59.912014 -0.62268502
53.657036 59.933819 -0.31037986
52.002388 59.283318 0
52.893112 59.633492 0.33330438
58.595497 61.867756 -0.95785433
57.583267 61.468399 -0.95157951
56.612156 61.085266 -0.87969863
55.24036 60.544052 -0.78495198
53.596893 59.895653 -0.62326217
53.657127 59.919418 -0.31052485
51.964527 59.251633 0
52.888737 59.616264 0.33359438
58.593487 61.859409 -0.95866853
57.55835 61.44957 -0.95573109
56.610962 61.074474 -0.88026094
55.249329 60.535366 -0.78452283
53.587444 59.877377 -0.6241262
53.662067 59.906921 -0.31052485
51.950916 59.229431 0
52.927872 59.616234 0.33257824
58.577702 61.845577 -0.96192843
57.552101 61.43808 -0.95711678
56.64283 61.076801 -0.87688476
55.263054 60.52858 -0.78366768
53.59243 59.864799 -0.6241262
53.667023 59.894436 -0.31052485
51.927658 59.203339 0
52.928329 59.600933 0.3327238
58.603264 61.848179 -0.95785433
57.527245 61.419144 -0.96126842
56.627502 61.060394 -0.87913412
55.272022 60.519928 -0.78324014
53.587818 59.848389 -0.62470335
53.662323 59.878098 -0.31081542
51.923798 59.184902 0
52.899879 59.574093 0.33373937
58.592113 61.836159 -0.96029693
57.576942 61.429962 -0.95434815
56.631062 61.051487 -0.87913412
55.285774 60.513203 -0.78238338
53.573631 59.828125 -0.62585652
53.643192 59.855961 -0.31154096
51.948956 59.178051 0
52.813553 59.523998 0.33649716
58.598003 61.834728 -0.95948273
57.578499 61.426079 -0.95434815
56.637558 61.048923 -0.87857175
55.302166 60.513664 -0.78110069
53.547352 59.810284 -0.62758571
53.636059 59.84584 -0.31183097
51.956699 59.172707 0
52.222961 59.27943 0.35434833
58.637314 61.84296 -0.95296299
57.576962 61.416454 -0.95503962
56.636417 61.038136 -0.87913412
55.287331 60.495491 -0.7828126
53.547607 59.795719 -0.62787485
53.631435 59.829437 -0.31212154
51.952892 59.154274 0
51.98761 59.16824 0.36160502
58.639923 61.836483 -0.95296299
57.61731 61.423717 -0.94950235
56.635277 61.027332 -0.87969863
55.282059 60.481125 -0.78366768
53.519131 59.769547 -0.62989205
53.641296 59.818855 -0.31197652
51.949093 59.135822 0
51.983829 59.149841 0.36189502
58.637947 61.828144 -0.95378029
57.592533 61.404709 -0.95365399
56.620033 61.010807 -0.88195014
55.305351 60.478306 -0.78195584
53.53862 59.762707 -0.62902802
53.665623 59.814148 -0.31139597
64 64 0
52.047501 59.158737 0.36015335
58.61311 61.810505 -0.95866853
57.586369 61.393188 -0.95503962
56.656609 61.015285 -0.87800944
55.290588 60.460068 -0.78366768
53.519791 59.74033 -0.6304692
53.661068 59.797752 -0.31168598
51.970535 59.110638 0
52.12075 59.171692 0.35812169
58.624905 61.807728 -0.95704019
57.566299 61.375965 -0.95849979
56.674343 61.012177 -0.87632024
55.285374 60.445675 -0.78452283
53.524948 59.727669 -0.6304692
53.670959 59.787224 -0.31154096
52.072826 59.135414 0
52.256504 59.210327 0.35420334
58.618416 61.797493 -0.95866853
57.601982 61.3815 -0.95365399
56.640331 60.987926 -0.88082331
55.318176 60.446812 -0.78195584
53.5014 59.703262 -0.63219839
53.661625 59.768837 -0.31197652
52.175056 59.160435 0
52.315212 59.217796 0.35260665
58.625648 61.792866 -0.95785433
57.591225 61.36805 -0.95573109
56.662781 60.986759 -0.87857175
55.312965 60.432419 -0.7828126
53.458759 59.670933 -0.63508075
53.671566 59.758331 -0.31183097
52.238689 59.169876 0
52.38829 59.231316 0.350575
58.651169 61.795792 -0.95378029
57.622234 61.371777 -0.95157951
56.675816 60.981762 -0.87744707
55.331528 60.427795 -0.78152829
53.162697 59.534035 -0.65324235
53.657478 59.737934 -0.31241155
52.292648 59.175499 0
52.41328 59.225208 0.34999442
58.621872 61.776112 -0.95948273
57.579056 61.344902 -0.95849979
56.655991 60.963207 -0.88026094
55.340591 60.419285 -0.78110069
52.637489 59.301537 -0.685242
53.662636 59.725441 -0.31241155
52.346596 59.181248 0
52.452682 59.225117 0.34897831
58.629124 61.771507 -0.95866853
57.642513 61.362141 -0.94950235
56.67844 60.962128 -0.87800944
55.340187 60.406857 -0.78152829
52.557182 59.252129 -0.6904307
53.667809 59.712952 -0.31241155
52.381264 59.179134 0
52.458458 59.211166 0.34897831
58.654633 61.774517 -0.95459449
57.61792 61.342896 -0.95365399
56.672741 60.949379 -0.87913412
55.339802 60.394424 -0.78195584
52.539051 59.228363 -0.69187188
53.653809 59.692482 -0.3129921
52.406319 59.173103 0
52.459461 59.195229 0.34912333
58.620834 61.752815 -0.96111423
57.63501 61.340981 -0.95157951
56.690487 60.9464 -0.87744707
55.344162 60.383965 -0.78195584
52.549595 59.216515 -0.69158387
53.659019 59.679981 -0.3129921
64 64 0
52.455673 59.177277 0.34941387
58.650917 61.75779 -0.95622283
57.624359 61.32748 -0.95365399
56.670753 60.92775 -0.88026094
55.353271 60.375488 -0.78152829
52.531532 59.192684 -0.69302505
53.640266 59.65744 -0.3137182
52.461216 59.163208 0
52.46151 59.16333 0.34941387
58.64315 61.750725 -0.95785433
57.616714 61.31974 -0.95503962
56.686672 60.929226 -0.87857175
55.364937 60.374245 -0.78067154
52.548752 59.191765 -0.69215989
53.66206 59.659229 -0.31313765
52.488129 59.166309 0
52.445267 59.148315 0.34999442
58.639503 61.73394 -0.95948273
57.632462 61.308231 -0.95365399
56.698792 60.913536 -0.87800944
55.392639 60.361385 -0.77895963
52.560406 59.164108 -0.69215989
53.672581 59.634258 -0.31313765
52.480667 59.130398 0
52.452244 59.118382 0.35013944
58.651337 61.731323 -0.95785433
57.649563 61.306412 -0.95157951
56.688484 60.898762 -0.87969863
55.42067 60.361008 -0.77682024
52.556725 59.146244 -0.69273704
53.687439 59.625847 -0.31284708
52.491364 59.118523 0
52.458153 59.104435 0.35013944
58.676819 61.734539 -0.95378029
57.620518 61.284992 -0.95642263
56.701599 60.893913 -0.87857175
55.401459 60.340595 -0.77895963
52.548332 59.12635 -0.69360107
53.707085 59.619495 -0.31241155
52.506844 59.108692 0
52.521458 59.114914 0.34839776
58.68412 61.730053 -0.95296299
57.660721 61.293049 -0.9508853
56.700687 60.883102 -0.87913412
55.429489 60.340286 -0.77682024
52.549458 59.110477 -0.69389021
53.736275 59.617264 -0.31168598
52.488831 59.084591 0
52.52737 59.101048 0.34839776
58.636883 61.702217 -0.96192843
57.691658 61.297245 -0.94673371
56.709126 60.876286 -0.87857175
55.410328 60.319828 -0.77895963
52.550625 59.094612 -0.69417822
53.751125 59.608955 -0.31139597
52.485199 59.066582 0
52.538071 59.089233 0.34825274
58.675995 61.711357 -0.95540869
57.70414 61.293583 -0.94535071
56.698895 60.861458 -0.88026094
55.428917 60.315529 -0.777677
52.551811 59.078739 -0.69446623
52.591545 59.095818 -0.34680778
52.476837 59.046509 0
52.53447 59.071285 0.34854275
58.687832 61.708836 -0.95378029
57.684383 61.276043 -0.94881082
56.702694 60.852638 -0.88026094
55.442814 60.309242 -0.77682024
52.54351 59.058762 -0.69533139
52.48772 59.034698 -0.35014611
52.492382 59.036709 0
52.530884 59.053314 0.34883332
58.64978 61.684753 -0.96111423
64 64 -0
56.715839 60.847862 -0.87913412
55.428432 60.290752 -0.77853209
52.554234 59.046974 -0.69504339
52.479416 59.014599 -0.35058168
52.498386 59.022808 0
52.541634 59.041523 0.3486883
58.702461 61.699947 -0.9521488
57.663376 61.248802 -0.95296246
56.71965 60.839062 -0.87913412
55.442329 60.284481 -0.777677
52.579208 59.041389 -0.69389021
52.475922 58.996544 -0.35087168
52.494869 59.004772 0
52.538109 59.023544 0.34897831
58.691643 61.687622 -0.95459449
57.675896 61.245152 -0.95157951
56.718803 60.828232 -0.87969863
55.43742 60.270046 -0.77853209
52.570992 59.0214 -0.69475424
52.477215 58.980553 -0.35101667
52.50568 58.99295 0
52.539368 59.007626 0.34912333
58.730679 61.697048 -0.94807476
57.693027 61.243542 -0.94950235
56.722641 60.819435 -0.87969863
55.446632 60.261757 -0.77810454
52.577019 59.007595 -0.69475424
52.464241 58.958305 -0.35159725
52.492661 58.970726 0
52.554924 58.99794 0.34883332
58.670094 61.662895 -0.95948273
57.673393 61.225853 -0.95296246
56.72184 60.808609 -0.88026094
55.451157 60.251427 -0.77810454
52.587791 58.995872 -0.69446623
52.470341 58.94437 -0.35159725
52.493984 58.954739 0
52.546692 58.977852 0.34926888
58.709122 61.672382 -0.95296299
57.685925 61.222248 -0.95157951
56.721054 60.797771 -0.88082331
55.455692 60.2411 -0.77810454
52.584366 58.977917 -0.69504339
52.471706 58.928352 -0.35174224
52.528667 58.953411 0
52.562294 58.968204 0.34897831
58.687897 61.659214 -0.95704019
57.673843 61.212368 -0.95365399
56.746239 60.803619 -0.87800944
55.462658 60.238007 -0.777677
52.582672 58.968937 -0.69533139
52.465252 58.917194 -0.35203281
52.503147 58.933891 0
52.555817 58.9571 0.34926888
58.695263 61.6548 -0.95622283
57.695572 61.212841 -0.9508853
56.717567 60.780472 -0.88195014
55.467209 60.227692 -0.777677
52.58876 58.955143 -0.69533139
52.461906 58.899063 -0.35232279
52.52832 58.928425 0
52.561916 58.943275 0.34926888
58.734249 61.664425 -0.94970316
57.694344 61.203186 -0.95157951
56.72612 60.773739 -0.88138562
55.495255 60.227798 -0.77553588
52.575951 58.932968 -0.69648457
52.463314 58.883011 -0.35246834
52.529701 58.912457 0
52.568035 58.929459 0.34926888
58.70546 61.643997 -0.95540869
57.716064 61.203728 -0.94881082
56.743938 60.771145 -0.87969863
55.490429 60.213348 -0.77639264
52.610447 58.931793 -0.69475424
52.469505 58.869076 -0.35246834
52.526337 58.894363 0
52.574169 58.915649 0.34926888
58.730873 61.647675 -0.95133466
57.669064 61.173645 -0.95642263
56.74321 60.760311 -0.88026094
55.490326 60.200977 -0.77682024
52.6213 58.920139 -0.69446623
52.485214 58.859386 -0.3521778
52.523018 58.876266 0
52.556599 58.891258 0.34999442
58.751766 61.649391 -0.94807476
57.709118 61.182404 -0.9508853
56.737865 60.747395 -0.88138562
55.513664 60.199093 -0.77510834
52.627445 58.906395 -0.69446623
52.486694 58.843353 -0.35232279
52.533966 58.864529 0
52.56752 58.879555 0.34984943
58.736572 61.634949 -0.95133466
57.694218 61.16658 -0.95365399
56.760342 60.746952 -0.87913412
55.541676 60.19936 -0.77296895
52.633606 58.892658 -0.69446623
52.488178 58.827312 -0.35246834
52.540176 58.850677 0
52.568977 58.863617 0.34999442
58.689877 61.606247 -0.96029693
57.711357 61.165142 -0.95157951
56.787437 60.748646 -0.87632024
55.564995 60.197582 -0.77125704
52.630344 58.874672 -0.69504339
52.503922 58.81768 -0.3521778
52.541668 58.834698 0
52.579926 58.851944 0.34984943
58.683754 61.595757 -0.96192843
57.701084 61.151348 -0.95365399
56.758953 60.725273 -0.88026094
55.550884 60.178932 -0.77296895
52.641273 58.863075 -0.69475424
52.495983 58.797367 -0.35261336
52.543159 58.818703 0
52.595634 58.842434 0.34955886
58.664162 61.579124 -0.96600246
57.695385 61.139587 -0.95503962
56.781425 60.724926 -0.87800944
55.588242 60.183575 -0.76997274
52.638058 58.845074 -0.69533139
52.497551 58.781326 -0.35275835
52.554184 58.807022 0
52.601875 58.828659 0.34955886
58.739075 61.605442 -0.95296299
57.712547 61.13821 -0.95296246
56.780769 60.714104 -0.87857175
55.592857 60.173416 -0.76997274
52.634888 58.827068 -0.69590741
52.494392 58.763123 -0.35304892
52.541519 58.784569 0
52.593937 58.80843 0.34999442
58.710491 61.584713 -0.95866853
57.716011 61.130615 -0.95296246
56.789364 60.707489 -0.87800944
55.578804 60.154728 -0.77168459
52.641148 58.813339 -0.69590741
52.50547 58.751389 -0.35290337
52.547829 58.770729 0
52.604942 58.796806 0.34984943
58.681953 61.563911 -0.96437407
57.742287 61.133472 -0.94950235
56.788731 60.696667 -0.87857175
55.59745 60.150963 -0.77040195
52.638008 58.795307 -0.69648457
52.497643 58.731007 -0.35333893
52.539955 58.750389 0
52.611237 58.783043 0.34984943
58.774731 61.59877 -0.94807476
57.773102 61.138477 -0.94535071
56.769646 60.677349 -0.88138562
55.546143 60.115097 -0.77553588
52.663105 58.790222 -0.69533139
52.513451 58.721451 -0.35304892
52.551029 58.738716 0
52.59866 58.760605 0.35042998
58.764164 61.586246 -0.95052046
57.721901 61.105759 -0.95365399
56.792122 60.677124 -0.87913412
55.5555 60.107033 -0.77510834
52.674103 58.77869 -0.69504339
52.534004 58.714104 -0.35261336
52.552673 58.72271 0
52.600285 58.744659 0.350575
58.707287 61.556149 -0.96111423
57.741875 61.110378 -0.9508853
56.794132 60.672768 -0.87913412
55.567169 60.106232 -0.77425325
52.663185 58.76535 -0.69590741
52.518326 58.698463 -0.35319391
52.560585 58.717976 0
52.584587 58.729057 0.35115555
58.728184 61.558064 -0.95785433
57.759014 61.109138 -0.94881082
56.788925 60.65979 -0.88026094
55.562569 60.091732 -0.77510834
52.669518 58.751656 -0.69590741
52.543602 58.693329 -0.35261336
52.566975 58.704155 0
52.609829 58.724007 0.350575
58.767002 61.568359 -0.95133466
57.744312 61.093143 -0.95157951
56.806797 60.657505 -0.87857175
55.567299 60.081543 -0.77510834
52.680553 58.740147 -0.6956194
52.540604 58.675114 -0.35290337
52.554501 58.681572 0
52.635063 58.719009 0.34999442
58.68483 61.522366 -0.9668166
57.729637 61.077106 -0.95434815
56.80624 60.646671 -0.87913412
55.581337 60.075687 -0.77425325
52.682232 58.724289 -0.69590741
52.556458 58.665661 -0.35261336
52.589252 58.680946 0
52.679134 58.722843 0.34883332
58.741543 61.541061 -0.95704019
57.728634 61.06741 -0.95503962
56.805679 60.635822 -0.87969863
55.60004 60.072044 -0.77296895
52.70266 58.717186 -0.69504339
52.567616 58.654037 -0.35246834
52.628677 58.68259 0
52.68552 58.709167 0.34883332
58.78928 61.555706 -0.94888896
57.745811 61.066227 -0.95296246
56.809753 60.627132 -0.87969863
55.57225 60.046635 -0.77596509
52.709053 58.703537 -0.69504339
52.602325 58.653473 -0.35159725
52.630402 58.666645 0
52.691921 58.695503 0.34883332
58.801174 61.553619 -0.94726062
57.749363 61.058674 -0.95296246
56.795441 60.609791 -0.88195014
55.600258 60.047382 -0.77382571
52.706108 58.685497 -0.6956194
52.632298 58.650764 -0.35087168
52.6604 58.66399 0
52.703037 58.684052 0.3486883
58.781788 61.536789 -0.95133466
57.784668 61.066109 -0.94811934
56.80415 60.603264 -0.88138562
55.591125 60.030666 -0.77510834
52.717209 58.674061 -0.69533139
52.666958 58.650341 -0.35000113
52.685684 58.65918 0
52.71418 58.67263 0.34854275
58.75349 61.515675 -0.95704019
57.806358 61.067192 -0.94535071
56.822025 60.601089 -0.87969863
55.595928 60.020508 -0.77510834
52.714314 58.65601 -0.69590741
52.664047 58.632206 -0.35029113
52.673328 58.6366 0
52.711224 58.654545 0.34883332
58.814556 61.536915 -0.94644326
57.732864 61.023113 -0.95711678
56.807777 60.583698 -0.88195014
55.610008 60.014759 -0.77425325
52.739468 58.651253 -0.69475424
52.67992 58.622967 -0.35000113
52.679817 58.622917 0
52.713001 58.63868 0.34897831
58.75951 61.503006 -0.95704019
57.763653 61.028496 -0.95296246
56.825676 60.58157 -0.88026094
55.61483 60.004623 -0.77425325
52.759937 58.644321 -0.69389021
52.68174 58.607059 -0.35014611
52.672241 58.602535 0
52.710094 58.620571 0.34926888
58.75362 61.492416 -0.95866853
57.767246 61.020966 -0.95296246
56.825233 60.570713 -0.88082331
55.615036 59.992283 -0.77468079
52.738419 58.617363 -0.6956194
52.674194 58.586662 -0.35058168
52.674061 58.586601 0
52.702549 58.60022 0.34970388
58.805687 61.509586 -0.94970316
57.757275 61.006924 -0.95503962
56.833958 60.564243 -0.88026094
55.624512 59.984371 -0.77425325
52.763592 58.612705 -0.69446623
52.67606 58.57074 -0.35072669
52.680611 58.572918 0
52.73251 58.597801 0.34897831
58.697334 61.449753 -0.9700765
57.783501 61.010254 -0.95157951
56.819798 60.546776 -0.88251251
55.620125 59.96981 -0.77510834
52.760777 58.594643 -0.69504339
52.677948 58.55481 -0.35087168
52.682487 58.556992 0
52.734367 58.58194 0.34912333
58.78793 61.489445 -0.95378029
57.776276 61.002151 -0.95296246
56.849361 60.555676 -0.87913412
55.631802 59.9692 -0.77425325
52.773373 58.592346 -0.69446623
52.68124 58.54797 -0.35087168
52.690464 58.552414 0
52.728268 58.570621 0.34941387
58.719769 61.44875 -0.9668166
57.752785 60.981529 -0.95711678
56.835228 60.538193 -0.88138562
55.622822 59.952396 -0.77553588
52.770592 58.57428 -0.69504339
52.678471 58.52977 -0.35116223
52.683006 58.531963 0
52.730164 58.554749 0.34955886
58.771774 61.46608 -0.95785433
57.783539 60.987118 -0.95296246
56.834831 60.527317 -0.88195014
55.650818 59.953468 -0.77339649
52.763203 58.553955 -0.69590741
52.680416 58.513832 -0.35130724
52.675568 58.511482 0
52.732079 58.538868 0.34970388
58.739273 61.442474 -0.96437407
57.77364 60.973026 -0.95503962
56.843613 60.520889 -0.88138562
55.623386 59.92767 -0.77639264
52.793049 58.551689 -0.69446623
52.691723 58.502426 -0.35116223
52.686882 58.500076 0
52.738686 58.525257 0.34970388
58.800125 61.464283 -0.95378029
57.799847 60.976498 -0.95157951
56.847824 60.512245 -0.88138562
55.63755 59.922054 -0.77553588
52.804287 58.540417 -0.69417822
52.698372 58.488766 -0.35116223
52.688866 58.484131 0
52.745308 58.511654 0.34970388
58.780994 61.447144 -0.95785433
57.794498 60.964603 -0.95296246
56.842903 60.499134 -0.88251251
55.651699 59.916462 -0.77468079
52.801605 58.52235 -0.69475424
52.691048 58.468273 -0.35159725
52.690865 58.468182 0
52.733276 58.488926 0.35028443
58.881706 61.488739 -0.93992668
57.793671 60.954899 -0.95365399
56.851696 60.492725 -0.88195014
55.652035 59.904118 -0.77510834
52.808235 58.508823 -0.69475424
52.693081 58.452324 -0.35174224
52.702225 58.45681 0
52.735264 58.473022 0.35042998
58.796059 61.438908 -0.95622283
57.797356 60.947403 -0.95365399
56.846828 60.479607 -0.88307482
55.68922 59.909897 -0.7721138
52.819511 58.497585 -0.69446623
52.704449 58.44096 -0.35159725
52.694916 58.436268 0
52.741951 58.459412 0.35042998
58.8479 61.456688 -0.94726062
57.76955 60.924362 -0.95849979
56.873867 60.482212 -0.88026094
55.680374 59.893047 -0.77339649
52.812248 58.477211 -0.69533139
52.701847 58.422707 -0.35188779
52.701649 58.422611 0
52.748653 58.445816 0.35042998
58.740234 61.39563 -0.96763396
57.750793 60.905704 -0.9619599
56.869026 60.469097 -0.88138562
55.685341 59.882996 -0.77339649
52.800388 58.454514 -0.69648457
52.708595 58.409061 -0.35188779
52.708397 58.408962 0
52.755371 58.432224 0.35042998
58.606155 61.321117 -0.99289554
57.750046 60.895927 -0.96265143
56.896049 60.471786 -0.87857175
55.685711 59.870663 -0.77382571
52.807098 58.440987 -0.69648457
52.692089 58.383865 -0.35261336
52.719818 58.397636 0
52.762108 58.41864 0.35042998
64 64 -0
57.81218 60.917461 -0.95365399
56.886665 60.456402 -0.88026094
55.676933 59.85376 -0.77510834
52.832344 58.436691 -0.69533139
52.68959 58.365578 -0.35290337
52.717285 58.379375 0
52.754917 58.398121 0.35086498
58.847 61.425194 -0.94970316
57.802441 60.903255 -0.95573109
56.88187 60.443272 -0.88138562
55.686535 59.845997 -0.77468079
52.815941 58.411644 -0.69677258
52.696404 58.351913 -0.35290337
52.714764 58.361088 0
52.775627 58.391499 0.35042998
58.735207 61.361378 -0.9708938
57.824131 60.904762 -0.95296246
56.87254 60.427841 -0.88307482
55.705338 59.842857 -0.77339649
52.813442 58.393494 -0.69734973
52.717163 58.345238 -0.35246834
52.702991 58.338135 0
52.768486 58.370964 0.35086498
58.789818 61.384808 -0.96111423
57.848419 60.912285 -0.94950235
56.888329 60.430378 -0.88138562
55.680309 59.824024 -0.77596509
52.844582 58.400665 -0.6956194
52.725239 58.340759 -0.35232279
52.720356 58.33831 0
52.762592 58.359512 0.35115555
64 64 -0
57.838703 60.898083 -0.95157951
56.901718 60.426353 -0.88026094
55.68996 59.816292 -0.77553588
52.851357 58.387188 -0.6956194
52.722794 58.322464 -0.35261336
52.703964 58.312984 0
52.764778 58.343601 0.35130054
64 64 -0
57.824543 60.881592 -0.95434815
56.910572 60.420067 -0.87969863
55.717934 59.817822 -0.77339649
52.881229 58.385376 -0.69417822
52.72966 58.308842 -0.35261336
52.720146 58.304035 0
52.766987 58.32769 0.35144556
58.927212 61.43071 -0.93748099
57.81041 60.865063 -0.95711678
56.914902 60.411503 -0.87969863
55.695503 59.793896 -0.77596509
52.883411 58.369614 -0.69446623
52.74118 58.297573 -0.35246834
52.722382 58.288052 0
52.769218 58.311775 0.35159054
58.70557 61.310406 -0.97904187
57.849991 60.875767 -0.95157951
56.914719 60.400646 -0.88026094
55.709755 59.788517 -0.77510834
52.871773 58.346813 -0.6956194
52.729546 58.274559 -0.35304892
52.724655 58.272076 0
52.780727 58.30056 0.35144556
64 64 -0
57.822487 60.852402 -0.95642263
56.914547 60.389782 -0.88082331
55.710278 59.776176 -0.77553588
52.878613 58.33337 -0.6956194
52.727219 58.256229 -0.35333893
52.750134 58.267906 0
52.778351 58.282284 0.3517361
64 64 -0
57.857559 60.860916 -0.95157951
56.914394 60.378914 -0.88138562
55.733658 59.775497 -0.77382571
52.871643 58.312874 -0.69648457
52.734165 58.242615 -0.35333893
52.74316 58.247208 0
52.776024 58.264004 0.3520261
64 64 -0
57.865162 60.846081 -0.95157951
56.927681 60.36412 -0.88082331
55.711941 59.739109 -0.77682024
52.899227 58.293095 -0.6956194
52.734241 58.208275 -0.35377446
52.761738 58.222408 0
52.780666 58.23214 0.35231668
64 64 -0
57.82439 60.815678 -0.95849979
56.900459 60.339275 -0.88476402
55.726212 59.733799 -0.77596509
52.906132 58.279686 -0.6956194
52.736633 58.192287 -0.35391948
52.740959 58.194519 0
52.79689 58.223358 0.3520261
64 64 -0
57.828239 60.80822 -0.95849979
56.936489 60.347042 -0.88082331
55.740501 59.728527 -0.77510834
52.899261 58.259151 -0.69648457
52.74366 58.17868 -0.35391948
52.729488 58.171352 0
52.790024 58.20266 0.35246167
64 64 -0
57.858818 60.814621 -0.95434815
56.918358 60.326813 -0.88363719
55.741116 59.716187 -0.77553588
52.910793 58.248123 -0.69619656
52.750702 58.165085 -0.35391948
52.745789 58.162537 0
52.783195 58.181938 0.35289723
64 64 -0
57.880478 60.816467 -0.95157951
56.963371 60.339363 -0.87857175
55.769066 59.718056 -0.77339649
52.913166 58.232342 -0.69648457
52.753155 58.149101 -0.35406446
52.734383 58.139336 0
52.799461 58.173191 0.35260665
64 64 -0
57.897678 60.81604 -0.94950235
56.940758 60.316753 -0.88195014
55.769684 59.705734 -0.77382571
52.933907 58.226131 -0.6956194
52.751007 58.130703 -0.35435504
52.736843 58.123314 0
52.797287 58.15485 0.35289723
64 64 -0
57.828449 60.775173 -0.96057689
56.942986 60.312492 -0.88195014
55.749531 59.688873 -0.77596509
52.955738 58.229031 -0.69446623
52.740753 58.116695 -0.35479003
52.74963 58.121334 0
52.796219 58.145676 0.35304222
64 64 -0
57.903458 60.804985 -0.94950235
56.951958 60.306332 -0.88138562
55.754745 59.678909 -0.77596509
52.916889 58.191673 -0.69734973
52.747871 58.103096 -0.35479003
52.761349 58.110157 0
52.803299 58.132145 0.35304222
64 64 -0
57.907322 60.797619 -0.94950235
56.938435 60.288361 -0.88363719
55.759972 59.668949 -0.77596509
52.942234 58.187912 -0.69619656
52.750389 58.087078 -0.35493559
52.754646 58.089317 0
52.824203 58.125877 0.35260665
64 64 -0
57.924515 60.797283 -0.94742519
56.965397 60.291679 -0.88082331
55.765213 59.658997 -0.77596509
55.479702 59.508488 -0.53677887
52.752949 58.071068 -0.35508057
52.780212 58.085442 0
52.817513 58.105103 0.35304222
64 64 -0
57.901768 60.775867 -0.95157951
56.969883 60.28318 -0.88082331
55.779549 59.653854 -0.77510834
55.471413 59.49094 -0.53764403
55.544121 59.529381 -0.26713079
52.81039 58.084061 0
52.820053 58.089169 0.35318723
64 64 -0
57.92783 60.780251 -0.94811934
56.951935 60.262787 -0.88363719
55.789341 59.646324 -0.77468079
55.472301 59.478218 -0.53793204
55.503624 59.494827 -0.26858193
55.516727 59.501774 0
55.568108 59.529018 0.26654357
64 64 -0
57.931725 60.772919 -0.94811934
56.956455 60.254272 -0.88363719
55.799133 59.638817 -0.77425325
55.482334 59.470345 -0.53764403
55.495308 59.477242 -0.26901749
55.508396 59.484203 0
55.578102 59.521271 0.26639855
64 64 -0
57.913494 60.753784 -0.95157951
56.97892 60.255333 -0.88138562
55.804413 59.62891 -0.77425325
55.478691 59.455189 -0.53822005
55.500778 59.466969 -0.26901749
55.504665 59.46904 0
55.578938 59.508656 0.26654357
64 64 -0
57.917423 60.746433 -0.95157951
56.996883 60.254036 -0.87969863
55.805176 59.616592 -0.77468079
55.475075 59.440022 -0.53879607
55.501682 59.454254 -0.26916248
55.523918 59.466148 0
55.593544 59.503391 0.26625299
64 64 -0
57.908108 60.731976 -0.95365399
56.983501 60.235966 -0.88195014
55.787861 59.594559 -0.77682024
55.457787 59.417492 -0.54023838
55.488861 59.434162 -0.26974303
55.51564 59.448524 0
55.576073 59.480946 0.26697913
64 64 -0
57.929733 60.734127 -0.9508853
57.010445 60.239536 -0.87913412
55.811275 59.594372 -0.77510834
55.486122 59.419434 -0.53879607
55.503548 59.42881 -0.26945248
55.534901 59.445679 0
55.586128 59.47324 0.26683354
64 64 -0
57.911594 60.714874 -0.95434815
57.006039 60.226265 -0.88026094
55.830147 59.591785 -0.77382571
55.482548 59.404232 -0.53937322
55.509079 59.418549 -0.26945248
55.540409 59.435452 0
55.577881 59.455669 0.2672691
64 64 -0
57.937645 60.719467 -0.9508853
57.001675 60.212982 -0.88138562
55.826458 59.577034 -0.77468079
55.492653 59.396404 -0.53908521
55.500904 59.400867 -0.26988804
55.568817 59.437618 0
55.597092 59.452919 0.26683354
64 64 -0
57.968063 60.726498 -0.94673371
56.992851 60.197254 -0.88307482
55.80925 59.55492 -0.77682024
55.502781 59.388603 -0.53879607
55.520172 59.398041 -0.26945248
55.551464 59.415024 0
55.598015 59.440285 0.26697913
64 64 -0
57.93037 60.701294 -0.95296246
57.017471 60.205154 -0.88026094
55.829979 59.55978 -0.77510834
55.505569 59.383469 -0.53879607
55.527519 59.395397 -0.26930749
55.567959 59.417377 0
55.605347 59.437698 0.26683354
64 64 -0
57.960785 60.708366 -0.94881082
57.004211 60.186993 -0.88251251
55.821823 59.542538 -0.77639264
55.511154 59.373207 -0.53879607
55.546783 59.392628 -0.26887193
55.5872 59.414658 0
55.606293 59.425064 0.26697913
64 64 -0
57.973579 60.705887 -0.94742519
57.026661 60.18829 -0.88026094
55.836235 59.53759 -0.77553588
55.534889 59.372871 -0.53764403
55.552353 59.382416 -0.26887193
55.574478 59.394508 0
55.630066 59.424896 0.26639855
64 64 -0
57.977566 60.698608 -0.94742519
57.008995 60.167656 -0.88307482
55.859623 59.53759 -0.77382571
55.545036 59.365139 -0.53735489
55.557941 59.372215 -0.26887193
55.584625 59.386841 0
55.621941 59.407295 0.26683354
64 64 -0
57.97715 60.688911 -0.94811934
57.018082 60.161655 -0.88251251
55.887527 59.540131 -0.77168459
55.550644 59.354927 -0.53735489
55.563538 59.362015 -0.26887193
55.608452 59.386707 0
55.632046 59.399677 0.26668856
64 64 -0
57.99873 60.691326 -0.94535071
57.031631 60.158134 -0.88138562
55.87043 59.517929 -0.77382571
55.547192 59.339722 -0.53793204
55.573696 59.354332 -0.26872692
55.609459 59.37405 0
55.646706 59.394585 0.26639855
64 64 -0
58.011524 60.688938 -0.94396502
57.040722 60.152176 -0.88082331
55.862385 59.500664 -0.77510834
55.55283 59.32951 -0.53793204
55.574772 59.34164 -0.26887193
55.619625 59.36644 0
55.656837 59.387016 0.26625299
64 64 -0
57.997978 60.67197 -0.94673371
57.018703 60.128979 -0.88420171
55.854355 59.483364 -0.77639264
55.572056 59.326836 -0.53706688
55.575848 59.328938 -0.26901749
55.64344 59.366417 0
55.65786 59.374413 0.26639855
64 64 -0
57.9757 60.650093 -0.9508853
57.054478 60.137836 -0.88026094
55.873283 59.481014 -0.77510834
55.573189 59.314144 -0.53735489
55.581497 59.318764 -0.26901749
55.639938 59.351257 0
55.672546 59.369392 0.26610801
64 64 -0
57.979752 60.642818 -0.9508853
57.028076 60.112118 -0.88420171
55.910126 59.488693 -0.7721138
55.578857 59.303963 -0.53735489
55.591713 59.311131 -0.26887193
55.631916 59.333553 0
55.673615 59.356804 0.26625299
64 64 -0
57.98381 60.635548 -0.9508853
57.04166 60.108662 -0.88307482
55.875256 59.456371 -0.77596509
55.580009 59.29126 -0.53764403
55.62006 59.313656 -0.26814637
55.655731 59.333607 0
55.67923 59.346745 0.26625299
64 64 -0
58.01413 60.643002 -0.94673371
57.059669 60.107719 -0.88138562
55.889717 59.451584 -0.77510834
55.60828 59.293747 -0.53620172
55.616653 59.298447 -0.26843691
55.661377 59.323528 0
55.693916 59.341774 0.26596299
64 64 -0
58.009438 60.630844 -0.94811934
57.042217 60.086872 -0.88420171
55.917587 59.454369 -0.77296895
55.609451 59.281071 -0.53649086
55.622341 59.288319 -0.26843691
55.676117 59.318562 0
55.685955 59.324097 0.26639855
64 64 -0
57.978565 60.603901 -0.95365399
57.082359 60.098438 -0.87969863
55.932022 59.449646 -0.7721138
55.633183 59.281097 -0.53533769
55.63258 59.280762 -0.26829135
55.672703 59.303391 0
55.705196 59.321716 0.26596299
64 64 -0
57.993713 60.607658 -0.95157951
57.071457 60.086769 -0.88138562
55.925842 59.439728 -0.77296895
55.622536 59.268421 -0.53620172
55.630894 59.273144 -0.26843691
55.684616 59.303482 0
55.698982 59.3116 0.26625299
64 64 -0
58.010918 60.607826 -0.94950235
64 64 -0
55.940285 59.435032 -0.7721138
55.61475 59.250652 -0.53706688
55.645664 59.268162 -0.26814637
55.703873 59.301128 0
55.718208 59.30925 0.265818
64 64 -0
58.00193 60.593155 -0.95157951
57.08535 60.072544 -0.88082331
55.923489 59.412621 -0.77425325
55.638489 59.25074 -0.53591371
55.65139 59.258068 -0.26814637
55.695992 59.283401 0
55.741955 59.309509 0.26523745
64 64 -0
58.023491 60.59584 -0.94881082
57.098923 60.069218 -0.87969863
55.94688 59.413029 -0.77254134
55.630741 59.23296 -0.53677887
55.652611 59.245415 -0.26829135
55.697174 59.270798 0
55.734097 59.291828 0.26567245
64 64 -0
58.045036 60.598579 -0.94604218
57.09045 60.053329 -0.88138562
55.916763 59.382931 -0.77596509
55.649986 59.230549 -0.53591371
55.662872 59.237907 -0.26814637
55.725491 59.273674 0
55.762348 59.294727 0.26494688
64 64 -0
58.049149 60.591385 -0.94604218
57.095226 60.044983 -0.88138562
55.944618 59.385921 -0.77382571
55.66024 59.22303 -0.5356257
55.682148 59.23558 -0.26771137
55.722168 59.258503 0
55.75 59.274445 0.26552743
64 64 -0
58.040215 60.576698 -0.94811934
57.091187 60.031574 -0.88251251
55.941307 59.371082 -0.77468079
55.666019 59.212959 -0.5356257
55.687912 59.225533 -0.26771137
55.73241 59.251091 0
55.755718 59.264481 0.26552743
64 64 -0
58.053059 60.574512 -0.94673371
57.126816 60.040989 -0.87857175
59.149925 61.206318 -0.46656081
55.676289 59.205471 -0.53533769
55.6982 59.218094 -0.26756582
55.724636 59.233322 0
55.77496 59.262306 0.2650919
64 64 -0
58.083263 60.582382 -0.94258207
57.105194 60.017429 -0.88195014
59.260006 61.262089 -0.45628959
55.682087 59.195419 -0.53533769
55.699471 59.20546 -0.26771137
55.748428 59.233738 0
55.762691 59.241974 0.26567245
64 64 -0
58.061356 60.56015 -0.94673371
57.153992 60.034576 -0.87632024
59.245544 61.246071 -0.45800146
55.705803 59.19574 -0.53418452
55.709782 59.198044 -0.26756582
55.74968 59.221153 0
55.777431 59.237228 0.26538244
64 64 -0
58.065517 60.552979 -0.94673371
57.154385 60.02375 -0.87688476
59.168972 61.193916 -0.46570405
55.698208 59.177937 -0.53504854
55.715591 59.18803 -0.26756582
55.759972 59.21381 0
55.783192 59.227299 0.26538244
64 64 -0
