# .PCD v0.7 - Point Cloud Data file format
VERSION 0.7
FIELDS x y z
SIZE 4 4 4
TYPE F F F
COUNT 1 1 1
WIDTH 1711
HEIGHT 1
VIEWPOINT 0 0 0 1 0 0 0
POINTS 1711
DATA ascii
60.24416 68.328224 -0.47768712
60.101219 68.492943 -0.33152464
64 64 -0
64 64 0
41.05954 90.436539 0.9775452
60.362068 68.182129 -0.9138478
60.223488 68.341431 -0.7937746
60.348362 68.197884 -0.61628151
60.245678 68.315926 -0.47683036
60.092388 68.492149 -0.33181378
64 64 -0
64 64 0
40.996918 90.444092 0.97885126
60.402496 68.125572 -0.90243983
60.211658 68.344421 -0.79515755
60.343292 68.193466 -0.61628151
60.240463 68.311386 -0.47683036
60.100563 68.471825 -0.33066061
64 64 -0
64 64 0
40.944496 90.439766 0.97972184
60.462578 68.046791 -0.88614053
60.216309 68.328522 -0.79308307
60.344913 68.181396 -0.61515683
60.245384 68.295258 -0.4755477
60.095161 68.46711 -0.33066061
64 64 -0
64 64 0
40.912567 90.411888 0.97972184
60.353443 68.161484 -0.91221941
60.19455 68.342812 -0.79654324
60.35326 68.16169 -0.61290526
60.223282 68.31002 -0.47768712
60.079552 68.474052 -0.33152464
64 64 -0
64 64 0
40.870392 90.395706 0.98015738
60.407143 68.090218 -0.8975485
60.172752 68.357056 -0.80000335
60.358299 68.145828 -0.61121607
60.251953 68.266891 -0.47340828
60.084377 68.457664 -0.33066061
60.026543 68.523506 -0.16815042
64 64 0
40.879669 90.320885 0.97841573
60.447933 68.033943 -0.88614053
60.164177 68.356186 -0.80069488
60.353291 68.141418 -0.61121607
60.246799 68.26236 -0.47340828
60.09267 68.437401 -0.32950744
64 64 -0
59.577126 69.022881 0
45.508144 85.000458 0.78147167
60.4725 67.996292 -0.87880665
60.162235 68.347794 -0.80000335
60.36174 68.121773 -0.60896456
60.238258 68.261665 -0.47383583
60.107857 68.409393 -0.32777712
64 64 -0
59.584839 69.001923 0
45.517166 84.939148 0.78002053
60.45784 68.003143 -0.88125229
60.156982 68.343155 -0.80000335
60.346657 68.128792 -0.61065376
60.226315 68.264801 -0.47469094
60.092243 68.416313 -0.32864228
59.89653 68.637505 -0.17293988
59.582241 68.992691 0
45.48156 84.928459 0.78045553
60.406265 68.056488 -0.89347446
60.151035 68.344582 -0.80069488
60.361023 68.107559 -0.60783768
60.24416 68.239464 -0.47212395
60.08271 68.421707 -0.3292194
59.866158 68.666145 -0.17410101
59.579227 68.990021 0
45.496487 84.886147 0.77929443
60.358696 68.100189 -0.90406823
60.152447 68.332436 -0.79931188
60.342564 68.118355 -0.61008924
60.232227 68.242599 -0.47297907
60.087677 68.405365 -0.32835427
59.791504 68.738861 -0.17700379
59.569748 68.988564 0
45.471264 84.863777 0.77929443
60.406334 68.036713 -0.89102876
60.127201 68.350258 -0.80346352
60.344341 68.106346 -0.60896456
60.237335 68.226547 -0.47169641
60.085796 68.396774 -0.32806623
59.834167 68.67942 -0.17497157
59.556793 68.99099 0
45.442604 84.845261 0.77943999
60.408035 68.025002 -0.88940042
60.125286 68.341835 -0.80277199
60.336002 68.105713 -0.60952687
60.218559 68.23732 -0.47340828
60.080486 68.392036 -0.32806623
59.901176 68.592964 -0.17192377
59.536903 69.001152 0
45.465878 84.768539 0.77740777
60.439434 67.980125 -0.88043499
60.113358 68.34462 -0.80415499
60.34798 68.082352 -0.606713
60.240826 68.202133 -0.46998453
60.095882 68.364159 -0.32633594
59.847115 68.642242 -0.17395601
59.555161 68.968597 0
45.568985 84.602837 0.77203828
60.408226 68.005264 -0.88695472
60.118153 68.328728 -0.80208051
60.363403 68.055244 -0.60333681
60.246037 68.186119 -0.46870023
60.076797 68.374847 -0.32748911
59.886612 68.586922 -0.17206933
59.528305 68.986481 0
45.665543 84.445129 0.76695824
60.383553 68.02298 -0.89184606
60.12299 68.312836 -0.80000335
60.365307 68.043282 -0.60220993
60.244411 68.177765 -0.46827266
60.061134 68.381645 -0.32835427
59.863705 68.601273 -0.17279489
59.518806 68.98494 0
45.692955 84.364998 0.76478159
60.378693 68.018608 -0.89184606
60.097637 68.330505 -0.80415499
60.350216 68.050217 -0.60389912
60.235931 68.177032 -0.46870023
60.087006 68.3423 -0.32575992
59.868587 68.584686 -0.17235933
59.516266 68.975662 0
45.744892 84.257935 0.76158881
60.367222 68.021561 -0.89347446
60.11594 68.299736 -0.79931188
60.355545 68.034485 -0.60220993
60.234325 68.168678 -0.46827266
60.071369 68.349075 -0.32662395
59.831699 68.614395 -0.17366545
59.548641 68.92775 0
45.689079 84.270569 0.76289493
60.335819 68.046486 -0.89999419
60.104019 68.302467 -0.80069488
60.35408 68.026314 -0.60164762
60.246532 68.145088 -0.4661316
60.059166 68.351997 -0.3272011
59.833099 68.601654 -0.17337544
59.563644 68.899223 0
45.622742 84.294655 0.76463658
60.404022 67.961533 -0.88206649
60.10556 68.290337 -0.79931188
60.352631 68.01815 -0.60108525
60.244972 68.136749 -0.46570405
60.067818 68.331917 -0.32604793
59.806591 68.619698 -0.174246
64 64 0
45.542358 84.333984 0.76695824
60.399235 67.957184 -0.88206649
60.117275 68.267059 -0.79584908
60.351208 68.009972 -0.60052073
60.250336 68.120827 -0.46442136
60.062588 68.327164 -0.32604793
59.821991 68.591576 -0.17337544
64 64 0
45.444355 84.392387 0.77000606
60.41111 67.934578 -0.87799245
60.132401 68.240128 -0.79169744
60.339512 68.013077 -0.60164762
60.231533 68.131454 -0.4661316
60.067822 68.310928 -0.32518277
59.805946 68.59803 -0.17381045
64 64 0
45.360195 84.435219 0.77247328
60.419701 67.915642 -0.87473261
60.164528 68.194717 -0.78408301
60.334663 68.008652 -0.60164762
60.219604 68.134483 -0.46698835
60.07658 68.290909 -0.32402959
64 64 -0
64 64 0
45.279408 84.474045 0.77479553
60.391602 67.936813 -0.88043499
60.234043 68.108711 -0.76885676
60.357292 67.974243 -0.59714454
60.23542 68.107208 -0.46442136
60.067894 68.289986 -0.32431871
64 64 -0
64 64 0
45.209038 84.501213 0.7766822
60.380154 67.939735 -0.88206649
60.283398 68.045044 -0.75778216
60.369682 67.951134 -0.59433061
60.265205 68.064842 -0.46014088
60.066223 68.28141 -0.32402959
59.929939 68.429733 -0.16800542
64 64 0
45.156151 84.509109 0.7778433
60.398842 67.909904 -0.87636095
60.332886 67.981514 -0.74671024
60.347698 67.965431 -0.59714454
60.246384 68.075432 -0.46185276
60.068054 68.269051 -0.32345358
64 64 -0
64 64 0
45.120815 84.497795 0.77827883
60.410881 67.887398 -0.87228692
60.334892 67.969696 -0.74532461
60.370487 67.931145 -0.59264141
60.241463 68.070892 -0.46185276
60.062897 68.264297 -0.32345358
59.778244 68.572609 -0.17381045
64 64 0
45.074917 84.497871 0.77914941
60.386047 67.904816 -0.87717515
60.353947 67.939499 -0.74048144
60.36919 67.923035 -0.5920791
60.257462 68.043747 -0.45928577
60.06126 68.255745 -0.32316554
59.825665 68.5103 -0.17163377
64 64 0
39.335445 90.649643 1.0141181
60.394779 67.885948 -0.87391526
60.376488 67.90567 -0.73494416
60.347176 67.937263 -0.59489298
60.238613 68.054283 -0.46099764
60.052605 68.254768 -0.32345358
59.830822 68.49382 -0.17119822
64 64 0
39.303261 90.619827 1.0141181
60.413643 67.856262 -0.86821288
60.395695 67.875565 -0.73009837
60.345879 67.929131 -0.59433061
60.230221 68.05349 -0.46142519
60.05452 68.242416 -0.32287642
59.708607 68.614357 -0.17598768
64 64 0
44.809631 84.634628 0.78698665
60.405617 67.855537 -0.86902708
60.377327 67.885887 -0.732867
60.358456 67.906128 -0.59151673
60.23933 68.033913 -0.45971331
60.045856 68.24144 -0.32316554
64 64 -0
64 64 0
44.742188 84.657036 0.78872836
60.37059 67.883698 -0.87636095
60.37606 67.877846 -0.73217553
60.350273 67.905434 -0.5920791
60.237961 68.025612 -0.45928577
60.051334 68.225319 -0.3223004
64 64 -0
64 64 0
44.738537 84.610962 0.78785723
60.374992 67.87429 -0.87473261
60.377155 67.871979 -0.73148137
60.361801 67.88839 -0.58982754
60.232025 68.027084 -0.45971331
60.059391 68.211594 -0.32143524
64 64 -0
64 64 0
44.868099 84.447548 0.78205222
60.397366 67.841064 -0.86821288
60.34845 67.893219 -0.73632717
60.357105 67.883987 -0.58982754
60.234196 68.015038 -0.45885655
60.047218 68.214386 -0.32201239
57.716084 70.699799 -0.25653577
59.403721 68.900467 0
45.021164 84.234894 0.77479553
60.399506 67.829498 -0.86658138
60.374676 67.855911 -0.73009837
60.373306 67.857361 -0.58644915
60.239887 67.999268 -0.45757389
60.052765 68.198296 -0.32114723
57.672386 70.730072 -0.25798744
64 64 0
45.067924 84.136223 0.77189273
60.384708 67.835938 -0.86902708
60.373459 67.847878 -0.72940683
60.365154 67.856689 -0.58701366
60.235058 67.99472 -0.45757389
60.054798 68.185989 -0.32057008
64 64 -0
64 64 0
45.054291 84.101997 0.77145773
60.359715 67.853119 -0.87391526
60.37915 67.83255 -0.72732973
60.360497 67.852295 -0.58701366
60.230232 67.990173 -0.45757389
60.039082 68.192497 -0.32143524
64 64 -0
64 64 0
45.015739 84.0942 0.77203828
60.348255 67.855904 -0.87554675
60.384876 67.817238 -0.72525257
60.352352 67.851578 -0.58757603
60.225414 67.985611 -0.45757389
60.044693 68.176437 -0.32057008
64 64 -0
59.46241 68.791275 0
45.009346 84.052368 0.77131218
60.347 67.847908 -0.87473261
60.407902 67.783752 -0.71971524
60.372196 67.821365 -0.58363527
60.23827 67.962433 -0.45543447
60.043205 68.167908 -0.32028207
64 64 -0
64 64 0
38.945656 90.391121 1.0162953
60.379841 67.8041 -0.86576718
60.434464 67.746704 -0.71348649
60.364067 67.820671 -0.58419979
60.247643 67.943008 -0.4537226
60.034611 68.16687 -0.32057008
64 64 -0
64 64 0
38.903046 90.372116 1.0167303
60.341133 67.83548 -0.87391526
60.423004 67.749657 -0.71487212
60.359455 67.816277 -0.58419979
60.221626 67.960754 -0.45628959
60.033146 68.158333 -0.32028207
64 64 -0
64 64 0
38.84967 90.364342 1.0176015
60.326248 67.841782 -0.87636095
60.390732 67.774345 -0.72040939
60.351337 67.815544 -0.58476216
60.231037 67.941345 -0.45457771
60.031696 68.149803 -0.31999406
64 64 -0
64 64 0
38.774734 90.379005 1.0193431
60.314762 67.844482 -0.87799245
60.413952 67.741005 -0.71487212
60.367836 67.789116 -0.58138376
60.226276 67.93679 -0.45457771
60.033852 68.137527 -0.31941691
64 64 -0
64 64 0
38.732101 90.359749 1.0197781
60.330673 67.818634 -0.87310112
60.412907 67.733055 -0.71418065
60.377342 67.770065 -0.5791322
60.232197 67.92112 -0.45329341
60.025261 68.136475 -0.31970605
64 64 -0
64 64 0
38.671463 90.359177 1.0209392
60.329491 67.810638 -0.87228692
60.380566 67.757614 -0.71971524
60.362213 67.776665 -0.58082139
60.241711 67.901772 -0.45158154
60.020264 68.131668 -0.31970605
64 64 -0
64 64 0
38.617989 90.351013 1.0218103
60.334042 67.787552 -0.86902708
60.385441 67.734444 -0.71694928
60.374294 67.745964 -0.57744515
60.235859 67.888992 -0.45115396
59.999508 68.133179 -0.32057008
64 64 -0
64 64 0
38.500179 90.345604 1.0239871
60.277832 67.836334 -0.88125229
60.352993 67.758873 -0.72248393
60.376854 67.734276 -0.57631832
60.227592 67.888123 -0.45158154
60.012524 68.109787 -0.3191289
64 64 -0
64 64 0
38.414078 90.370728 1.0261643
60.424847 67.675919 -0.84539384
60.418407 67.682541 -0.70864332
60.372345 67.729897 -0.57631832
60.233624 67.872528 -0.45029888
60.018372 68.093849 -0.31826484
64 64 -0
64 64 0
38.306145 90.418022 1.029212
60.389351 67.703445 -0.85272777
60.431484 67.660233 -0.70518053
60.360741 67.732796 -0.57744515
60.214611 67.882683 -0.45201072
59.998997 68.103836 -0.31941691
64 64 -0
64 64 0
37.54147 91.138565 1.0585283
60.395237 67.688484 -0.85028517
60.37796 67.706161 -0.71487212
60.370438 67.71386 -0.57519364
60.21352 67.87442 -0.45158154
60.019341 68.073112 -0.31739971
64 64 -0
64 64 0
37.319817 91.299843 1.0660756
60.428837 67.645279 -0.8413198
60.352421 67.723282 -0.71902376
60.355297 67.720352 -0.57688063
60.198059 67.880852 -0.45286584
60.010807 68.071991 -0.31768772
64 64 -0
64 64 0
37.246853 91.308411 1.0676717
60.389805 67.676224 -0.84946787
60.372524 67.693825 -0.71418065
60.365032 67.701454 -0.57463127
60.225746 67.843285 -0.44901454
60.00951 68.063477 -0.31739971
64 64 -0
64 64 0
37.181091 91.309448 1.0689783
60.40963 67.647217 -0.8437655
60.427902 67.628654 -0.70241451
60.371262 67.686188 -0.57294208
60.228302 67.831413 -0.44815943
60.008228 68.05497 -0.3171117
64 64 -0
64 64 0
37.122604 91.302933 1.0699939
60.410908 67.64151 -0.84294814
60.358799 67.694382 -0.7155636
60.365471 67.687614 -0.57350445
60.211571 67.843758 -0.4498713
59.983997 68.074661 -0.31884089
64 64 -0
64 64 0
37.084217 91.308907 1.0708649
60.357864 67.686409 -0.85435927
60.371967 67.672142 -0.71210349
60.368153 67.675995 -0.57237977
60.221363 67.82457 -0.44815943
59.98999 68.058762 -0.31797573
64 64 -0
64 64 0
37.029335 91.298538 1.0717355
60.422981 67.611763 -0.83805996
60.367531 67.667755 -0.71210349
60.374447 67.660767 -0.57069057
60.220367 67.816345 -0.44773024
59.981438 68.057602 -0.31826484
64 64 -0
64 64 0
36.963463 91.299164 1.0730417
60.3629 67.663567 -0.85109937
60.387852 67.638428 -0.70725769
60.370026 67.656387 -0.57069057
60.215759 67.811775 -0.44773024
60.002052 68.027039 -0.31624654
64 64 -0
59.405785 68.62764 0
36.901199 91.295975 1.0742028
60.379402 67.638138 -0.84620804
60.386993 67.630508 -0.70656615
60.376369 67.64119 -0.56900138
60.222012 67.796295 -0.44644758
59.982594 68.036873 -0.31739971
64 64 -0
57.31485 70.717537 0
36.846252 91.285309 1.0750734
60.381985 67.62677 -0.84457964
60.38261 67.626144 -0.70656615
60.375557 67.633209 -0.56843901
60.23193 67.777184 -0.44473571
59.977718 68.032013 -0.31739971
64 64 -0
57.38026 70.635757 0
36.776592 91.289276 1.076525
60.36013 67.63987 -0.84865367
60.353394 67.646606 -0.71141195
60.360386 67.639618 -0.5701282
60.212849 67.787155 -0.44644758
59.983826 68.016174 -0.31653455
64 64 -0
57.375923 70.624077 0
36.717926 91.282074 1.0775405
60.359234 67.631981 -0.84783953
60.402275 67.589043 -0.70102888
60.355991 67.635216 -0.5701282
60.222813 67.768066 -0.44473571
59.986294 68.004021 -0.31595853
64 64 -0
57.264744 70.718994 0
36.648182 91.285797 1.0789922
60.33733 67.645012 -0.85191357
60.369488 67.613007 -0.70656615
60.37682 67.605713 -0.5661875
60.225548 67.756248 -0.44387895
59.963127 68.01741 -0.31739971
64 64 -0
57.330418 70.637421 0
36.59314 91.274719 1.0798628
60.178589 67.793808 -0.88776892
60.382927 67.590942 -0.70310605
60.372463 67.601334 -0.5661875
60.228294 67.744461 -0.44302383
59.954609 68.016167 -0.31768772
64 64 -0
57.425831 70.52668 0
36.527012 91.274536 1.0811689
60.149418 67.813538 -0.89347446
60.37859 67.586571 -0.70310605
60.36451 67.600517 -0.56674981
60.212837 67.750732 -0.44430649
59.957104 68.004005 -0.3171117
64 64 -0
57.303299 70.632278 0
36.490372 91.24498 1.0813144
59.930317 68.020805 -0.94318652
60.384972 67.571609 -0.70102888
60.367382 67.588989 -0.56562513
60.215607 67.738937 -0.44345137
59.93755 68.013657 -0.31826484
64 64 -0
57.387856 70.53273 0
36.427898 91.240944 1.0824755
59.960674 67.981178 -0.93503535
60.384228 67.563721 -0.70033741
60.377525 67.570328 -0.56337357
60.214745 67.730766 -0.44302383
59.94376 67.997849 -0.31739971
64 64 -0
64 64 0
36.372803 91.229492 1.0833461
60.110943 67.823814 -0.89918
60.397808 67.541763 -0.69687724
60.369595 67.569504 -0.56393594
60.217567 67.718979 -0.44216707
59.950001 67.982063 -0.31653455
57.338943 70.549316 -0.26088968
64 64 0
36.302872 91.232513 1.0847973
60.000462 67.922951 -0.92362738
60.372047 67.558487 -0.70102888
60.36166 67.568672 -0.56449831
60.213078 67.714409 -0.44216707
59.94519 67.977165 -0.31653455
57.312473 70.559471 -0.26161578
58.891384 69.010796 0
36.225464 91.242699 1.0865389
60.031063 67.883537 -0.91547614
60.356987 67.564629 -0.70310605
60.37188 67.550056 -0.56224674
60.215923 67.702652 -0.44131196
59.944084 67.968651 -0.31624654
57.341705 70.51503 -0.26016411
58.944843 68.946388 0
36.159142 91.241829 1.0878451
60.157242 67.750999 -0.88532639
60.381409 67.532188 -0.69756877
60.356682 67.55632 -0.56393594
60.204113 67.705246 -0.44216707
59.968906 67.934837 -0.3139402
57.330124 70.510605 -0.2603091
58.730301 69.143867 0
36.126244 91.208168 1.0878451
60.064175 67.832565 -0.90569973
60.351974 67.552315 -0.70241451
60.348747 67.555458 -0.56449831
60.214352 67.686333 -0.4404552
59.956749 67.937172 -0.31451622
57.340874 70.484421 -0.25958356
58.761372 69.101189 0
36.085934 91.181725 1.0881356
60.087914 67.800255 -0.89918
60.358486 67.537415 -0.70033741
60.373615 67.52272 -0.55999517
60.224632 67.667442 -0.43874335
59.937153 67.946701 -0.31566939
57.329304 70.480003 -0.25972912
58.818691 69.033188 0
35.974834 91.224014 1.0911834
60.267918 67.616638 -0.85680181
60.386639 67.501587 -0.69410861
60.362057 67.525414 -0.56112206
60.190708 67.69146 -0.44216707
59.928661 67.945404 -0.31595853
57.302822 70.490013 -0.26045465
58.752808 69.084885 0
35.882263 91.247986 1.093505
60.196018 67.677414 -0.87228692
60.396843 67.483269 -0.69133997
60.383377 67.496284 -0.5571813
60.197311 67.676163 -0.44088441
59.923897 67.940483 -0.31595853
57.298733 70.478294 -0.2603091
58.757885 69.067696 0
35.830666 91.232063 1.0942311
60.284084 67.583603 -0.85109937
60.33847 67.531151 -0.70172036
60.353546 67.516609 -0.56112206
60.207657 67.65731 -0.43917254
59.930313 67.924774 -0.31509337
57.272198 70.488243 -0.26103523
58.736778 69.075813 0
35.790306 91.205215 1.0945212
60.35812 67.503716 -0.83317173
60.345043 67.516296 -0.69964588
60.363949 67.498108 -0.55887049
60.206951 67.649155 -0.43874335
59.925571 67.919853 -0.31509337
57.2756 70.469299 -0.26059967
58.771912 69.029747 0
35.731236 91.196335 1.0955373
60.356003 67.501518 -0.83317173
60.386337 67.472374 -0.69133997
60.365498 67.492393 -0.55830818
60.193634 67.657539 -0.44002765
59.923206 67.917397 -0.31509337
57.245461 70.49044 -0.26161578
58.697578 69.0951 0
35.6661 91.226051 1.0974239
60.380325 67.469742 -0.82665199
60.33144 67.516602 -0.70102888
60.361279 67.487999 -0.55830818
60.20034 67.642273 -0.43874335
59.899807 67.930359 -0.31653455
57.278893 70.442711 -0.26001912
58.732746 69.04908 0
35.606956 91.216972 1.0984401
60.436867 67.407295 -0.81279838
60.316311 67.522575 -0.70310605
60.360752 67.48008 -0.55774367
60.19965 67.634132 -0.43831578
59.932442 67.889656 -0.31365219
57.256088 70.448952 -0.26059967
58.662701 69.103859 0
35.54406 91.211365 1.0996007
60.400562 67.433693 -0.82013226
60.36652 67.466171 -0.69272298
60.360222 67.472176 -0.5571813
60.206409 67.618904 -0.43703148
59.931484 67.881172 -0.31336415
57.237015 70.451569 -0.26103523
58.709259 69.047119 0
35.481117 91.205658 1.1007618
60.371361 67.453186 -0.82583469
60.289639 67.530952 -0.70656615
60.341305 67.481789 -0.55943286
60.205757 67.610779 -0.4366039
59.926796 67.876251 -0.31336415
57.210407 70.461296 -0.26176077
58.706944 69.037125 0
35.421909 91.196266 1.1017779
60.506996 67.316071 -0.79405338
60.310852 67.502281 -0.70172036
60.34816 67.466866 -0.55774367
60.208836 67.599129 -0.43574879
59.914619 67.878448 -0.3139402
57.225227 70.431618 -0.26088968
58.73106 69.002052 0
35.355148 91.193909 1.103084
60.388142 67.420624 -0.82013226
60.321194 67.484024 -0.69895172
60.34766 67.458961 -0.5571813
60.189579 67.608673 -0.43746066
59.894913 67.887733 -0.31509337
57.292912 70.351967 -0.25798744
58.672104 69.045799 0
35.337406 91.144989 1.1025034
60.434322 67.368721 -0.80872118
60.269577 67.524368 -0.70794916
60.358261 67.440582 -0.55492979
60.188965 67.600525 -0.43703148
59.867664 67.904083 -0.31682256
57.251244 70.375977 -0.25929356
58.658451 69.046501 0
42.198402 84.597343 0.83763796
60.322327 67.466125 -0.83317173
60.294518 67.49234 -0.70241451
60.372593 67.418755 -0.55211592
60.192081 67.588882 -0.43617636
59.885529 67.8778 -0.31509337
57.270023 70.342865 -0.25827745
58.697811 68.9972 0
42.177326 84.567413 0.83749241
60.476604 67.312698 -0.79731321
60.30859 67.470665 -0.69895172
60.357353 67.42482 -0.55380511
60.187748 67.584282 -0.43617636
59.880848 67.872826 -0.31509337
57.21693 70.377441 -0.26001912
58.657654 69.022873 0
42.163837 84.530365 0.83705741
60.515869 67.26786 -0.78753364
60.300728 67.469643 -0.69964588
60.327282 67.44474 -0.55774367
60.18716 67.576164 -0.43574879
59.87994 67.864311 -0.31480536
57.205441 70.372795 -0.26016411
58.689545 68.98082 0
42.146637 84.496841 0.83676684
60.51553 67.260269 -0.78671944
60.281883 67.478882 -0.70241451
60.337967 67.426407 -0.5554921
60.17535 67.57856 -0.4366039
59.871498 67.862862 -0.31509337
57.186359 70.375237 -0.26059967
58.611313 69.041969 0
42.102913 84.488174 0.83749241
60.49353 67.272919 -0.79079354
60.296032 67.45726 -0.69895172
60.33754 67.418518 -0.55492979
60.167282 67.577438 -0.43703148
59.874405 67.850807 -0.31451622
57.178661 70.366997 -0.26059967
58.605225 69.035454 0
42.047779 84.490067 0.8386535
60.50766 67.251839 -0.78671944
60.310215 67.435692 -0.69549161
60.32225 67.424484 -0.55661899
60.189251 67.548325 -0.43403694
59.873539 67.842293 -0.31422821
57.212814 70.319794 -0.25900298
58.583908 69.043121 0
42.004028 84.481232 0.83937907
60.434917 67.311539 -0.80220461
60.287689 67.448303 -0.69895172
60.306942 67.430412 -0.55830818
60.18121 67.547203 -0.43446448
59.876472 67.830269 -0.31365219
57.205181 70.311584 -0.25900298
58.562576 69.050728 0
34.745098 91.174355 1.1151302
60.532444 67.213158 -0.77938557
60.287201 67.440407 -0.69826025
60.34753 67.384506 -0.55155355
60.199516 67.52166 -0.43189749
59.868057 67.828796 -0.3139402
57.266167 70.239799 -0.25639075
58.567921 69.033546 0
34.704666 91.146042 1.1154201
60.481377 67.252579 -0.78997934
60.301464 67.418892 -0.69480008
60.350914 67.373184 -0.55042672
60.191494 67.520546 -0.43232507
59.863434 67.823807 -0.3139402
64 64 -0
58.561844 69.026978 0
34.641357 91.138847 1.1165812
60.408401 67.312004 -0.80546445
60.304722 67.407608 -0.69341445
60.331898 67.382553 -0.55267823
60.172146 67.529861 -0.43403694
59.847404 67.82933 -0.31480536
64 64 -0
58.609348 68.971001 0
34.585663 91.124496 1.1174524
60.458977 67.257454 -0.79323918
60.267361 67.433723 -0.69964588
60.346508 67.360916 -0.54986435
60.182999 67.51133 -0.43232507
59.869431 67.799789 -0.31278703
64 64 -0
58.542057 69.020866 0
34.510845 91.127632 1.1190485
60.476887 67.233124 -0.78835094
60.274311 67.419029 -0.69756877
60.338711 67.359932 -0.55042672
60.167408 67.517136 -0.43360937
59.845791 67.812279 -0.31422821
64 64 -0
58.532162 69.017784 0
34.435966 91.13063 1.1206452
60.502151 67.202164 -0.78183126
60.299789 67.387421 -0.69203144
60.330894 67.358948 -0.55099118
60.189671 67.488228 -0.43061319
59.845001 67.803764 -0.3139402
64 64 -0
58.564487 68.976036 0
34.384041 91.112434 1.1213707
60.421635 67.267937 -0.79894471
60.258656 67.416779 -0.69895172
60.300583 67.378487 -0.55492979
60.155132 67.511322 -0.43403694
59.855686 67.78479 -0.31278703
64 64 -0
58.52005 69.004555 0
34.312935 91.111664 1.1228218
60.416016 67.269104 -0.79975891
60.289951 67.384087 -0.69272298
60.31356 67.362556 -0.55267823
60.168182 67.495155 -0.43232507
59.845749 67.789261 -0.31336415
64 64 -0
58.497791 69.018791 0
34.262009 91.125244 1.124128
60.45594 67.224846 -0.78997934
60.285866 67.379601 -0.69272298
60.324532 67.344421 -0.55042672
60.144981 67.507797 -0.43446448
59.829704 67.794678 -0.31422821
64 64 -0
58.487885 69.01564 0
34.194653 91.120781 1.1254346
60.463032 67.210594 -0.78753364
60.285496 67.371742 -0.69203144
60.309204 67.350227 -0.55211592
60.174953 67.472084 -0.43061319
59.825123 67.789635 -0.31422821
64 64 -0
58.524227 68.97049 0
34.119587 91.123154 1.1270307
60.393192 67.266045 -0.80220461
60.337215 67.316734 -0.68164837
60.32399 67.328712 -0.54930198
60.174564 67.46402 -0.43018565
59.824379 67.78112 -0.3139402
64 64 -0
58.444916 69.030251 0
34.063713 91.107971 1.1279019
60.491959 67.168907 -0.77938557
60.333214 67.312302 -0.68164837
60.331284 67.314041 -0.54761285
60.17038 67.459389 -0.43018565
59.823647 67.772606 -0.31365219
64 64 -0
58.485191 68.981667 0
33.996277 91.103127 1.129208
60.469772 67.181206 -0.7834596
60.310566 67.324677 -0.68511117
60.315956 67.319817 -0.54930198
60.189095 67.434135 -0.42761701
59.819092 67.767555 -0.31365219
64 64 -0
58.351578 69.089981 0
33.921097 91.10511 1.1308041
60.443867 67.19677 -0.78835094
60.358799 67.273247 -0.67541957
60.334629 67.294975 -0.54592365
60.184948 67.429527 -0.42761701
59.826088 67.752121 -0.31278703
64 64 -0
58.566067 68.884811 0
33.869045 91.086121 1.1315297
60.502567 67.136375 -0.77449733
60.392193 67.235352 -0.66849929
60.326855 67.293945 -0.54648811
60.154049 67.448914 -0.43061319
59.794594 67.771255 -0.31480536
64 64 -0
58.474926 68.954689 0
33.793777 91.08786 1.1331264
60.380901 67.237595 -0.80057311
60.399509 67.220947 -0.66642213
60.33046 67.282722 -0.54536128
60.149883 67.44426 -0.43061319
59.817032 67.742027 -0.31278703
64 64 -0
58.42239 68.989655 0
33.722343 91.085983 1.1345774
60.432304 67.183861 -0.78835094
60.361931 67.246658 -0.67265093
60.299953 67.301971 -0.54930198
60.149551 67.436195 -0.43018565
59.80093 67.747307 -0.31365219
64 64 -0
58.447433 68.955185 0
33.662491 91.073608 1.1355935
60.472664 67.132561 -0.77775717
60.414108 67.184563 -0.66157901
60.32238 67.266022 -0.54479891
60.160465 67.409821 -0.42804456
59.830574 67.702789 -0.31076869
64 64 -0
58.614475 68.782784 0
33.507774 91.079582 1.1389319
60.3764 67.210228 -0.79812741
60.414028 67.176895 -0.66088486
60.318439 67.261581 -0.54479891
60.160187 67.401779 -0.42761701
59.748665 67.766357 -0.31653455
64 64 -0
64 64 0
33.443974 91.070282 1.1400925
60.454002 67.133842 -0.78019977
60.376358 67.202461 -0.6671136
60.310696 67.26049 -0.54536128
60.136848 67.414131 -0.42975643
59.767365 67.740669 -0.31480536
64 64 -0
64 64 0
33.380135 91.060867 1.1412536
60.461334 67.119759 -0.77775717
60.395069 67.178177 -0.66296196
60.322006 67.242584 -0.54310971
60.148129 67.395882 -0.42804456
59.770615 67.728706 -0.31422821
64 64 -0
64 64 0
33.312378 91.054779 1.1425596
60.472412 67.102417 -0.77449733
60.41383 67.153946 -0.65881032
60.321903 67.234787 -0.5425474
60.167152 67.370888 -0.42547759
59.738918 67.747505 -0.31624654
64 64 -0
64 64 0
33.244576 91.048576 1.1438664
60.312622 67.235054 -0.80872118
60.37608 67.179382 -0.66503912
60.314182 67.233688 -0.54310971
60.147644 67.379799 -0.42718947
59.718842 67.756004 -0.31739971
64 64 -0
64 64 0
33.172859 91.045662 1.1453174
60.461208 67.097137 -0.77531153
60.410004 67.141953 -0.65811616
60.306442 67.23259 -0.54367423
60.116516 67.398811 -0.43018565
59.733765 67.733795 -0.31595853
64 64 -0
64 64 0
33.093273 91.049469 1.1470592
64 64 -0
60.39109 67.15081 -0.66088486
60.302536 67.228127 -0.54367423
60.135624 67.373848 -0.42761701
59.729256 67.728638 -0.31595853
64 64 -0
64 64 0
33.029293 91.039444 1.1482203
60.457458 67.085335 -0.77449733
60.394848 67.139862 -0.65950185
60.290981 67.230324 -0.54479891
60.139286 67.362442 -0.4267619
59.740356 67.709885 -0.31480536
64 64 -0
64 64 0
32.973137 91.022476 1.1490909
60.416428 67.113464 -0.7826454
60.409992 67.119057 -0.65604168
60.298595 67.215836 -0.54310971
60.127483 67.364502 -0.42761701
59.739792 67.701332 -0.31451622
64 64 -0
64 64 0
32.897354 91.022461 1.1506875
60.427608 67.096184 -0.77938557
60.383484 67.13443 -0.66019332
60.306221 67.201385 -0.54142272
60.131172 67.353104 -0.4267619
59.704052 67.723289 -0.31682256
64 64 -0
64 64 0
32.829384 91.015488 1.1519936
60.50613 67.020744 -0.76145786
60.417645 67.097244 -0.65327305
60.28698 67.21022 -0.54367423
60.111588 67.361855 -0.42847377
59.71521 67.704559 -0.31566939
64 64 -0
64 64 0
32.745659 91.021988 1.1538802
60.349026 67.148872 -0.79486758
60.387321 67.115845 -0.65811616
60.298496 67.192451 -0.54142272
60.115311 67.350441 -0.42761701
59.695068 67.712891 -0.31682256
64 64 -0
58.336815 68.884354 0
32.677616 91.014748 1.1551864
60.348965 67.141235 -0.79405338
60.372143 67.1213 -0.66019332
60.29464 67.187981 -0.54142272
60.130722 67.32901 -0.42547759
59.714104 67.687454 -0.31509337
64 64 -0
64 64 0
32.621368 90.997208 1.156057
60.427689 67.066002 -0.77612573
60.421673 67.071167 -0.65050441
60.263809 67.206657 -0.54536128
60.126701 67.324333 -0.42547759
59.709652 67.682274 -0.31509337
64 64 -0
64 64 0
32.553268 90.989746 1.1573637
60.499088 66.997383 -0.75982642
60.330311 67.141884 -0.66642213
60.286949 67.179016 -0.54142272
60.126587 67.316315 -0.42505002
59.716999 67.666992 -0.31422821
64 64 -0
64 64 0
32.477264 90.988899 1.1589597
60.388329 67.088432 -0.7834596
60.385605 67.090767 -0.65604168
60.285027 67.176773 -0.54142272
60.085571 67.347328 -0.42932889
59.667603 67.704742 -0.31768772
64 64 -0
64 64 0
32.421463 91.003632 1.1604115
60.444775 67.032738 -0.77042013
60.347519 67.1157 -0.66227049
60.273468 67.178871 -0.5425474
60.097153 67.329269 -0.42761701
59.706425 67.662575 -0.31451622
64 64 -0
64 64 0
32.345375 91.002548 1.1620076
60.508869 66.970779 -0.75575233
60.336124 67.117783 -0.66365349
60.277363 67.167786 -0.54142272
60.128319 67.294609 -0.42376572
59.658665 67.694267 -0.31768772
64 64 -0
64 64 0
32.285061 90.987854 1.1630237
60.486443 66.982552 -0.75982642
60.389725 67.064651 -0.65327305
60.273537 67.163284 -0.54142272
60.104774 67.306541 -0.42590514
59.677856 67.668938 -0.31595853
64 64 -0
64 64 0
32.193058 90.999954 1.1652004
60.528111 66.939972 -0.75004679
60.37455 67.070007 -0.65534753
60.277481 67.152206 -0.54029584
60.132126 67.275291 -0.42248142
59.697121 67.643646 -0.31422821
64 64 -0
64 64 0
32.120789 90.995094 1.166652
60.490562 66.964493 -0.75738382
60.366997 67.068871 -0.65604168
60.293083 67.13131 -0.53748196
60.092876 67.30043 -0.42633271
59.64925 67.675171 -0.31739971
64 64 -0
64 64 0
32.056435 90.983383 1.1678132
60.452965 66.988914 -0.76471776
60.367142 67.061234 -0.65534753
60.281536 67.133369 -0.53860664
60.092815 67.292397 -0.42590514
59.652733 67.663239 -0.31682256
64 64 -0
64 64 0
32.000015 90.964851 1.1686836
60.472069 66.965538 -0.75982642
60.325027 67.089134 -0.66227049
60.281639 67.12561 -0.53804433
60.136002 67.248032 -0.42076954
59.632469 67.671295 -0.31797573
64 64 -0
64 64 0
31.93166 90.956253 1.1699898
60.434402 66.989853 -0.7671603
60.367435 67.046005 -0.65396452
60.277866 67.121117 -0.53804433
60.104534 67.266457 -0.42376572
59.64389 67.652718 -0.31682256
64 64 -0
64 64 0
31.851322 90.957558 1.1717315
60.472488 66.950668 -0.75819802
60.363758 67.041618 -0.65396452
60.289688 67.103569 -0.53579277
60.096657 67.265038 -0.42419326
59.631538 67.654099 -0.31739971
64 64 -0
64 64 0
31.766956 90.962036 1.1736182
60.468925 66.946404 -0.75819802
60.352386 67.04364 -0.65534753
60.270332 67.112106 -0.53804433
60.076946 67.273476 -0.42590514
59.643013 67.635559 -0.31624654
64 64 -0
64 64 0
31.698494 90.953033 1.1749243
60.438782 66.964256 -0.76390046
60.379547 67.013565 -0.64981288
60.270477 67.104355 -0.53748196
60.076935 67.26545 -0.42547759
59.614777 67.650139 -0.31797573
64 64 -0
64 64 0
31.630005 90.943901 1.1762304
60.484642 66.918907 -0.75330669
60.318016 67.057259 -0.66019332
60.243279 67.119316 -0.54085821
60.076939 67.257431 -0.42505002
59.606377 67.648155 -0.31826484
64 64 -0
64 64 0
31.55349 90.941292 1.177827
60.427811 66.958809 -0.76471776
60.349098 67.024002 -0.65396452
60.251244 67.105057 -0.53917116
60.088821 67.239594 -0.42333817
59.621902 67.626335 -0.31682256
64 64 -0
64 64 0
31.476929 90.938538 1.1794237
60.408997 66.967087 -0.7679776
60.314503 67.045158 -0.65950185
60.259251 67.090813 -0.53748196
60.092834 67.228317 -0.42248142
59.625492 67.614456 -0.31624654
64 64 -0
64 64 0
31.412369 90.92569 1.1805843
60.462635 66.915581 -0.75575233
60.326313 67.027939 -0.65673321
60.279053 67.066895 -0.53410357
60.088936 67.223595 -0.42248142
59.621128 67.609169 -0.31624654
64 64 -0
57.968002 68.971718 0
31.327713 90.929276 1.1824715
60.382751 66.974091 -0.77205163
60.342033 67.007568 -0.65327305
60.251789 67.081764 -0.53748196
60.041416 67.25473 -0.42718947
59.57682 67.636726 -0.3191289
64 64 -0
58.118786 68.83551 0
31.259075 90.919479 1.1837776
60.382977 66.966583 -0.77123749
60.342278 66.999969 -0.65258157
60.240219 67.083672 -0.53860664
60.069244 67.2239 -0.42376572
59.580421 67.624825 -0.31855288
64 64 -0
58.024414 68.901016 0
31.190411 90.909554 1.1850837
60.410004 66.937172 -0.76471776
60.338654 66.995544 -0.65258157
60.248283 67.069481 -0.53691965
60.073292 67.212654 -0.4229106
59.596058 67.603104 -0.3171117
64 64 -0
58.014458 68.897095 0
31.121723 90.899506 1.1863898
60.456238 66.892204 -0.75412399
60.338936 66.987938 -0.65188742
60.23671 67.071365 -0.53804433
60.085323 67.194923 -0.42119873
59.547634 67.633751 -0.32028207
64 64 -0
57.863392 69.008324 0
31.048988 90.892609 1.1878409
60.50642 66.844223 -0.74271291
60.346992 66.974014 -0.64981288
60.236938 67.063614 -0.53748196
60.061562 67.20639 -0.42333817
59.56731 67.60878 -0.31855288
64 64 -0
64 64 0
30.968159 90.892151 1.1895827
60.353333 66.961533 -0.77449733
60.351196 66.963264 -0.64842725
60.237183 67.055862 -0.53691965
60.049728 67.208099 -0.42419326
59.554932 67.609932 -0.3191289
64 64 -0
57.871506 68.977081 0
30.895355 90.884972 1.1910337
60.445778 66.879341 -0.75412399
60.339813 66.965179 -0.64981288
60.23349 67.051315 -0.53691965
60.073769 67.18071 -0.42119873
59.542526 67.611076 -0.31970605
64 64 -0
57.99086 68.868111 0
30.802319 90.894028 1.193211
60.496136 66.831535 -0.74271291
60.312828 66.979675 -0.65396452
60.24958 67.030785 -0.53410357
60.018021 67.217911 -0.4267619
59.546219 67.599182 -0.3191289
64 64 -0
57.831154 68.985161 0
30.72538 90.889824 1.1948076
60.41959 66.886246 -0.75819802
60.246727 67.025597 -0.66503912
60.234051 67.03582 -0.53579277
60.078087 67.161545 -0.41991442
59.557983 67.580811 -0.31797573
64 64 -0
57.898083 68.918892 0
30.652462 90.88221 1.1962588
60.369881 66.91909 -0.7679776
60.31345 66.96447 -0.65258157
60.238297 67.024902 -0.53466809
60.046261 67.179329 -0.4229106
59.553658 67.575439 -0.31797573
58.728874 68.238678 -0.18890439
57.884026 68.918045 0
30.587605 90.86795 1.1974199
60.364265 66.919991 -0.76879179
60.296028 66.9748 -0.65534753
60.236469 67.022629 -0.53466809
60.080376 67.147995 -0.41905767
59.527294 67.592194 -0.31970605
64 64 -0
57.958164 68.852425 0
30.526817 90.883545 1.199016
60.372318 66.906319 -0.7663461
60.312012 66.954636 -0.65188742
60.24472 67.008545 -0.53297889
60.012466 67.194618 -0.42590514
59.535072 67.57708 -0.31884089
64 64 -0
57.838566 68.936241 0
30.453793 90.87558 1.2004677
60.380398 66.892677 -0.76390046
60.304512 66.953323 -0.65258157
60.241089 67.004005 -0.53297889
60.060745 67.148132 -0.42034197
59.518623 67.581375 -0.31970605
64 64 -0
57.816341 68.941788 0
30.380753 90.867462 1.2019188
60.446472 66.83284 -0.74923265
60.304882 66.945717 -0.65188742
60.229523 67.005791 -0.53410357
60.044895 67.152969 -0.4216263
59.477901 67.60498 -0.3223004
64 64 -0
57.810371 68.934311 0
30.29549 90.868935 1.2038054
60.357941 66.896225 -0.7671603
60.313095 66.931892 -0.64981288
60.221905 67.004402 -0.53466809
60.025017 67.160973 -0.42333817
59.489742 67.586632 -0.32114723
64 64 -0
57.77998 68.946266 0
30.226444 90.8573 1.2051116
60.458996 66.808891 -0.74515855
60.309555 66.927429 -0.64981288
60.222271 66.996674 -0.53410357
60.005112 67.16893 -0.42505002
59.481361 67.584389 -0.32143524
58.692673 68.210014 -0.18919495
57.790321 68.925804 0
30.145161 90.855225 1.2068533
60.38195 66.862892 -0.76064372
60.306019 66.922974 -0.64981288
60.214657 66.995262 -0.53466809
60.053619 67.122688 -0.41948688
59.505436 67.556458 -0.31941691
64 64 -0
57.739468 68.953827 0
30.071976 90.84655 1.208305
60.421177 66.824821 -0.75167829
60.294621 66.924713 -0.65119588
60.21104 66.990692 -0.53466809
60.037773 67.127449 -0.42076954
59.476772 67.570259 -0.32114723
64 64 -0
57.73349 68.946259 0
29.994701 90.840942 1.2099011
60.406113 66.829674 -0.75412399
60.302921 66.910919 -0.64911872
60.231392 66.967239 -0.5312897
60.054161 67.106781 -0.41863012
59.439945 67.590393 -0.32345358
64 64 -0
57.780678 68.896828 0
29.921455 90.831993 1.2113527
60.437679 66.797852 -0.74679005
60.271782 66.928146 -0.65396452
60.21981 66.968971 -0.53241652
60.054443 67.098846 -0.41820255
59.468155 67.559319 -0.32114723
64 64 -0
57.680626 68.963249 0
29.844112 90.826096 1.2129488
60.418751 66.805733 -0.75004679
60.236649 66.948395 -0.65950185
60.216225 66.964401 -0.53241652
60.058777 67.087753 -0.41734743
59.443504 67.569786 -0.32258841
64 64 -0
57.629562 68.990921 0
29.770805 90.816864 1.2144005
60.337467 66.862274 -0.7663461
60.288429 66.900597 -0.64981288
60.224663 66.950432 -0.53072733
59.998421 67.127243 -0.42333817
59.443264 67.561096 -0.3223004
58.58041 68.23542 -0.19209719
57.562012 69.031296 0
29.6852 90.817078 1.2162873
60.334011 66.857849 -0.7663461
60.292847 66.889938 -0.64842725
60.205067 66.958366 -0.53297889
59.998692 67.119247 -0.4229106
59.430813 67.561943 -0.32287642
64 64 -0
57.531315 69.042709 0
29.603653 90.813927 1.2180283
60.350067 66.838249 -0.76227206
60.218071 66.940895 -0.66088486
60.205505 66.950661 -0.53241652
60.031414 67.086037 -0.41905767
59.455086 67.534203 -0.32085922
64 64 -0
57.508793 69.047668 0
29.534344 90.801071 1.219335
60.393509 66.797478 -0.75249249
60.273979 66.890198 -0.65050441
60.185879 66.958534 -0.53466809
60.007393 67.096985 -0.42119873
59.430386 67.544556 -0.3223004
64 64 -0
29.422249 90.821259 0
29.444504 90.803986 1.2213666
60.429222 66.762878 -0.74434441
60.282398 66.87648 -0.64842725
60.19437 66.944595 -0.53297889
60.011784 67.085869 -0.42034197
59.41383 67.548531 -0.32316554
64 64 -0
29.385754 90.782639 0
29.366928 90.797203 1.2229633
60.429794 66.755539 -0.74353021
60.243179 66.899574 -0.65465605
60.178741 66.94931 -0.53466809
60.012115 67.077911 -0.41991442
59.405453 67.546143 -0.32345358
64 64 -0
29.332817 90.756691 0
29.285221 90.793427 1.2247045
60.359886 66.80249 -0.75738382
60.259552 66.87973 -0.65119588
60.191288 66.932289 -0.53241652
60.032803 67.054306 -0.41734743
59.429867 67.518501 -0.32143524
58.553963 68.192848 -0.19195218
29.279881 90.730667 0
29.228157 90.770493 1.2255756
60.387867 66.774002 -0.75086415
60.27597 66.859932 -0.64773577
60.195816 66.921486 -0.5312897
60.012844 67.062004 -0.41905767
59.388699 67.541328 -0.32402959
58.623081 68.129295 -0.18933995
29.226971 90.704544 0
29.183479 90.737946 1.2260106
60.447304 66.721535 -0.73782468
60.264557 66.861526 -0.64911872
60.172119 66.932343 -0.53410357
60.017288 67.050949 -0.41820255
59.400848 67.52317 -0.32287642
58.539722 68.182831 -0.19209719
29.198872 90.659332 0
29.184185 90.670578 1.2248501
60.404747 66.747246 -0.74597275
60.169403 66.927086 -0.66503912
60.180683 66.918465 -0.53241652
59.985046 67.067955 -0.42119873
59.384262 67.527039 -0.32374159
58.464478 68.229874 -0.19456442
24.857418 93.91011 0
29.222179 90.57486 1.2223828
60.366638 66.762489 -0.75249249
60.178318 66.90567 -0.66227049
60.177681 66.906151 -0.53185421
59.944946 67.083107 -0.42462248
59.346924 67.537788 -0.32575992
51.781704 73.289711 -0.42866254
64 64 0
29.273895 90.402664 1.2183188
60.384651 66.745346 -0.74841845
60.232498 66.860886 -0.65258157
60.179985 66.900764 -0.5312897
59.992153 67.043396 -0.41948688
59.344784 67.534981 -0.32575992
51.829895 73.241478 -0.42677587
64 64 0
25.58284 93.172409 1.347196
60.369511 66.749931 -0.75086415
60.273045 66.823006 -0.64496714
60.172421 66.899223 -0.53185421
59.963928 67.057144 -0.42205384
59.35289 67.519974 -0.32489476
58.434208 68.215843 -0.19499998
64 64 0
25.551758 93.122833 1.347051
60.322819 66.778313 -0.75982642
60.241608 66.839676 -0.64981288
60.181087 66.885399 -0.53016502
59.943851 67.064644 -0.42376572
59.34864 67.514359 -0.32489476
64 64 -0
64 64 0
25.504169 93.085739 1.347486
60.287884 66.797668 -0.7663461
60.214146 66.853241 -0.65396452
60.161373 66.893021 -0.53241652
59.98526 67.025749 -0.41905767
59.336143 67.514961 -0.32547078
51.867027 73.144127 -0.42430863
64 64 0
25.473198 93.036079 1.3473411
60.316113 66.769424 -0.75982642
60.238781 66.82756 -0.64911872
60.145706 66.89753 -0.53410357
59.981606 67.020897 -0.41905767
59.356701 67.490677 -0.32374159
51.78537 73.182549 -0.42677587
64 64 0
25.471375 92.964523 1.34618
60.304852 66.770905 -0.76145786
60.243385 66.816994 -0.64773577
60.170654 66.871536 -0.53016502
59.982063 67.012962 -0.41863012
59.315247 67.512993 -0.32633594
51.969688 73.021255 -0.41995472
51.674999 73.242233 0
51.537506 73.345337 0.43504143
60.289642 66.775314 -0.76390046
60.231956 66.818459 -0.64911872
60.179398 66.857773 -0.52847582
59.95787 67.023476 -0.42076954
59.323433 67.498032 -0.32547078
51.721611 73.184128 -0.42822698
51.663841 73.227333 0
64 64 0
60.357601 66.717621 -0.74923265
60.248657 66.798904 -0.64565861
60.159657 66.865311 -0.53072733
59.945984 67.024734 -0.4216263
59.323353 67.489288 -0.32518277
58.449612 68.14119 -0.1934033
51.665203 73.203094 0
64 64 0
60.374146 66.698471 -0.74515855
60.221123 66.812347 -0.64981288
60.152126 66.863701 -0.5312897
59.892906 67.056618 -0.4267619
59.269341 67.520691 -0.32864228
58.390419 68.174812 -0.19528997
51.70837 73.147789 0
64 64 0
60.31929 66.732384 -0.75575233
60.157307 66.852638 -0.66019332
60.095627 66.898422 -0.53860664
59.946938 67.008804 -0.42076954
59.298321 67.490303 -0.32633594
58.339474 68.20211 -0.19688664
51.688976 73.13913 0
64 64 0
60.292149 66.74559 -0.76064372
60.262726 66.76738 -0.64150697
60.141121 66.85743 -0.53185421
59.947426 67.000854 -0.42034197
59.256695 67.512329 -0.32893029
58.37616 68.164345 -0.19543552
51.703033 73.105667 0
64 64 0
60.296795 66.735229 -0.75901222
60.219032 66.792664 -0.64842725
60.141769 66.849731 -0.5312897
59.877728 67.044754 -0.42718947
59.260769 67.50045 -0.32835427
58.371132 68.157547 -0.19543552
51.704605 73.08152 0
51.478432 73.248573 0.43475142
60.305435 66.721954 -0.75656652
60.11871 66.859528 -0.66503912
60.158783 66.830002 -0.52847582
59.911247 67.012367 -0.42333817
59.28154 67.476303 -0.32662395
58.294987 68.20314 -0.19790277
51.710403 73.054306 0
51.467266 73.233437 0.43475142
60.290195 66.726273 -0.75901222
60.232506 66.768669 -0.64496714
60.126698 66.846428 -0.53241652
59.907612 67.007423 -0.42333817
59.264832 67.479797 -0.32748911
58.382034 68.128548 -0.19470997
51.699471 73.039452 0
51.464504 73.212128 0.43446088
60.314816 66.701332 -0.75330669
60.212975 66.775978 -0.64773577
60.127354 66.838745 -0.53185421
59.916409 66.99337 -0.42205384
59.223087 67.501595 -0.33008346
58.205223 68.247711 -0.20065999
51.684364 73.027657 0
51.461754 73.190834 0.43417087
60.331501 66.682289 -0.74923265
60.209625 66.7714 -0.64773577
60.136238 66.825058 -0.53016502
59.883778 67.009651 -0.42505002
59.248077 67.474457 -0.32806623
58.283981 68.179375 -0.19775777
51.694466 72.997414 0
51.47163 73.160339 0.4334453
60.296314 66.701157 -0.75575233
60.177898 66.787521 -0.65258157
60.099979 66.844345 -0.53466809
59.900883 66.989548 -0.4229106
59.227165 67.480904 -0.3292194
58.295731 68.16021 -0.1971772
51.713047 72.96106 0
51.489967 73.123756 0.43242919
60.337013 66.664703 -0.74679005
60.21106 66.756325 -0.64635009
60.084229 66.848587 -0.53635514
59.913879 66.972511 -0.42119873
59.231335 67.46904 -0.32864228
58.328541 68.125793 -0.19587053
51.714844 72.937035 0
51.48315 73.105583 0.43228418
60.285797 66.695099 -0.75656652
60.215847 66.745857 -0.64496714
60.072556 66.849831 -0.53748196
59.881214 66.98867 -0.42419326
59.206219 67.478462 -0.33008346
58.22261 68.192184 -0.19935387
51.699844 72.92524 0
51.47636 73.087402 0.43213919
60.258511 66.708 -0.76145786
60.232853 66.726578 -0.64150697
60.03207 66.871895 -0.5425474
59.865128 66.992729 -0.42547759
59.19363 67.478745 -0.33066061
58.145985 68.237 -0.2018211
51.701721 72.901207 0
51.473816 73.066162 0.43184865
60.351433 66.634041 -0.74189872
60.18074 66.757263 -0.64981288
60.098644 66.816536 -0.53297889
59.849022 66.99675 -0.4267619
59.193634 67.469894 -0.33037147
58.077663 68.275558 -0.20399834
51.707855 72.874161 0
51.488144 73.032776 0.43097809
60.239956 66.707611 -0.76390046
60.193699 66.740921 -0.64704424
60.012764 66.871208 -0.5442366
59.862068 66.979729 -0.42505002
59.206223 67.452003 -0.3292194
58.127319 68.22892 -0.20211166
51.684467 72.868423 0
51.477242 73.017654 0.43097809
60.329018 66.636749 -0.74515855
60.210777 66.721672 -0.64358145
59.996929 66.875275 -0.54592365
59.862637 66.971733 -0.42462248
59.160046 67.476379 -0.33210179
58.012478 68.300644 -0.20588501
51.694893 72.838356 0
51.466354 73.00251 0.43097809
60.325832 66.632309 -0.74515855
60.125916 66.775536 -0.65742469
59.964539 66.891159 -0.54986435
59.871574 66.957756 -0.42333817
59.197891 67.440407 -0.3292194
58.032642 68.275238 -0.2050139
51.692696 72.817413 0
51.472382 72.975258 0.43039751
60.364437 66.601334 -0.73701048
60.218082 66.706055 -0.64150697
60.053703 66.823669 -0.53748196
59.823868 66.988121 -0.42804456
59.166378 67.458572 -0.33123663
57.958214 68.323036 -0.20748113
51.700058 72.800903 0
51.471184 72.964661 0.43025252
60.304974 66.637131 -0.74841845
60.186237 66.721878 -0.64635009
59.97998 66.86908 -0.54705048
59.874584 66.944298 -0.42248142
59.166412 67.449722 -0.33094862
57.826103 68.406296 -0.21183504
51.69368 72.782997 0
51.498444 72.92234 0.42894584
60.317898 66.621201 -0.74515855
60.187035 66.714355 -0.64565861
60.067589 66.799393 -0.53466809
59.845928 66.957184 -0.42505002
59.153824 67.449875 -0.33152464
57.922375 68.326515 -0.20835225
51.712746 72.747002 0
51.496132 72.901207 0.42865583
60.230099 66.676849 -0.76227206
60.093761 66.773651 -0.66088486
60.109791 66.762268 -0.52847582
59.833992 66.958099 -0.42590514
59.141216 67.450012 -0.33210179
57.946819 68.298103 -0.20733613
51.723419 72.717072 0
51.502335 72.874054 0.42807528
60.303501 66.618011 -0.74679005
60.176395 66.708031 -0.64635009
59.940575 66.875053 -0.55099118
59.842979 66.944176 -0.42462248
59.124382 67.45311 -0.33296692
57.886501 68.329834 -0.20922281
51.721382 72.69622 0
51.491623 72.858948 0.42807528
60.280155 66.6278 -0.75086415
60.132137 66.732368 -0.65327305
59.999367 66.826164 -0.5425474
59.826855 66.948029 -0.42590514
59.124451 67.444221 -0.33267781
57.796379 68.382408 -0.2121256
51.71513 72.678375 0
51.489407 72.837837 0.42778528
60.301235 66.606216 -0.74597275
60.202675 66.675667 -0.64081281
60.029186 66.797905 -0.53804433
59.823296 66.942986 -0.42590514
59.111828 67.444298 -0.33325496
57.880299 68.312057 -0.20907781
51.708904 72.66053 0
51.491486 72.813728 0.42734972
60.27787 66.615952 -0.75004679
60.187126 66.679733 -0.64288998
59.917717 66.86908 -0.55267823
59.819744 66.937935 -0.42590514
59.09074 67.450287 -0.33440813
57.832584 68.334534 -0.21052893
51.711227 72.636696 0
51.493607 72.789642 0.42691416
60.294949 66.597275 -0.74597275
60.171562 66.683769 -0.64496714
59.993305 66.808723 -0.54198503
59.795181 66.947609 -0.42804456
59.112 67.426529 -0.33267781
57.882668 68.2883 -0.20864224
51.692284 72.627808 0
51.470222 72.783478 0.42734972
60.263451 66.612625 -0.75167829
60.164215 66.682014 -0.64565861
59.864979 66.891235 -0.55887049
59.825268 66.919006 -0.42462248
59.078182 67.441376 -0.33469614
57.800819 68.334518 -0.21125503
51.703194 72.598022 0
51.480911 72.753441 0.42662418
60.240028 66.622246 -0.75575233
60.169197 66.671638 -0.64427561
60.032383 66.767059 -0.53579277
59.855431 66.890465 -0.42119873
59.091 67.423584 -0.33354297
57.804119 68.321068 -0.21096447
51.705627 72.574219 0
51.495926 72.720467 0.42575306
60.244972 66.612061 -0.75412399
60.153629 66.675598 -0.64635009
60.016525 66.770966 -0.53748196
59.805595 66.917694 -0.42590514
59.099609 67.408791 -0.33267781
57.82877 68.292801 -0.20994836
51.712364 72.54747 0
51.485397 72.705353 0.42575306
60.278366 66.582161 -0.74679005
64 64 -0
59.979774 66.78933 -0.54198503
59.823158 66.897995 -0.42376572
59.061493 67.426453 -0.33498415
57.716846 68.359406 -0.2135767
51.723427 72.517784 0
51.49197 72.678375 0.42517251
60.287445 66.569221 -0.74434441
64 64 -0
59.901199 66.836517 -0.55211592
59.806992 66.901711 -0.42505002
59.04884 67.426376 -0.33556131
57.771404 68.31041 -0.21154504
51.730263 72.491096 0
51.502853 72.648468 0.42444694
60.272137 66.573158 -0.74679005
60.160473 66.650238 -0.64358145
59.914505 66.820015 -0.54986435
59.782364 66.911224 -0.42718947
59.040451 67.423332 -0.33584931
57.727711 68.329453 -0.21285115
51.737144 72.464439 0
51.509521 72.621552 0.42386639
60.228321 66.59668 -0.75493819
60.18206 66.628525 -0.63942981
60.028301 66.73439 -0.53410357
59.787315 66.900299 -0.42633271
59.057617 67.402672 -0.33440813
57.713913 68.327766 -0.21314171
51.726929 72.449615 0
51.494839 72.609398 0.42401138
60.253716 66.572525 -0.74923265
60.154079 66.640945 -0.64358145
59.941216 66.787117 -0.54536128
59.745712 66.921371 -0.43018565
59.019394 67.42012 -0.33671448
57.687275 68.334877 -0.21386726
51.716728 72.434776 0
51.493004 72.588409 0.42372137
60.246536 66.570793 -0.75004679
60.1633 66.6278 -0.64150697
59.95462 66.770729 -0.54310971
59.754894 66.907524 -0.42890131
59.023811 67.408249 -0.33613732
57.66489 68.338989 -0.21444783
51.723721 72.408165 0
51.486919 72.570351 0.42357638
60.247509 66.563469 -0.74923265
60.147709 66.631645 -0.64358145
