# .PCD v0.7 - Point Cloud Data file format
VERSION 0.7
FIELDS x y z
SIZE 4 4 4
TYPE F F F
COUNT 1 1 1
WIDTH 1644
HEIGHT 1
VIEWPOINT 0 0 0 1 0 0 0
POINTS 1644
DATA ascii
84.706963 51.533394 0
84.375046 51.733223 0.66420507
72.786377 58.724625 -0.85427862
74.545959 57.668167 -0.68553001
84.831123 51.492912 -0.67857963
84.722015 51.558422 0
84.380936 51.763206 0.6639145
72.792747 58.735245 -0.85427862
74.553604 57.680912 -0.68553001
84.855148 51.512749 -0.67887014
84.799545 51.54604 0
84.368958 51.803856 0.66304398
72.778297 58.751099 -0.85256672
74.548531 57.692604 -0.68495286
84.835915 51.541355 -0.67799902
84.815987 51.553272 0
84.371872 51.818829 0.66289896
72.784637 58.761707 -0.85256672
74.565033 57.70005 -0.68553001
84.815247 51.587833 -0.67683792
84.844429 51.570435 0
84.350861 51.864746 0.66173786
72.795364 58.769707 -0.85299426
74.559296 57.720757 -0.68466485
84.790031 51.636898 -0.6755318
84.846008 51.603611 0
84.347641 51.899971 0.66115731
72.801682 58.780334 -0.85299426
74.57132 57.730885 -0.68495286
64 64 -0
84.76696 51.684563 0
84.344376 51.935169 0.66057676
72.799149 58.796196 -0.85213917
74.587807 57.738392 -0.68553001
64 64 -0
84.660873 51.781193 0
84.345512 51.967697 0.66014117
72.81427 58.80162 -0.85299426
74.59536 57.75119 -0.68553001
64 64 -0
84.563538 51.872269 0
84.346619 52.000202 0.65970618
72.82238 58.825531 -0.85256672
74.56134 57.805603 -0.6823585
84.895729 51.74432 -0.67654794
84.660141 51.882496 0
84.348648 52.065189 0.65883505
72.833054 58.833607 -0.85299426
74.573303 57.81575 -0.68264765
84.861176 51.798439 -0.67495126
84.715195 51.88382 0
84.358582 52.092407 0.65869004
72.830429 58.849453 -0.85213917
74.585228 57.825924 -0.68293566
84.93425 51.789619 -0.67683792
84.932129 51.790863 0
84.354996 52.127487 0.65810949
72.810013 58.875618 -0.84957057
74.588211 57.841316 -0.68264765
84.926537 51.827988 -0.67611235
85.005371 51.782135 0
84.360329 52.157322 0.65781897
72.833961 58.875965 -0.85128242
74.59565 57.854118 -0.68264765
84.968208 51.837631 -0.67698348
84.984093 51.828415 0
84.334167 52.205399 0.65651286
72.831261 58.891777 -0.85042733
74.594101 57.872108 -0.68207049
85.063858 51.816143 -0.67959571
85.030312 51.835545 0
84.343918 52.232574 0.65636784
72.841873 58.899891 -0.85085487
74.610466 57.879738 -0.68264765
85.15509 51.797462 -0.68206292
85.085571 51.837563 0
75.679306 57.263222 0.37655342
72.852478 58.90802 -0.85128242
74.626816 57.887413 -0.68322366
85.192337 51.810081 -0.68278849
85.136345 51.842285 0
75.727974 57.254021 0.37785953
72.867538 58.913605 -0.85213917
74.625229 57.905399 -0.68264765
85.252121 51.809845 -0.68423963
85.178116 51.852291 0
75.749649 57.260437 0.37829509
72.860306 58.931973 -0.85085487
74.61911 57.925949 -0.68178248
85.31646 51.807144 -0.68583632
85.219879 51.862389 0
75.771317 57.266895 0.37873065
72.861961 58.945225 -0.85042733
74.617447 57.943916 -0.68120533
85.331177 51.832912 -0.68583632
85.270699 51.867405 0
75.761391 57.291424 0.37815011
72.860558 58.953117 -0.84999973
74.62561 57.947765 -0.68149447
85.388199 51.817505 -0.68743294
85.309692 51.862225 0
75.747375 57.308819 0.37756953
72.853256 58.971439 -0.84871542
74.628403 57.963169 -0.68120533
85.402908 51.843357 -0.68743294
85.35601 51.869995 0
75.755455 57.323017 0.37756953
72.87719 58.972019 -0.85042733
74.653694 57.96582 -0.6823585
85.467308 51.841061 -0.6890291
85.348015 51.90863 0
75.727333 57.357716 0.37640843
72.85643 58.997902 -0.84785867
74.638458 57.991413 -0.68091732
85.504608 51.854233 -0.68975466
85.421516 51.901161 0
75.726295 57.377007 0.37611786
72.862473 59.008606 -0.84785867
74.645714 58.004272 -0.68091732
85.550964 51.862373 -0.69077075
85.476929 51.904068 0
75.70713 57.406479 0.3752473
72.877457 59.014286 -0.84871542
74.652954 58.017139 -0.68091732
76.064178 57.224575 -0.38642904
85.52784 51.909637 0
75.687912 57.435894 0.37437674
72.892426 59.020004 -0.84957057
74.660172 58.030018 -0.68091732
64 64 -0
75.947067 57.309319 0
75.636871 57.48304 0.37248951
72.90741 59.025742 -0.85042733
74.653824 58.050472 -0.68005216
64 64 -0
64 64 0
75.554008 57.547771 0.36958727
72.88649 59.051498 -0.84785867
74.651978 58.068375 -0.67947614
64 64 -0
64 64 0
75.575409 57.554157 0.3700223
72.896965 59.059742 -0.84828788
74.659134 58.081253 -0.67947614
64 64 -0
64 64 0
75.555931 57.583282 0.36915174
72.893936 59.075474 -0.84743112
74.670799 58.091633 -0.67976415
64 64 -0
64 64 0
75.586403 57.584667 0.36987728
72.881897 59.096149 -0.84571928
74.664337 58.112034 -0.67889899
64 64 -0
64 64 0
75.607803 57.591133 0.37031284
72.887817 59.106884 -0.84571928
74.685043 58.117435 -0.67976415
64 64 -0
64 64 0
75.633751 57.595139 0.37089339
72.911728 59.107746 -0.84743112
74.692146 58.130352 -0.67976415
76.047112 57.386517 -0.38381681
64 64 0
75.609589 57.626709 0.36987728
72.904137 59.125908 -0.84614843
74.694702 58.145756 -0.67947614
76.036865 57.41106 -0.38323626
76.024887 57.417614 0
75.60817 57.645725 0.36958727
72.932549 59.124371 -0.84828788
74.697227 58.16116 -0.67918813
76.035683 57.430595 -0.38294569
76.009995 57.444618 0
75.60215 57.667229 0.36915174
72.924896 59.142532 -0.84700358
74.695175 58.179039 -0.67861098
76.04361 57.445141 -0.38294569
76.049911 57.441711 0
75.618912 57.676289 0.36944172
72.926254 59.155769 -0.84657604
74.711304 58.187027 -0.67918813
76.028687 57.472092 -0.38222015
76.039528 57.466209 0
75.594589 57.707676 0.36842617
72.945633 59.159233 -0.84785867
74.700127 58.209824 -0.67803496
76.02285 57.494053 -0.38178459
76.038254 57.485718 0
75.611313 57.716751 0.36871618
72.925972 59.176842 -0.84571928
74.721825 58.206451 -0.67918813
76.022217 57.503784 -0.38163957
76.010139 57.510307 0
75.587685 57.738583 0.36784562
72.918251 59.194927 -0.84443659
74.701485 58.234138 -0.67745781
76.030052 57.518318 -0.38163957
76.02713 57.51989 0
75.586082 57.757526 0.36755505
72.937607 59.198425 -0.84571928
74.722122 58.239723 -0.67832297
76.024139 57.540237 -0.38120401
76.016609 57.544281 0
75.566154 57.786282 0.3666845
72.934357 59.214073 -0.84486413
74.724518 58.255127 -0.67803496
76.027359 57.557224 -0.38105902
76.024399 57.558807 0
75.578232 57.79781 0.36682948
72.931068 59.229713 -0.84400737
74.713196 58.277836 -0.67688179
76.035133 57.571762 -0.38105902
76.013809 57.583149 0
75.60405 57.80201 0.36741006
72.945892 59.235676 -0.84486413
74.701843 58.30051 -0.67572862
76.03373 57.591187 -0.38076901
76.016968 57.600113 0
75.616119 57.813595 0.36755505
72.960709 59.241676 -0.84571928
74.704155 58.315872 -0.67544061
76.046051 57.603298 -0.38091403
76.020096 57.617077 0
75.63736 57.82032 0.36799061
72.971001 59.250099 -0.84614843
74.706429 58.331238 -0.67515147
76.039986 57.625156 -0.38047847
76.014 57.638916 0
75.6586 57.827091 0.36842617
72.949486 59.27533 -0.84357983
74.708702 58.346588 -0.67486346
76.020111 57.654263 -0.37960792
76.012482 57.658291 0
75.675232 57.836334 0.36871618
72.964279 59.281357 -0.84443659
74.7201 58.357124 -0.67515147
76.01857 57.673637 -0.37931734
76.024734 57.670387 0
75.678078 57.852863 0.36857116
72.965416 59.294586 -0.84400737
74.713181 58.377289 -0.67428744
76.026199 57.688164 -0.37931734
76.013939 57.694599 0
75.690094 57.864567 0.36871618
72.975655 59.303036 -0.84443659
74.71537 58.392643 -0.6739983
76.033821 57.702698 -0.37931734
76.035385 57.701878 0
75.697495 57.878696 0.36871618
72.972214 59.318638 -0.84357983
74.731323 58.400803 -0.67457545
76.036819 57.719646 -0.37917235
76.006073 57.735687 0
75.677246 57.907253 0.36784562
72.977859 59.329483 -0.84357983
74.73349 58.416161 -0.67428744
76.058228 57.726997 -0.37960792
76.036713 57.73819 0
75.666161 57.930962 0.36726505
73.006287 59.328518 -0.84571928
74.740234 58.429134 -0.67428744
76.07502 57.73679 -0.37989789
76.048889 57.750343 0
75.664253 57.949852 0.3669745
73.007362 59.341759 -0.84529167
74.742348 58.444496 -0.6739983
76.110283 57.737057 -0.38076901
76.065689 57.76012 0
75.676178 57.961555 0.36712006
72.994736 59.362057 -0.84357983
74.749054 58.457481 -0.6739983
76.154793 57.732639 -0.38193014
76.110214 57.75563 0
75.664993 57.985195 0.36653951
72.992973 59.369843 -0.84315228
74.752396 58.463978 -0.6739983
76.172424 57.732857 -0.38236514
76.137131 57.751026 0
75.668625 57.992245 0.36653951
73.00769 59.376026 -0.84400737
74.763695 58.474606 -0.67428744
76.198486 57.738075 -0.38294569
76.172447 57.751442 0
75.685112 58.001606 0.36682948
73.022415 59.382233 -0.84486413
74.761147 58.492332 -0.67371029
76.266174 57.722042 -0.38483235
76.207779 57.75193 0
75.673851 58.0252 0.36624894
73.005127 59.4048 -0.84272474
74.749359 58.514744 -0.67255712
76.278397 57.734497 -0.38497794
76.24778 57.750122 0
75.671814 58.044029 0.36595893
73.010674 59.415688 -0.84272474
74.769821 58.520699 -0.67342228
76.318367 57.732849 -0.38599348
76.297073 57.743683 0
75.679001 58.05814 0.36595893
73.002472 59.433548 -0.84144038
74.781036 58.531376 -0.67371029
76.363007 57.728931 -0.38715461
76.313911 57.753834 0
75.672256 58.079308 0.36552337
73.026306 59.435158 -0.84315228
74.787643 58.544407 -0.67371029
76.393761 57.732147 -0.38788015
76.358612 57.749928 0
75.651588 58.107483 0.36465281
73.013474 59.455315 -0.84144038
74.79422 58.557446 -0.67371029
76.433815 57.730747 -0.38889629
76.380081 57.757839 0
75.667969 58.116894 0.36494282
73.014381 59.468513 -0.84101284
74.805412 58.568172 -0.6739983
76.469231 57.731777 -0.38976684
76.415527 57.758774 0
75.670433 58.133327 0.36479783
73.019852 59.479408 -0.84101284
74.788849 58.592819 -0.67255712
76.509323 57.730545 -0.39078295
76.460289 57.755119 0
75.658928 58.156746 0.36421725
73.025307 59.490311 -0.84101284
74.804634 58.601231 -0.67313427
76.535484 57.736374 -0.3913635
76.48645 57.760876 0
75.67527 58.166199 0.36450726
73.035339 59.498932 -0.84144038
74.788002 58.62582 -0.67169309
76.557007 57.744572 -0.39179906
76.540558 57.752762 0
75.663727 58.189568 0.36392727
73.040771 59.509853 -0.84144038
74.808372 58.631962 -0.67255712
76.597122 57.743572 -0.39281461
76.543442 57.770233 0
75.666069 58.205986 0.36378169
73.027786 59.529892 -0.83972853
74.805588 58.649612 -0.6719811
76.646599 57.738037 -0.39412129
76.620911 57.750755 0
75.673058 58.220085 0.36378169
73.051598 59.531715 -0.84144038
74.816681 58.660385 -0.67226911
76.682106 57.739525 -0.39499184
76.647125 57.756794 0
75.656738 58.245693 0.36305615
73.038559 59.551723 -0.83972853
74.832397 58.668896 -0.67284513
76.722305 57.738789 -0.39600796
76.664009 57.767479 0
75.649689 58.26667 0.36262059
73.053894 59.571323 -0.84015608
74.826683 58.70417 -0.67169309
76.807411 57.735306 -0.39818463
76.735123 57.770668 0
75.663513 58.294838 0.36262059
73.068474 59.577763 -0.84101284
74.833069 58.717258 -0.67169309
76.828987 57.74395 -0.39862019
76.794106 57.76096 0
75.651711 58.318047 0.36204004
73.073814 59.588722 -0.84101284
74.844093 58.728092 -0.6719811
76.878601 57.739006 -0.3999263
76.820358 57.767323 0
75.6539 58.3344 0.36189502
73.062614 59.600933 -0.83972853
74.842628 58.7369 -0.67169309
76.905754 57.735443 -0.40065187
76.866257 57.754616 0
75.64798 58.345978 0.36160502
73.07254 59.609653 -0.84015608
74.830353 58.759018 -0.67053992
76.932022 57.741989 -0.40123242
76.887856 57.763363 0
75.650108 58.362328 0.36145946
73.073219 59.622849 -0.83972853
74.841339 58.769863 -0.67082793
76.967667 57.744064 -0.40210354
76.9235 57.765373 0
75.64756 58.38092 0.36116949
73.064613 59.640491 -0.83844423
74.847649 58.782967 -0.67082793
77.007988 57.74398 -0.40311912
76.968552 57.762947 0
75.654343 58.394997 0.36116949
73.088394 59.64257 -0.84015608
74.844604 58.800556 -0.67025077
77.053024 57.741726 -0.40428022
76.999542 57.767372 0
75.656425 58.411327 0.36102447
73.07975 59.660198 -0.83887178
74.85556 58.811424 -0.67053992
77.093407 57.741814 -0.40529633
77.049324 57.762882 0
75.644417 58.43438 0.36044392
73.108177 59.660126 -0.84101284
74.85247 58.829002 -0.66996276
77.143181 57.737522 -0.40660244
77.089745 57.762981 0
75.632362 58.457397 0.35986337
73.094864 59.679943 -0.83930099
74.877403 58.833241 -0.67111593
77.178894 57.740032 -0.407473
77.134888 57.760937 0
75.634361 58.473682 0.35971835
73.104713 59.688744 -0.83972853
74.874298 58.850811 -0.67053992
77.20993 57.744843 -0.40819857
77.156532 57.770126 0
75.650421 58.483303 0.36000836
73.105278 59.701935 -0.83930099
74.885185 58.861748 -0.67082793
77.245682 57.747498 -0.40906969
77.196983 57.770481 0
75.647682 58.501816 0.35971835
73.115105 59.710758 -0.83972853
74.867989 58.885914 -0.66938674
77.276733 57.752441 -0.40979525
77.237473 57.770916 0
75.659019 58.513683 0.35986337
73.106331 59.728317 -0.83844423
74.878838 58.896854 -0.66967475
77.303093 57.759663 -0.4103758
77.268547 57.775867 0
75.64212 58.538807 0.3591378
73.106842 59.741497 -0.83801669
74.894356 58.905624 -0.67025077
77.348282 57.758129 -0.4115369
77.323219 57.769852 0
75.648712 58.552879 0.3591378
73.084068 59.765514 -0.8354497
74.895821 58.920975 -0.66996276
77.388794 57.758892 -0.41255304
77.363747 57.770569 0
75.655281 58.566959 0.3591378
73.103134 59.770008 -0.83673233
74.897263 58.936325 -0.66967475
77.443443 57.753178 -0.41400415
77.385429 57.780136 0
75.633553 58.594189 0.35826668
73.117561 59.776691 -0.83758909
74.898682 58.951668 -0.66938674
77.474556 57.758507 -0.41472971
77.416542 57.785378 0
75.635361 58.610432 0.35812169
73.108673 59.79417 -0.83630478
74.914162 58.960506 -0.66996276
77.515121 57.759541 -0.41574582
77.452408 57.788498 0
75.533363 58.674595 0.35478389
73.118408 59.803036 -0.83673233
74.920242 58.973698 -0.66996276
77.555679 57.760674 -0.41676137
77.497711 57.787354 0
75.520905 58.697227 0.35420334
73.106956 59.814972 -0.8354497
74.909172 58.986778 -0.6690976
77.583076 57.758007 -0.4174875
77.534569 57.780296 0
75.547714 58.69334 0.35492888
73.135345 59.815289 -0.83758909
74.910522 59.002113 -0.66880959
77.637848 57.752785 -0.41893861
77.594131 57.772808 0
75.563553 58.702972 0.35521889
73.140396 59.826328 -0.83758909
74.91185 59.017448 -0.66852158
77.664291 57.760632 -0.41951916
77.62532 57.778431 0
75.58886 58.708313 0.35579947
73.140762 59.8395 -0.83716154
74.90844 59.034927 -0.66794443
77.704941 57.762077 -0.4205353
77.684944 57.771175 0
75.63781 58.70295 0.35710558
73.117722 59.863281 -0.83459294
74.919151 59.045967 -0.66823357
77.740852 57.765762 -0.42140585
77.735115 57.768364 0
75.686806 58.697681 0.35841224
73.136749 59.86795 -0.83587724
74.92984 59.057037 -0.66852158
77.786255 57.765236 -0.42256695
77.756851 57.778538 0
75.697937 58.709667 0.35855725
73.132362 59.883221 -0.83502048
74.912231 59.080872 -0.6670804
77.83168 57.764812 -0.42372808
77.802315 57.778053 0
75.690102 58.730217 0.35812169
73.127975 59.89846 -0.83416539
74.927597 59.089825 -0.66765642
77.881866 57.762363 -0.4250342
77.833557 57.784069 0
75.672768 58.754993 0.35739613
73.132927 59.909492 -0.83416539
74.928802 59.105145 -0.66736841
77.922592 57.764271 -0.42605031
77.879059 57.783768 0
64 64 0
73.142548 59.918442 -0.83459294
74.944145 59.114143 -0.66794443
77.939598 57.776863 -0.42634031
77.919838 57.785686 0
75.694885 58.778984 0.35768613
73.147469 59.929489 -0.83459294
74.954781 59.125259 -0.66823357
77.994583 57.772587 -0.42779142
77.941605 57.796162 0
75.701187 58.793118 0.35768613
73.166466 59.934299 -0.83587724
74.960663 59.1385 -0.66823357
78.01635 57.78318 -0.42822698
78.006187 57.787685 0
75.71698 58.803043 0.35797668
73.143188 59.95784 -0.83330864
74.947609 59.160114 -0.6670804
78.076141 57.777 -0.42982364
78.061279 57.783573 0
75.708984 58.823509 0.35754111
73.148064 59.968887 -0.83330864
74.929779 59.183773 -0.66563922
78.107422 57.783539 -0.4305492
78.08783 57.792171 0
75.71048 58.839756 0.35739613
73.143539 59.98407 -0.83245349
74.954521 59.188671 -0.66679126
78.148239 57.785957 -0.43156531
78.12867 57.794556 0
75.716713 58.853909 0.35739613
73.143684 59.997177 -0.83202595
74.960327 59.201912 -0.66679126
78.193802 57.786392 -0.43272588
78.193375 57.786583 0
75.713387 58.872242 0.35710558
73.167336 60.000019 -0.83373779
74.96138 59.217224 -0.66650325
78.229889 57.791077 -0.433597
78.219955 57.79541 0
75.643387 58.919647 0.35478389
73.167442 60.013149 -0.83330864
74.967148 59.230473 -0.66650325
78.265968 57.795841 -0.43446755
78.241768 57.806366 0
75.639969 58.937866 0.35449335
72.27784 60.405975 -0.99958605
73.18869 60.010513 -0.83502048
74.97477 59.235039 -0.66679126
78.312614 57.785835 -0.43577367
78.302795 57.790096 0
75.652573 58.940758 0.35478389
73.188797 60.023655 -0.83459294
74.961548 59.256516 -0.66563922
78.363052 57.784554 -0.43708035
78.329399 57.799114 0
75.630051 58.967228 0.35391277
73.193588 60.03476 -0.83459294
74.972015 59.267715 -0.66592723
78.408707 57.785458 -0.43824092
78.384666 57.795826 0
75.631355 58.983341 0.35376778
73.170082 60.058033 -0.83202595
74.972977 59.28302 -0.66563922
78.440094 57.792603 -0.43896702
75.700089 58.970455 0
75.637405 58.997398 0.35376778
73.184273 60.065075 -0.83288103
74.95488 59.306473 -0.66419691
78.481003 57.795734 -0.43998259
75.687019 58.992794 0
75.638672 59.013508 0.35362276
72.299408 60.456051 -0.99958605
73.141808 60.096336 -0.82860219
74.974823 59.313618 -0.66506207
78.536293 57.792824 -0.44143426
75.702644 59.002827 0
75.639893 59.029621 0.35347721
72.30368 60.466084 -0.99958605
73.160698 60.101349 -0.8298865
74.980476 59.326881 -0.66506207
78.567688 57.80022 -0.4421598
75.684715 59.027168 0
75.679367 59.029442 0.35449335
72.293907 60.482075 -0.99789685
73.165405 60.112423 -0.8298865
74.967064 59.348232 -0.6639089
78.623001 57.797539 -0.44361094
75.685928 59.04332 0
75.766693 59.009064 0.35696056
72.284119 60.498028 -0.9962098
73.160622 60.127502 -0.82902974
74.996498 59.351418 -0.66535008
78.67836 57.794971 -0.44506261
75.667938 59.067577 0
75.801453 59.011139 0.35783169
72.302383 60.502129 -0.99789685
73.179497 60.132591 -0.8303141
74.98304 59.372742 -0.66419691
78.743301 57.788506 -0.44680372
75.664291 59.085724 0
75.845764 59.009266 0.35899225
64 64 -0
73.198349 60.13773 -0.83159673
75.007698 59.378006 -0.66535008
78.78434 57.79224 -0.44781983
75.670219 59.099823 0
75.875755 59.013519 0.35971835
64 64 -0
73.212494 60.144878 -0.83245349
75.018059 59.389305 -0.66563922
78.834976 57.792053 -0.44912595
75.671333 59.115936 0
75.905739 59.017845 0.36044392
73.21241 60.157986 -0.83202595
75.018837 59.404621 -0.66535008
78.86644 57.799984 -0.44985151
75.672424 59.132042 0
75.926147 59.02623 0.36087948
72.333275 60.536442 -0.99958605
73.226517 60.165184 -0.83288103
75.014839 59.421906 -0.66477406
78.89312 57.809975 -0.45043206
75.683105 59.144154 0
75.984917 59.018707 0.3624756
73.226402 60.178299 -0.83245349
74.996468 59.445114 -0.66333288
78.938995 57.812065 -0.45159319
75.693764 59.156284 0
76.019745 59.021259 0.3633467
72.299347 60.574039 -0.9945206
73.221512 60.193371 -0.83159673
74.992393 59.462357 -0.66275573
78.999313 57.808304 -0.45318985
75.685188 59.176369 0
76.006538 59.043716 0.36276615
72.317581 60.57827 -0.9962098
73.216621 60.20842 -0.83074164
74.993088 59.477608 -0.66246772
79.040405 57.812599 -0.45420542
75.695816 59.188515 0
75.897171 59.105679 0.35928279
72.302902 60.596031 -0.99395829
73.2117 60.22345 -0.8298865
74.984177 59.49678 -0.66160256
79.091164 57.81303 -0.45551208
75.677551 59.212521 0
75.56649 59.258049 0.34912333
72.307014 60.606068 -0.99395829
73.211494 60.23653 -0.82945734
74.975266 59.515923 -0.66073853
79.146729 57.811615 -0.45696321
75.683327 59.226635 0
75.524117 59.291679 0.34767219
72.299644 60.614929 -0.99283141
73.204269 60.245972 -0.82860219
74.987541 59.51865 -0.66131455
79.169716 57.81292 -0.45754376
75.671745 59.239594 0
75.541397 59.292755 0.34810776
72.308426 60.623047 -0.99339378
73.227821 60.249363 -0.8303141
75.02169 59.520245 -0.66304374
79.220505 57.813644 -0.45884988
75.667854 59.257614 0
75.52301 59.316486 0.34738219
72.31723 60.631176 -0.99395829
73.208557 60.270149 -0.82817465
75.003128 59.543274 -0.66160256
79.261688 57.818378 -0.45986599
75.659096 59.27758 0
75.57682 59.310905 0.34883332
72.325996 60.639328 -0.9945206
73.255905 60.263985 -0.83202595
75.046883 59.541084 -0.6639089
79.302864 57.823215 -0.46088156
75.659973 59.293617 0
76.233025 59.062313 0.36842617
72.334763 60.647495 -0.99508297
73.236603 60.284752 -0.8298865
75.004272 59.573734 -0.66102654
79.358543 57.822311 -0.46233323
75.665649 59.307709 0
76.422195 59.003403 0.37394118
72.290939 60.688377 -0.98889285
73.245552 60.307083 -0.8298865
75.043755 59.588833 -0.66275573
79.45063 57.828609 -0.46465489
75.691444 59.330128 0
76.501785 59.006454 0.37597287
72.280769 60.704037 -0.98720366
73.226143 60.327755 -0.82774544
75.053879 59.600269 -0.66304374
79.482231 57.837669 -0.465381
75.658386 59.359657 0
76.498161 59.025406 0.37568286
72.275291 60.717796 -0.98607683
73.268753 60.323761 -0.83116919
75.049576 59.617439 -0.66246772
79.547615 57.833397 -0.46712214
75.663986 59.373749 0
76.547638 59.023266 0.37698898
72.269806 60.731529 -0.98495215
73.258873 60.340622 -0.8298865
75.064476 59.626995 -0.66304374
79.613052 57.829266 -0.46886379
75.67926 59.384014 0
76.572975 59.030792 0.37756953
72.278473 60.739666 -0.98551446
73.229843 60.364983 -0.82689035
75.064941 59.642262 -0.66275573
79.65918 57.832901 -0.47002491
75.655777 59.409569 0
76.501602 59.076458 0.3752473
72.291878 60.745953 -0.98664135
73.267693 60.363007 -0.8298865
75.060577 59.659409 -0.66217971
79.72467 57.829041 -0.47176659
75.651619 59.427464 0
75.80127 59.368736 0.35405779
72.291054 60.757832 -0.98607683
73.262505 60.377953 -0.82902974
75.080261 59.66713 -0.66304374
79.761147 57.836697 -0.47263715
75.66684 59.437752 0
75.579384 59.471947 0.34723663
72.276031 60.77523 -0.98382527
73.27166 60.387283 -0.82945734
75.090317 59.678638 -0.66333288
79.81218 57.838757 -0.47394383
75.677185 59.449963 0
75.734962 59.427452 0.3517361
72.284668 60.78339 -0.98438978
73.280815 60.396626 -0.8298865
75.076241 59.699532 -0.66217971
79.863205 57.840942 -0.47524995
75.677826 59.465958 0
76.801369 59.029732 0.38351956
72.288551 60.793404 -0.98438978
73.256424 60.418961 -0.82731789
75.091072 59.70919 -0.66275573
79.909416 57.845112 -0.47641104
64 64 0
76.807365 59.045204 0.38351956
72.287659 60.805252 -0.98382527
73.227203 60.443077 -0.82432169
75.091423 59.724453 -0.66246772
79.970169 57.843784 -0.47800717
75.693604 59.492321 0
76.861847 59.041985 0.38497123
72.282036 60.818909 -0.98270059
73.236305 60.452381 -0.8247509
75.072441 59.747128 -0.66102654
80.011559 57.85004 -0.47902328
75.699043 59.506454 0
76.906639 59.042625 0.38613236
72.27639 60.83255 -0.98157591
73.259766 60.456203 -0.82646281
75.092056 59.754971 -0.66189057
80.067505 57.850819 -0.48047441
64 64 0
76.922318 59.054512 0.38642234
72.278305 60.837547 -0.98157591
73.266693 60.459969 -0.82689035
75.09462 59.761673 -0.66189057
80.114899 57.843838 -0.48178053
75.668266 59.542526 0
76.954437 59.051189 0.38729346
72.263123 60.854786 -0.97932434
73.246979 60.480297 -0.8247509
75.085236 59.780594 -0.66102654
80.166054 57.846672 -0.48308718
75.673645 59.556629 0
76.994392 59.053909 0.38830903
72.281158 60.859371 -0.98101139
73.270424 60.484192 -0.82646281
75.070984 59.801331 -0.65987337
80.192894 57.858845 -0.48366719
75.679008 59.570736 0
77.034378 59.056713 0.38932514
72.284943 60.869381 -0.98101139
73.279465 60.493584 -0.82689035
75.119591 59.798256 -0.66246772
80.234344 57.865555 -0.48468331
75.674606 59.588535 0
77.098679 59.050423 0.39106682
72.279221 60.882969 -0.97988671
73.269272 60.510227 -0.82560605
75.119827 59.813515 -0.66217971
80.25148 57.881508 -0.48497388
64 64 0
77.163017 59.044281 0.3928085
72.282982 60.892975 -0.97988671
73.28791 60.516018 -0.82689035
75.09581 59.83786 -0.66044939
80.28804 57.890202 -0.48584443
64 64 0
77.222504 59.040115 0.39440459
72.281975 60.904762 -0.97932434
73.296921 60.525448 -0.82731789
75.115372 59.845833 -0.66131455
80.26622 57.920799 -0.48497388
64 64 0
64 64 0
72.252365 60.927189 -0.97538364
73.272247 60.547428 -0.8247509
75.096146 59.868294 -0.65987337
80.351456 57.911449 -0.48729554
75.695786 59.645012 0
64 64 0
72.265594 60.933632 -0.97650832
73.271591 60.560425 -0.82432169
75.101128 59.881702 -0.65987337
80.368553 57.927593 -0.48758608
75.666893 59.671814 0
64 64 0
72.278831 60.940094 -0.97763515
73.266113 60.575188 -0.8234666
75.10125 59.896912 -0.65958536
80.346619 57.958191 -0.48671499
75.642815 59.696747 0
64 64 0
72.27298 60.953613 -0.97650832
73.246162 60.595257 -0.82132715
75.106201 59.910328 -0.65958536
80.344162 57.981537 -0.48642498
75.628471 59.71801 0
77.354637 59.082378 0.39745238
72.286209 60.96011 -0.97763515
73.293648 60.590519 -0.82517844
75.125687 59.918411 -0.66044939
80.390457 57.986969 -0.48758608
75.623871 59.735649 0
77.345924 59.103889 0.39701682
72.285103 60.971867 -0.97707283
73.307396 60.598228 -0.82603359
75.130615 59.931858 -0.66044939
80.383064 58.012131 -0.48715055
75.638779 59.746124 0
77.337204 59.125366 0.39658183
72.283966 60.983624 -0.97650832
73.311493 60.609478 -0.82603359
75.130661 59.947075 -0.66016138
80.404938 58.026596 -0.48758608
75.63414 59.763748 0
77.343079 59.141487 0.39658183
72.282837 60.995365 -0.97594595
73.286636 60.631233 -0.8234666
75.125839 59.964054 -0.65958536
80.417023 58.044651 -0.4877311
75.629456 59.781364 0
77.334282 59.16293 0.39614627
72.276909 61.008827 -0.97482127
73.290703 60.642456 -0.8234666
75.140427 59.973988 -0.66016138
80.429092 58.062729 -0.48787609
75.624763 59.798954 0
77.349884 59.175518 0.39643627
72.266167 61.023994 -0.97313207
73.299576 60.651947 -0.82389414
75.130676 59.99271 -0.65929621
80.406929 58.093143 -0.48700553
75.654312 59.804188 0
77.287254 59.216293 0.39440459
72.284111 61.028839 -0.97482127
73.289131 60.668381 -0.82261151
75.145256 60.002666 -0.65987337
80.453186 58.098934 -0.48816666
75.62999 59.828815 0
77.141396 59.286736 0.38990569
72.273338 61.04398 -0.97313207
73.28347 60.683064 -0.82175475
75.154945 60.014397 -0.66016138
80.450508 58.122322 -0.48787609
75.654625 59.835865 0
77.107933 59.316605 0.38874459
72.27034 61.050686 -0.97256976
73.309647 60.680054 -0.82389414
75.132996 60.029823 -0.6587202
80.463852 58.128765 -0.48816666
75.632614 59.851654 0
64 64 0
72.273895 61.06068 -0.97256976
73.313652 60.691303 -0.82389414
75.162155 60.034622 -0.66016138
80.47094 58.148663 -0.48816666
75.642532 59.863964 0
77.077225 59.35429 0.38758346
72.277443 61.070679 -0.97256976
73.327332 60.699131 -0.8247509
75.157196 60.051559 -0.65958536
80.463295 58.173775 -0.4877311
75.627899 59.884979 0
77.058334 59.378761 0.3868579
72.266594 61.085754 -0.97088057
73.340988 60.706993 -0.82560605
75.161957 60.065044 -0.65958536
80.509529 58.179848 -0.4888922
75.603401 59.90942 0
77.206039 59.344437 0.39106682
72.2845 61.090691 -0.97256976
73.369179 60.709778 -0.82774544
75.147179 60.085388 -0.65843219
80.521454 58.198078 -0.48903722
75.60833 59.923443 0
77.290108 59.332848 0.39338905
72.297592 61.097351 -0.97369444
73.368301 60.722794 -0.82731789
75.151901 60.098862 -0.65843219
80.503929 58.226624 -0.48831165
75.618179 59.935749 0
77.290817 59.350628 0.39324349
72.2771 61.115738 -0.97088057
73.348022 60.742561 -0.82517844
75.151703 60.114048 -0.65814304
80.515793 58.244862 -0.48845667
75.618149 59.951508 0
77.291527 59.368401 0.39309847
72.266174 61.130745 -0.96919137
73.351952 60.75386 -0.82517844
75.161293 60.125824 -0.65843219
80.51783 58.266525 -0.48831165
75.637787 59.960426 0
77.282379 59.38958 0.39266291
72.26004 61.144051 -0.96806663
73.365562 60.76181 -0.82603359
75.156181 60.142696 -0.65785503
80.53949 58.281391 -0.48874721
75.627899 59.979599 0
77.297775 59.402229 0.39295349
72.273087 61.150726 -0.96919137
73.379189 60.769783 -0.82689035
75.160835 60.156178 -0.65785503
80.56604 58.294613 -0.48932776
75.622917 59.997036 0
77.259102 59.433533 0.39164737
72.271721 61.162373 -0.968629
73.368507 60.786118 -0.82560605
75.170357 60.167992 -0.65814304
80.567993 58.316322 -0.4891822
75.612968 60.016151 0
77.254768 59.45293 0.39135683
72.265533 61.175652 -0.96750432
73.377235 60.79578 -0.82603359
75.189667 60.176472 -0.6590082
80.574844 58.336346 -0.4891822
75.622696 60.028507 0
77.284836 59.460548 0.39208236
72.273743 61.184006 -0.96806663
73.376251 60.808765 -0.82560605
75.194283 60.189995 -0.6590082
80.586609 58.354698 -0.48932776
75.607773 60.049259 0
77.275566 59.481625 0.39164737
72.281952 61.192375 -0.968629
73.394691 60.815151 -0.82689035
75.193985 60.205181 -0.6587202
80.593422 58.374744 -0.48932776
75.612541 60.06329 0
77.271164 59.501007 0.39135683
72.270889 61.207264 -0.96693981
73.383934 60.831436 -0.82560605
75.169144 60.228645 -0.65698987
80.565735 58.406441 -0.48831165
75.622238 60.075653 0
77.261833 59.52203 0.3909218
72.274254 61.217258 -0.96693981
73.382889 60.84441 -0.82517844
75.163895 60.245438 -0.65641385
75.651878 60.081322 -0.34332499
75.607231 60.096336 0
77.286919 59.531437 0.39150181
72.277611 61.227261 -0.96693981
73.352615 60.867168 -0.8221823
75.192947 60.250713 -0.65785503
75.65168 60.097054 -0.34318
75.626732 60.105408 0
77.277534 59.552444 0.39106682
72.256859 61.245304 -0.96412593
73.385628 60.868717 -0.8247509
75.18766 60.267513 -0.65727901
75.671158 60.106205 -0.343615
75.616631 60.124397 0
77.273033 59.571781 0.39077625
72.274651 61.250473 -0.96581513
73.379646 60.883301 -0.82389414
75.192162 60.281033 -0.65727901
64 64 -0
75.63118 60.135159 0
77.288246 59.584541 0.39106682
72.263489 61.265266 -0.96412593
73.402908 60.888187 -0.82560605
75.216293 60.288059 -0.65843219
75.63121 60.150745 -0.34216386
75.695137 60.129589 0
77.229439 59.621826 0.38918012
72.269958 61.268665 -0.9646883
73.39991 60.895477 -0.82517844
75.193962 60.302952 -0.65698987
75.638458 60.156147 -0.34230888
75.771614 60.112171 0
77.291298 59.61026 0.3909218
72.278099 61.277069 -0.96525276
73.384148 60.913254 -0.8234666
75.232819 60.305164 -0.6590082
75.623352 60.176708 -0.3417283
75.870232 60.095501 0
77.271896 59.634449 0.3901957
72.276535 61.288658 -0.9646883
73.417137 60.915009 -0.82603359
75.202866 60.330013 -0.65698987
75.62796 60.190754 -0.3417283
75.879883 60.108227 0
77.291977 59.645634 0.39063126
72.279808 61.29866 -0.9646883
73.411102 60.929569 -0.82517844
75.207291 60.343555 -0.65698987
75.632553 60.204807 -0.3417283
75.963745 60.096756 0
77.30217 59.660088 0.39077625
72.283066 61.30867 -0.9646883
73.390396 60.948875 -0.82303905
75.172356 60.369881 -0.65468466
75.627258 60.222076 -0.34143832
75.993202 60.103172 0
77.292587 59.680977 0.39034125
72.281479 61.32024 -0.96412593
73.3843 60.963387 -0.8221823
75.166885 60.38657 -0.65410751
75.616974 60.240929 -0.34100276
76.062279 60.096836 0
77.307678 59.693844 0.39063126
72.275047 61.333366 -0.96300125
73.38308 60.976303 -0.82175475
75.136772 60.411175 -0.65208918
75.62645 60.253376 -0.34114775
76.057083 60.114605 0
64 64 0
72.263748 61.348026 -0.96131206
73.386726 60.98764 -0.82175475
75.126335 60.429371 -0.65122515
75.616119 60.27219 -0.34071219
76.096466 60.118042 0
77.283401 59.737133 0.38961515
72.262108 61.359558 -0.96074969
73.375679 61.003677 -0.82047039
75.101067 60.452271 -0.64949483
75.62558 60.284645 -0.34085774
76.15567 60.115234 0
77.278648 59.756348 0.38932514
72.260452 61.371082 -0.96018738
73.40377 61.007217 -0.82261151
75.080704 60.473526 -0.64805365
75.615204 60.303425 -0.34042218
76.160355 60.129925 0
77.278824 59.773972 0.38918012
72.278145 61.376465 -0.96187437
73.382896 61.026344 -0.82047039
75.06031 60.494732 -0.64661247
75.495811 60.356712 -0.33679384
76.184875 60.138332 0
77.269051 59.794731 0.38874459
72.269928 61.401043 -0.96018738
73.424347 61.03825 -0.8234666
74.999664 60.543182 -0.64257693
75.063362 60.523163 -0.32387713
74.868439 60.584423 0
77.284126 59.825253 0.38888958
72.277908 61.409523 -0.96074969
73.408318 61.055775 -0.82175475
74.984085 60.562653 -0.64142376
75.082436 60.531876 -0.32431269
74.793076 60.622429 0
77.269325 59.847515 0.38830903
72.271317 61.422554 -0.95962286
73.426575 61.062561 -0.82303905
74.963524 60.583626 -0.63998145
75.046928 60.55764 -0.32315159
74.762375 60.646309 0
74.758934 60.647381 0.31472707
72.284149 61.429535 -0.96074969
73.425224 61.07547 -0.82261151
74.977539 60.593807 -0.6405586
74.986557 60.591007 -0.32126489
74.736588 60.668571 0
74.762978 60.660381 0.31472707
72.267822 61.445545 -0.95849818
73.433647 61.08535 -0.82303905
74.971748 60.61013 -0.63998145
74.990669 60.604286 -0.32126489
74.780388 60.669254 0
74.752121 60.677986 0.31429207
72.266052 61.457031 -0.95793581
73.437164 61.096748 -0.82303905
64 64 -0
74.984818 60.620628 -0.32097435
74.799332 60.677692 0
74.741226 60.695568 0.31385651
72.259392 61.470001 -0.95680898
73.421028 61.11417 -0.82132715
75.019478 60.624535 -0.64228779
75.038597 60.618679 -0.32242602
74.738647 60.71056 0
74.725334 60.714638 0.31327596
72.275505 61.470531 -0.95849818
73.422768 61.119862 -0.82132715
75.031418 60.628166 -0.64286494
75.010803 60.634468 -0.3215549
74.725693 60.721615 0
74.69751 60.730228 0.31240541
72.273697 61.48201 -0.95793581
73.445892 61.125271 -0.82303905
75.045372 60.638489 -0.64344096
75.059608 60.634159 -0.32286102
74.714706 60.739124 0
74.706413 60.741646 0.3125504
72.262138 61.496433 -0.95624661
73.434616 61.141155 -0.82175475
75.133583 60.626335 -0.64834166
75.038803 60.655056 -0.32213545
74.718636 60.752071 0
74.710342 60.754585 0.3125504
72.284615 61.500546 -0.95849818
73.452812 61.148106 -0.82303905
75.197083 60.621861 -0.65180117
75.052795 60.665394 -0.32242602
74.707596 60.769539 0
74.7043 60.770535 0.31225985
72.273026 61.514946 -0.95680898
73.466072 61.156578 -0.82389414
75.230888 60.626461 -0.65353149
75.046852 60.681744 -0.32213545
74.711494 60.782478 0
74.69825 60.786457 0.31196985
72.266296 61.527855 -0.9556843
73.430153 61.179787 -0.82047039
75.215134 60.645966 -0.65237832
75.065796 60.690624 -0.32257101
74.715378 60.795425 0
74.692154 60.802368 0.31167927
72.274139 61.536396 -0.95624661
73.443405 61.188251 -0.82132715
75.149757 60.680187 -0.64834166
75.079742 60.701035 -0.32286102
74.729225 60.805401 0
74.691032 60.816772 0.31153429
72.267357 61.549286 -0.95511979
73.436935 61.202583 -0.82047039
74.841316 60.786282 -0.63018006
75.083717 60.714424 -0.32286102
74.733078 60.818367 0
74.674942 60.835598 0.31095374
72.250816 61.565029 -0.95286822
73.435394 61.215439 -0.82004285
74.602112 60.87112 -0.61605513
74.973053 60.76165 -0.31952322
74.751892 60.826916 0
74.663803 60.852913 0.31051818
72.248886 61.576431 -0.95230591
73.438751 61.226845 -0.82004285
74.551285 60.899975 -0.61288363
74.85231 60.811531 -0.31589487
74.745728 60.842846 0
74.64267 60.873127 0.30979261
72.246933 61.587826 -0.95174354
73.437172 61.239689 -0.8196153
74.530197 60.919987 -0.61144245
74.686577 60.874249 -0.31096041
74.734543 60.860218 0
74.606537 60.897659 0.30863148
72.24984 61.597794 -0.95174354
73.440498 61.251095 -0.8196153
74.54882 60.928371 -0.61230761
74.595551 60.914764 -0.30820319
74.703354 60.883373 0
74.635239 60.90321 0.30935761
72.257614 61.60635 -0.95230591
73.463539 61.256786 -0.82132715
74.507812 60.954082 -0.60971326
74.574303 60.934807 -0.30747706
74.607132 60.925293 0
74.633972 60.917511 0.30921206
72.275154 61.612103 -0.95399511
73.4767 61.265381 -0.8221823
74.546265 60.956745 -0.61173046
74.568024 60.950466 -0.30718708
74.565834 60.951096 0
74.652672 60.926041 0.30964762
72.273148 61.623505 -0.95343274
73.470139 61.279663 -0.82132715
74.505188 60.982342 -0.6091361
74.536728 60.973282 -0.30617094
74.579506 60.960995 0
74.616417 60.950394 0.30848649
72.246689 61.641888 -0.95005435
73.493164 61.285461 -0.82303905
74.533691 60.98793 -0.61057729
74.555374 60.981728 -0.3066065
74.563171 60.9795 0
74.620094 60.963223 0.30848649
72.244652 61.653244 -0.94949198
73.452003 61.309586 -0.81918776
74.55722 60.994995 -0.61173046
74.554016 60.995907 -0.30646151
74.551788 60.99654 0
74.593773 60.984589 0.30761594
72.188812 61.679832 -0.9427374
73.440422 61.325207 -0.81790346
74.535965 61.014801 -0.61028928
74.54763 61.011497 -0.30617094
74.550407 61.010712 0
74.572418 61.004475 0.30689037
72.128029 61.707657 -0.93542045
73.458481 61.332436 -0.81918776
74.54953 61.024723 -0.61086643
74.546234 61.025654 -0.30602595
74.554016 61.02346 0
74.581024 61.015842 0.30703539
72.202797 61.691921 -0.94386423
73.455132 61.339542 -0.81875855
74.591164 61.01989 -0.61317277
74.568047 61.026394 -0.3066065
74.515732 61.041115 0
74.557816 61.029274 0.30630982
72.200668 61.703209 -0.94329971
73.478111 61.345432 -0.82047039
74.579811 61.036877 -0.61230761
74.55661 61.043373 -0.30617094
74.5243 61.052422 0
74.556381 61.043438 0.30616426
72.203438 61.71312 -0.94329971
73.461533 61.3624 -0.81875855
74.593338 61.046886 -0.61288363
74.555176 61.057526 -0.30602595
74.46769 61.081913 0
74.559944 61.056194 0.30616426
72.181717 61.729828 -0.94048584
73.464714 61.373833 -0.81875855
74.576958 61.06522 -0.61173046
74.548698 61.073063 -0.30573541
74.51133 61.083431 0
74.55349 61.071732 0.30587426
72.199158 61.735653 -0.94217503
73.46788 61.385273 -0.81875855
74.650314 61.05872 -0.61576712
74.567261 61.081657 -0.30617094
74.529907 61.091976 0
74.587067 61.076187 0.30674481
72.216591 61.74152 -0.94386423
73.495796 61.389908 -0.82089961
74.628906 61.078453 -0.61432481
74.565773 61.095806 -0.30602595
74.513336 61.110218 0
74.580582 61.091736 0.30645481
72.209503 61.754135 -0.9427374
73.498947 61.401382 -0.82089961
74.692307 61.074917 -0.61778432
74.589325 61.103088 -0.3066065
74.511787 61.124302 0
74.619179 61.094921 0.30747095
72.197495 61.768063 -0.9410482
73.477295 61.419609 -0.81875855
74.710808 61.083759 -0.61864948
74.64798 61.100868 -0.30820319
74.545395 61.128799 0
64 64 0
72.20018 61.777969 -0.9410482
73.480408 61.431065 -0.81875855
74.739288 61.089939 -0.62009066
74.651474 61.113735 -0.30820319
74.558899 61.138821 0
74.636192 61.117878 0.30776092
72.232315 61.779938 -0.9444266
73.453766 61.450539 -0.81619155
74.747787 61.101574 -0.62037867
74.725189 61.107666 -0.31023484
74.557327 61.152935 0
74.639664 61.13073 0.30776092
72.220261 61.793839 -0.9427374
73.491562 61.452648 -0.81918776
74.761284 61.111877 -0.62095582
74.753769 61.113892 -0.31096041
74.555733 61.167042 0
74.633095 61.146278 0.30747095
72.213104 61.806393 -0.94161272
73.504539 61.461472 -0.82004285
74.874702 61.09552 -0.6272977
74.797417 61.116161 -0.31212154
74.54908 61.182487 0
74.636536 61.15913 0.30747095
72.210831 61.817627 -0.9410482
73.477837 61.480865 -0.81747586
75.083176 61.05418 -0.63911742
75.217751 61.018414 -0.3241677
74.552475 61.195236 0
74.644981 61.17065 0.30761594
72.213455 61.827553 -0.9410482
73.485832 61.491009 -0.81790346
75.291748 61.013348 -0.65093601
75.562965 60.941612 -0.33403662
74.560905 61.206654 0
74.658424 61.180859 0.30790594
72.221008 61.836182 -0.94161272
73.498779 61.499863 -0.81875855
75.340378 61.015141 -0.65353149
64 64 -0
74.589439 61.212795 0
74.67691 61.18977 0.3083415
72.218681 61.847404 -0.9410482
73.496834 61.512642 -0.818331
64 64 -0
64 64 -0
74.628052 61.216358 0
74.690338 61.200043 0.30863148
72.26062 61.847084 -0.94555128
73.509781 61.521526 -0.81918776
75.377586 61.034729 -0.65526068
64 64 -0
74.611259 61.234455 0
74.703781 61.210339 0.30892205
72.248474 61.860893 -0.94386423
73.497849 61.536884 -0.81790346
75.386162 61.04718 -0.65554869
64 64 -0
74.659927 61.235519 0
74.742363 61.214142 0.30993816
72.216599 61.879749 -0.93992352
73.505783 61.547081 -0.818331
75.389725 61.060944 -0.65554869
64 64 -0
74.663261 61.248402 0
74.745728 61.227123 0.30993816
72.222794 61.88345 -0.94048584
73.51722 61.550262 -0.81918776
75.37146 61.072983 -0.65439552
75.583031 61.01852 -0.33403662
74.64476 61.260033 0
74.757454 61.231026 0.31022817
72.225349 61.893387 -0.94048584
73.510216 61.564316 -0.818331
75.385017 61.084156 -0.65497267
75.606766 61.027363 -0.33461717
80.431229 59.791756 0
74.785957 61.237583 0.31095374
72.232811 61.902073 -0.9410482
73.488281 61.582146 -0.81619155
75.373489 61.101746 -0.65410751
75.590202 61.046524 -0.33403662
64 64 0
74.83461 61.239067 0.31225985
72.24028 61.91077 -0.94161272
73.521049 61.586044 -0.81875855
75.392029 61.111675 -0.65497267
75.593765 61.060528 -0.33403662
64 64 0
74.827866 61.254715 0.31196985
72.228012 61.924458 -0.93992352
73.518982 61.598804 -0.818331
75.385475 61.127975 -0.65439552
75.602341 61.073269 -0.33418161
64 64 0
74.800934 61.275429 0.31109872
72.235435 61.933167 -0.94048584
73.531845 61.607807 -0.81918776
75.388931 61.141735 -0.65439552
75.595779 61.089825 -0.33389106
64 64 0
77.299179 60.662323 0.38293901
72.237923 61.943119 -0.94048584
73.529732 61.620571 -0.81875855
75.377335 61.159256 -0.65353149
75.599289 61.103836 -0.33389106
64 64 0
77.298164 60.679653 0.38279399
72.245331 61.951847 -0.9410482
73.51767 61.635799 -0.81747586
75.390793 61.170513 -0.65410751
75.582603 61.122868 -0.33331051
64 64 0
77.292084 60.698227 0.38250399
72.257675 61.959373 -0.94217503
73.525497 61.646069 -0.81790346
75.394203 61.184277 -0.65410751
75.596169 61.134369 -0.33360106
64 64 0
77.285965 60.716789 0.38221344
72.250259 61.971779 -0.9410482
73.498413 61.66494 -0.8153348
75.387558 61.200516 -0.65353149
75.599625 61.14838 -0.33360106
80.516624 59.939602 0
77.269737 60.737804 0.38163289
72.247772 61.982956 -0.94048584
73.526176 61.670315 -0.81747586
75.385895 61.215508 -0.65324235
75.587914 61.166103 -0.3331655
80.481071 59.969452 0
77.293861 60.748905 0.38221344
72.255135 61.991722 -0.9410482
73.523979 61.683044 -0.8170467
75.404335 61.225601 -0.65410751
75.611526 61.175194 -0.33374605
80.496048 59.986908 0
77.27758 60.769882 0.38163289
72.242752 62.005283 -0.93936116
73.531776 61.693344 -0.81747586
75.397636 61.241814 -0.65353149
75.609886 61.190449 -0.33360106
75.416878 61.237156 0
77.281479 60.785931 0.38163289
72.274788 62.00811 -0.9427374
73.554527 61.700054 -0.81918776
75.400955 61.255585 -0.65353149
75.744629 61.172859 -0.33737442
80.561356 60.013386 0
77.275253 60.804409 0.38134289
72.257423 62.022842 -0.94048584
73.547302 61.713997 -0.818331
75.404266 61.269363 -0.65353149
75.803635 61.17374 -0.33897108
80.505417 60.047947 0
77.284157 60.819244 0.38148788
72.254868 62.034 -0.93992352
73.540077 61.727909 -0.81747586
75.392456 61.286743 -0.65266633
75.918251 61.161518 -0.34216386
64 64 0
77.277885 60.837704 0.38119787
72.26712 62.041634 -0.9410482
73.552795 61.737076 -0.818331
75.405785 61.298126 -0.65324235
75.906502 61.179516 -0.3417283
80.565575 60.075844 0
77.271576 60.856148 0.38090733
72.239807 62.058617 -0.93767196
73.535538 61.753326 -0.8166191
75.388901 61.316658 -0.65208918
75.985779 61.176025 -0.34390554
64 64 0
77.280418 60.870995 0.38105232
72.244476 62.078533 -0.93767196
73.550949 61.774044 -0.81747586
75.405434 61.341835 -0.65266633
76.053307 61.190842 -0.34564722
80.523926 60.148914 0
77.272774 60.906631 0.38061732
72.266594 62.083908 -0.93992352
73.53862 61.789066 -0.81619155
75.408638 61.355621 -0.65266633
76.137672 61.186638 -0.34796891
80.513367 60.172405 0
77.281555 60.921501 0.38076234
72.262802 62.090046 -0.93936116
73.559967 61.790203 -0.81790346
75.420303 61.360184 -0.65324235
76.195076 61.181095 -0.34956557
80.500458 60.185902 0
77.268219 60.933037 0.38032678
72.225487 62.109138 -0.93485808
73.537613 61.807507 -0.81576401
75.418449 61.375145 -0.65295434
76.269363 61.179535 -0.35159725
80.505058 60.205841 0
77.261795 60.951397 0.38003677
72.267395 62.110016 -0.93936116
73.530235 61.821323 -0.81490725
75.411537 61.391247 -0.65237832
76.308235 61.186256 -0.35261336
80.499474 60.228111 0
77.265472 60.967422 0.38003677
72.264725 62.121136 -0.93879884
73.537865 61.831703 -0.8153348
75.419724 61.403893 -0.65266633
76.326836 61.19767 -0.35304892
80.524323 60.243435 0
77.269127 60.983456 0.38003677
72.276894 62.128883 -0.93992352
73.565529 61.837566 -0.81747586
75.397629 61.423393 -0.65122515
76.274445 61.225174 -0.35145223
80.498398 60.270287 0
77.262611 61.001785 0.3797462
72.294022 62.13554 -0.94161272
73.543076 61.854759 -0.8153348
75.415855 61.433765 -0.65208918
75.740364 61.360821 -0.3360683
80.487648 60.293652 0
77.281441 61.014393 0.38018176
72.276436 62.149998 -0.93936116
73.525635 61.87077 -0.81362456
75.41391 61.448689 -0.65180117
75.484894 61.432823 -0.3286666
80.502281 60.311302 0
77.259682 61.03611 0.37945622
72.263779 62.163307 -0.93767196
73.533211 61.881165 -0.81405216
75.406891 61.464725 -0.65122515
75.442337 61.456848 -0.32736048
80.527054 60.326729 0
77.253098 61.05439 0.37916565
72.24614 62.177681 -0.93542045
73.535767 61.892685 -0.81405216
75.420036 61.47628 -0.65180117
64 64 -0
75.388367 61.48328 0
77.216057 61.079376 0.37800455
72.268188 62.183285 -0.93767196
73.56337 61.898705 -0.81619155
75.428131 61.488972 -0.65208918
75.463661 61.481163 -0.32779548
75.518494 61.469116 0
75.488823 61.475636 0.3285149
72.280319 62.191105 -0.93879884
73.56089 61.911354 -0.81576401
75.421051 61.50499 -0.65151316
75.436249 61.501671 -0.32692492
64 64 0
75.491867 61.489521 0.3285149
72.277519 62.202194 -0.93823433
73.573433 61.920731 -0.8166191
75.424065 61.518791 -0.65151316
75.424011 61.518799 -0.32648936
75.433029 61.516842 0
75.515205 61.498993 0.32909545
72.274719 62.213268 -0.93767196
73.590996 61.929047 -0.81790346
75.432106 61.531506 -0.65180117
75.411781 61.535892 -0.32605436
75.400398 61.538349 0
75.518219 61.512909 0.32909545
72.276871 62.223267 -0.93767196
73.588478 61.941715 -0.81747586
75.424973 61.547489 -0.65122515
75.348701 61.563862 -0.3241677
80.782234 60.397488 0
75.444992 61.54319 0.32691824
72.29393 62.230087 -0.93936116
73.57589 61.956516 -0.81619155
75.438034 61.559139 -0.65180117
80.515144 60.475693 -0.4716216
80.766212 60.422112 0
77.272461 61.167675 0.37902066
72.291092 62.241161 -0.93879884
73.593422 61.964893 -0.81747586
75.430862 61.575108 -0.65122515
80.539726 60.491337 -0.47220215
80.816345 60.432655 0
77.270798 61.184792 0.37887564
72.273323 62.255379 -0.93654728
73.590836 61.977547 -0.8170467
75.428711 61.589989 -0.65093601
64 64 -0
80.886864 60.439011 0
77.269112 61.2019 0.37873065
72.275429 62.265373 -0.93654728
73.588257 61.990192 -0.8166191
75.426559 61.604862 -0.650648
64 64 -0
80.947174 60.447678 0
77.262299 61.22007 0.37844008
72.27253 62.276413 -0.93598276
73.590675 62.001778 -0.8166191
75.439583 61.616558 -0.65122515
64 64 -0
80.956551 60.467094 0
77.260567 61.237156 0.37829509
72.278557 62.280376 -0.93654728
73.601944 62.005482 -0.81747586
75.435936 61.624523 -0.65093601
80.544228 60.563431 -0.47191158
80.938293 60.481575 0
77.257149 61.246223 0.37815011
72.295547 62.2873 -0.93823433
73.579193 62.022278 -0.8153348
75.443878 61.637295 -0.65122515
80.528008 60.587627 -0.47133103
80.947647 60.500988 0
77.250275 61.264347 0.37785953
72.307571 62.29528 -0.93936116
73.596672 62.030758 -0.8166191
75.45179 61.650085 -0.65151316
80.53212 60.607597 -0.47133103
80.926353 60.526703 0
77.243401 61.282448 0.37756953
72.304657 62.306335 -0.93879884
73.609116 62.040302 -0.81747586
75.45462 61.663925 -0.65151316
80.526031 60.629654 -0.47104102
81.007042 60.531555 0
77.246674 61.29845 0.37756953
72.321625 62.313347 -0.94048584
73.591347 62.055992 -0.81576401
75.45237 61.678795 -0.65122515
80.514809 60.652721 -0.47060546
80.965317 60.561413 0
77.244843 61.315491 0.37742454
72.303726 62.327415 -0.93823433
73.588638 62.0686 -0.8153348
75.439949 61.695698 -0.65035999
80.508667 60.674728 -0.47031549
80.989868 60.577801 0
77.263344 61.328419 0.37785953
72.29081 62.340439 -0.93654728
73.590965 62.080189 -0.8153348
75.432587 61.711552 -0.64978397
80.527939 60.691624 -0.47075048
80.983772 60.60038 0
77.251289 61.347504 0.37742454
72.287811 62.351452 -0.93598276
73.613419 62.087772 -0.8170467
75.440414 61.724361 -0.65007198
80.511536 60.715652 -0.4701699
80.931732 60.632069 0
77.259575 61.362507 0.37756953
72.279831 62.363438 -0.93485808
73.595581 62.103371 -0.8153348
75.453293 61.736179 -0.650648
80.525703 60.733585 -0.47046047
80.956207 60.648495 0
77.272942 61.376518 0.37785953
72.276825 62.37442 -0.93429571
73.582764 62.117931 -0.81405216
75.456024 61.750023 -0.650648
80.529633 60.753555 -0.47046047
80.955124 60.669991 0
77.260818 61.395557 0.37742454
72.298729 62.380531 -0.93654728
73.58503 62.129513 -0.81405216
75.468895 61.761883 -0.65122515
80.523331 60.775524 -0.4701699
80.923393 60.697456 0
77.253746 61.413574 0.37713397
72.275726 62.395397 -0.93373126
73.627609 62.133278 -0.81747586
75.476669 61.774757 -0.65151316
80.532333 60.794502 -0.47031549
80.958015 60.711964 0
77.261955 61.428604 0.37727898
