# .PCD v0.7 - Point Cloud Data file format
VERSION 0.7
FIELDS x y z
SIZE 4 4 4
TYPE F F F
COUNT 1 1 1
WIDTH 1934
HEIGHT 1
VIEWPOINT 0 0 0 1 0 0 0
POINTS 1934
DATA ascii
64 64 -0
64 64 -0
64 64 -0
64 64 -0
64 64 -0
53.315132 64.406883 -0.29862425
53.297077 64.40757 0
53.330956 64.406281 0.29818201
64 64 -0
64 64 -0
64 64 -0
64 64 -0
64 64 -0
53.345818 64.392822 -0.29775316
53.301788 64.39444 0
53.325264 64.393578 0.29832757
64 64 -0
64 64 -0
64 64 -0
64 64 -0
64 64 -0
53.345352 64.379944 -0.29775316
53.301319 64.381516 0
53.324795 64.380676 0.29832757
64 64 -0
64 64 -0
64 64 -0
64 64 -0
64 64 -0
53.35009 64.36689 -0.29760814
53.274864 64.369484 0
53.324345 64.367783 0.29832757
64 64 -0
64 64 -0
64 64 -0
64 64 -0
64 64 -0
53.31329 64.355232 -0.29862425
53.290035 64.356003 0
53.303131 64.355568 0.29890811
64 64 -0
64 64 -0
64 64 -0
64 64 -0
64 64 -0
53.318058 64.342155 -0.29847926
53.300007 64.342735 0
53.328697 64.341812 0.29818201
64 64 -0
64 64 -0
64 64 -0
64 64 -0
64 64 -0
53.328049 64.328926 -0.29818872
53.315216 64.329323 0
53.328289 64.328918 0.29818201
64 64 -0
64 64 -0
64 64 -0
64 64 -0
64 64 -0
53.322472 64.316185 -0.2983337
53.29921 64.316872 0
53.333092 64.315872 0.29803702
64 64 -0
64 64 -0
64 64 -0
64 64 -0
64 64 -0
53.327286 64.303131 -0.29818872
53.298836 64.30394 0
53.332718 64.302979 0.29803702
64 64 -0
64 64 -0
64 64 -0
64 64 -0
64 64 -0
53.31134 64.290665 -0.29862425
53.288078 64.291298 0
53.316769 64.290512 0.29847255
64 64 -0
64 64 -0
64 64 -0
64 64 -0
64 64 -0
53.331776 64.277206 -0.2980437
53.298134 64.278084 0
53.295643 64.278145 0.29905313
64 64 -0
64 64 -0
64 64 -0
64 64 -0
64 64 -0
53.305477 64.264961 -0.29876927
53.276993 64.265663 0
53.290127 64.265343 0.29919812
64 64 -0
64 64 -0
64 64 -0
64 64 -0
64 64 -0
53.299973 64.252159 -0.29891425
53.292294 64.252342 0
53.305405 64.252029 0.29876256
64 64 -0
64 64 -0
64 64 -0
64 64 -0
64 64 -0
53.304867 64.239113 -0.29876927
53.291996 64.239403 0
53.305107 64.239113 0.29876256
64 64 -0
64 64 -0
64 64 -0
64 64 -0
64 64 -0
53.330559 64.225639 -0.2980437
53.281319 64.226685 0
53.299614 64.226295 0.29890811
64 64 -0
64 64 -0
64 64 -0
64 64 -0
64 64 -0
53.309643 64.21962 -0.29862425
53.286381 64.2201 0
53.335857 64.219086 0.297892
64 64 -0
64 64 -0
64 64 -0
64 64 -0
64 64 -0
53.304195 64.20681 -0.29876927
53.29652 64.206955 0
53.288841 64.2071 0.29919812
64 64 -0
64 64 -0
64 64 -0
64 64 -0
64 64 -0
53.314335 64.193695 -0.29847926
53.29628 64.194023 0
53.330166 64.193405 0.29803702
64 64 -0
64 64 -0
64 64 -0
64 64 -0
64 64 -0
53.288132 64.181221 -0.29920483
53.290852 64.181175 0
53.335133 64.180428 0.297892
64 64 -0
64 64 -0
64 64 -0
64 64 -0
64 64 -0
53.303513 64.168037 -0.29876927
53.285442 64.16832 0
53.308945 64.167946 0.29861757
64 64 -0
64 64 -0
64 64 -0
64 64 -0
64 64 -0
53.298126 64.155182 -0.29891425
53.285248 64.155373 0
53.287964 64.155334 0.29919812
64 64 -0
64 64 -0
64 64 -0
64 64 -0
64 64 -0
53.313522 64.142044 -0.29847926
53.279869 64.142494 0
53.313763 64.142044 0.29847255
64 64 -0
64 64 -0
64 64 -0
64 64 -0
64 64 -0
53.318569 64.129074 -0.2983337
53.258884 64.129791 0
53.313599 64.129128 0.29847255
64 64 -0
64 64 -0
64 64 -0
64 64 -0
64 64 -0
53.31842 64.116165 -0.2983337
53.269135 64.116699 0
53.287472 64.116501 0.29919812
64 64 -0
64 64 -0
64 64 -0
64 64 -0
64 64 -0
53.318172 64.090347 -0.2983337
53.300125 64.0905 0
53.333988 64.090218 0.297892
64 64 -0
64 64 -0
64 64 -0
64 64 -0
64 64 -0
53.292072 64.077629 -0.29905981
53.310421 64.077499 0
53.313099 64.077477 0.29847255
64 64 -0
64 64 -0
64 64 -0
64 64 -0
64 64 -0
53.297199 64.064659 -0.29891425
53.305134 64.064613 0
53.323418 64.064507 0.29818201
64 64 -0
64 64 -0
64 64 -0
64 64 -0
64 64 -0
53.281532 64.051804 -0.29934981
53.279045 64.051819 0
53.307751 64.051682 0.29861757
64 64 -0
64 64 -0
64 64 -0
64 64 -0
64 64 -0
53.281479 64.038857 -0.29934981
53.305008 64.038765 0
53.312889 64.038742 0.29847255
64 64 -0
64 64 -0
64 64 -0
64 64 -0
64 64 -0
53.302227 64.025856 -0.29876927
53.284149 64.025894 0
53.307659 64.025841 0.29861757
64 64 -0
64 64 -0
64 64 -0
64 64 -0
64 64 -0
53.291801 64.012939 -0.29905981
53.31015 64.012917 0
53.276463 64.012955 0.29948813
64 64 -0
64 64 -0
64 64 -0
64 64 -0
64 64 -0
53.322983 64 -0.29818872
53.263298 64 0
53.29203 64 0.29905313
64 64 -0
64 64 -0
64 64 -0
64 64 -0
64 64 -0
53.291794 63.99353 -0.29905981
53.284122 63.993526 0
53.302437 63.993538 0.29876256
64 64 -0
64 64 -0
64 64 -0
64 64 -0
64 64 -0
53.307404 63.980621 -0.29862425
53.258118 63.98053 0
53.323242 63.980648 0.29818201
64 64 -0
64 64 -0
64 64 -0
64 64 -0
64 64 -0
53.29705 63.96767 -0.29891425
53.289368 63.967644 0
53.302483 63.967686 0.29876256
64 64 -0
64 64 -0
64 64 -0
64 64 -0
64 64 -0
53.291885 63.954716 -0.29905981
53.268597 63.954617 0
53.323318 63.954845 0.29818201
64 64 -0
64 64 -0
64 64 -0
64 64 -0
64 64 -0
53.255585 63.941578 -0.30007538
53.284279 63.941734 0
53.318169 63.941917 0.29832757
64 64 -0
64 64 -0
64 64 -0
64 64 -0
64 64 -0
53.281643 63.928768 -0.29934981
53.284355 63.928787 0
53.323456 63.929047 0.29818201
64 64 -0
64 64 -0
64 64 -0
64 64 -0
64 64 -0
53.281738 63.915817 -0.29934981
53.268829 63.915714 0
53.307957 63.916023 0.29861757
64 64 -0
64 64 -0
64 64 -0
64 64 -0
64 64 -0
53.276657 63.902821 -0.2994948
53.284561 63.902889 0
53.318451 63.903198 0.29832757
64 64 -0
64 64 -0
64 64 -0
64 64 -0
64 64 -0
53.276779 63.889862 -0.2994948
53.274265 63.889835 0
53.292595 63.890026 0.29905313
64 64 -0
64 64 -0
64 64 -0
64 64 -0
64 64 -0
53.276924 63.876907 -0.2994948
53.258808 63.876698 0
53.313522 63.877327 0.29847255
64 64 -0
64 64 -0
64 64 -0
64 64 -0
64 64 -0
53.28746 63.864082 -0.29920483
53.253746 63.863651 0
53.313679 63.864414 0.29847255
64 64 -0
64 64 -0
64 64 -0
64 64 -0
64 64 -0
53.272041 63.850922 -0.29964039
53.274734 63.850956 0
53.293064 63.851212 0.29905313
64 64 -0
64 64 -0
64 64 -0
64 64 -0
64 64 -0
53.282631 63.838116 -0.29934981
53.285343 63.838154 0
53.303654 63.838432 0.29876256
64 64 -0
64 64 -0
64 64 -0
64 64 -0
64 64 -0
53.293217 63.825333 -0.29905981
53.269928 63.824955 0
53.319431 63.825764 0.29832757
64 64 -0
64 64 -0
64 64 -0
64 64 -0
64 64 -0
53.262268 63.811852 -0.29993036
53.270149 63.811989 0
53.304077 63.812584 0.29876256
64 64 -0
64 64 -0
64 64 -0
64 64 -0
64 64 -0
53.278095 63.799168 -0.2994948
53.265182 63.798927 0
53.293907 63.799465 0.29905313
64 64 -0
64 64 -0
64 64 -0
64 64 -0
64 64 -0
53.267944 63.786007 -0.29978538
53.265434 63.785957 0
53.283775 63.786324 0.29934314
64 64 -0
64 64 -0
64 64 -0
64 64 -0
64 64 -0
53.278614 63.773258 -0.2994948
53.2761 63.773205 0
53.289234 63.773483 0.29919812
64 64 -0
64 64 -0
64 64 -0
64 64 -0
64 64 -0
53.283943 63.766895 -0.29934981
53.250221 63.766163 0
53.336128 63.768028 0.297892
64 64 -0
64 64 -0
64 64 -0
64 64 -0
64 64 -0
53.27383 63.753708 -0.29964039
53.260933 63.75341 0
53.289661 63.75407 0.29919812
64 64 -0
64 64 -0
64 64 -0
64 64 -0
64 64 -0
53.284538 63.740997 -0.29934981
53.261238 63.740437 0
53.284775 63.741005 0.29934314
64 64 -0
64 64 -0
64 64 -0
64 64 -0
64 64 -0
53.269268 63.727657 -0.29978538
53.277153 63.727856 0
53.290287 63.728188 0.29919812
64 64 -0
64 64 -0
64 64 -0
64 64 -0
64 64 -0
53.254013 63.714275 -0.30022094
53.287907 63.715176 0
53.285435 63.715111 0.29934314
64 64 -0
64 64 -0
64 64 -0
64 64 -0
53.348244 63.703899 -0.593858
53.269958 63.701725 -0.29978538
53.272644 63.701797 0
53.322136 63.703175 0.29832757
64 64 -0
64 64 -0
64 64 -0
64 64 -0
64 64 -0
53.244354 63.688007 -0.30051094
53.267815 63.688686 0
53.296532 63.689518 0.29905313
64 64 -0
64 64 -0
64 64 -0
64 64 -0
64 64 -0
53.255119 63.675323 -0.30022094
53.257782 63.675404 0
53.302105 63.676743 0.29890811
64 64 -0
64 64 -0
64 64 -0
53.294827 63.663578 -0.89279318
53.158104 63.659279 -0.60452342
53.281509 63.663158 -0.2994948
53.263401 63.66259 0
53.260971 63.662514 0.30006868
64 64 -0
64 64 -0
64 64 -0
53.351669 63.652485 -0.8880868
53.292938 63.650566 -0.59702837
53.271523 63.649868 -0.29978538
53.248203 63.649105 0
53.282162 63.650215 0.29948813
64 64 -0
64 64 -0
64 64 -0
53.29567 63.637707 -0.89279318
53.308865 63.638153 -0.59616435
53.266766 63.63673 -0.29993036
53.269444 63.636818 0
53.261818 63.636562 0.30006868
64 64 -0
64 64 -0
64 64 -0
53.178101 63.620636 -0.90263683
53.252457 63.623241 -0.59933472
53.256813 63.623394 -0.30022094
53.25428 63.623306 0
53.288227 63.624496 0.29934314
64 64 -0
64 64 -0
64 64 -0
53.409443 63.615932 -0.88337874
53.340797 63.613445 -0.59443402
53.257278 63.610416 -0.30022094
53.254745 63.610321 0
53.293877 63.611744 0.29919812
64 64 -0
64 64 -0
64 64 -0
53.404793 63.602943 -0.88380629
53.289589 63.598629 -0.59731638
53.252567 63.59724 -0.30036592
53.260418 63.597534 0
53.304729 63.599194 0.29890811
64 64 -0
64 64 -0
64 64 -0
53.287277 63.585579 -0.89364994
53.295246 63.585888 -0.59702837
53.263458 63.584656 -0.30007538
53.250519 63.584156 0
53.268887 63.584866 0.29992369
64 64 -0
64 64 -0
64 64 -0
53.298054 63.573044 -0.89279318
53.331924 63.574394 -0.59501117
53.258759 63.571476 -0.30022094
53.26664 63.571789 0
53.300541 63.573143 0.29905313
64 64 -0
64 64 -0
64 64 -0
53.349869 63.562222 -0.88851434
53.275604 63.55917 -0.59818155
53.248909 63.558071 -0.30051094
53.261948 63.558605 0
53.275108 63.559147 0.29977867
64 64 -0
64 64 -0
64 64 -0
53.232437 63.544361 -0.89835638
53.307144 63.547523 -0.59645236
53.270222 63.545959 -0.29993036
53.257294 63.545414 0
53.27565 63.546188 0.29977867
64 64 -0
64 64 -0
64 64 -0
53.201927 63.536533 -0.90092498
53.312584 63.541283 -0.59616435
53.254917 63.538807 -0.30036592
53.252377 63.5387 0
53.275925 63.539711 0.29977867
64 64 -0
64 64 -0
64 64 -0
53.284565 63.527107 -0.89407748
53.251152 63.525635 -0.59962273
53.26067 63.526054 -0.30022094
53.268547 63.526402 0
53.28688 63.52721 0.29948813
64 64 -0
64 64 -0
64 64 -0
53.264626 63.513233 -0.89578938
53.313725 63.515457 -0.59616435
53.266457 63.513313 -0.30007538
53.248325 63.512493 0
53.271881 63.513561 0.29992369
64 64 -0
64 64 -0
64 64 -0
53.33189 63.503365 -0.89022619
53.334988 63.50351 -0.59501117
53.282612 63.501068 -0.29964039
53.24371 63.49926 0
53.324379 63.503014 0.29847255
64 64 -0
64 64 -0
64 64 -0
53.337624 63.490719 -0.88979864
53.283936 63.488155 -0.59789354
53.252087 63.486633 -0.30051094
53.265118 63.487255 0
53.278275 63.487885 0.29977867
64 64 -0
64 64 -0
64 64 -0
53.302364 63.476078 -0.89279318
53.279396 63.474953 -0.59818155
53.247528 63.473392 -0.30065593
53.281349 63.475048 0
53.294479 63.475693 0.29934314
64 64 -0
64 64 -0
64 64 -0
53.179939 63.456978 -0.90306443
53.362701 63.466148 -0.59356886
53.263729 63.461182 -0.30022094
53.250809 63.460533 0
53.29512 63.462757 0.29934314
64 64 -0
64 64 -0
64 64 -0
53.237011 63.446804 -0.89835638
53.285858 63.449314 -0.59789354
53.248833 63.447411 -0.30065593
53.251469 63.447544 0
53.321724 63.451157 0.29861757
64 64 -0
64 64 -0
64 64 -0
53.283825 63.436226 -0.89450508
53.265869 63.43528 -0.59904671
53.259876 63.434967 -0.30036592
53.257336 63.43483 0
53.280876 63.436069 0.29977867
64 64 -0
64 64 -0
64 64 -0
53.279392 63.423 -0.89493263
53.323383 63.425369 -0.5958752
53.255383 63.421711 -0.30051094
53.263222 63.422131 0
53.291954 63.423676 0.29948813
64 64 -0
64 64 -0
64 64 -0
53.351856 63.413998 -0.88894188
53.344749 63.413605 -0.59472203
53.261276 63.409012 -0.30036592
53.279522 63.410015 0
53.287453 63.410454 0.29963368
64 64 -0
64 64 -0
64 64 -0
53.270554 63.396519 -0.89578938
53.226669 63.394051 -0.60135305
53.277565 63.396912 -0.29993036
53.249054 63.395309 0
53.277805 63.396927 0.29992369
64 64 -0
64 64 -0
53.307178 63.385616 -0.89279318
53.351357 63.388153 -0.59443402
53.221226 63.380676 -0.30152705
53.255001 63.382618 0
53.294113 63.384865 0.29948813
64 64 -0
64 64 -0
53.266926 63.370293 -0.89621693
53.186852 63.365593 -0.60365939
53.242737 63.36887 -0.3009465
53.240162 63.368721 0
53.242973 63.368885 0.3009398
64 64 -0
64 64 -0
53.324055 63.360699 -0.89151055
53.28574 63.358402 -0.59818155
53.253891 63.356495 -0.30065593
53.251316 63.356342 0
53.290428 63.358685 0.29963368
64 64 -0
64 64 -0
53.253098 63.343414 -0.89750123
53.322655 63.347664 -0.59616435
53.239109 63.34256 -0.30109149
53.278091 63.344944 0
53.301594 63.346378 0.29934314
64 64 -0
64 64 -0
53.315392 63.334263 -0.89236563
53.344101 63.336052 -0.59501117
53.23473 63.329235 -0.30123648
53.252899 63.330368 0
53.307575 63.333775 0.29919812
64 64 -0
64 64 -0
53.326439 63.322002 -0.89151055
53.236504 63.316288 -0.60106504
53.230366 63.315899 -0.3013815
53.238152 63.316395 0
53.287643 63.319538 0.29977867
64 64 -0
64 64 -0
53.322151 63.308773 -0.89193809
53.314774 63.308296 -0.59674037
53.241562 63.303558 -0.30109149
53.244171 63.303726 0
53.293652 63.306931 0.29963368
64 64 -0
64 64 -0
53.302929 63.288059 -0.89364994
53.290241 63.287216 -0.59818155
53.253223 63.284752 -0.30080092
53.245453 63.284233 0
53.294926 63.287525 0.29963368
64 64 -0
64 64 -0
53.303795 63.275135 -0.89364994
53.327225 63.276722 -0.59616435
53.243717 63.271061 -0.30109149
53.235931 63.270535 0
53.269875 63.272835 0.30035925
64 64 -0
64 64 -0
53.335423 63.264332 -0.89108133
53.29715 63.261692 -0.59789354
53.244606 63.258064 -0.30109149
53.242027 63.257889 0
53.265583 63.259514 0.30050424
64 64 -0
64 64 -0
53.341434 63.251804 -0.89065379
53.30838 63.249485 -0.59731638
53.250687 63.245434 -0.3009465
53.237724 63.244526 0
53.261307 63.246181 0.30064926
64 64 -0
53.332096 63.238194 -0.89151055
53.309296 63.236565 -0.59731638
53.230873 63.230965 -0.30152705
53.243851 63.231892 0
53.293316 63.235424 0.29977867
64 64 -0
53.297195 63.222702 -0.89450508
53.330845 63.225147 -0.59616435
53.242188 63.218708 -0.30123648
53.249973 63.219273 0
53.28907 63.222111 0.29992369
64 64 -0
53.323738 63.211662 -0.89236563
53.347271 63.213398 -0.59529918
53.253494 63.206474 -0.3009465
53.261295 63.20705 0
53.27964 63.208405 0.30021423
64 64 -0
53.309334 63.197609 -0.89364994
53.358555 63.201302 -0.59472203
53.223377 63.191158 -0.30181706
53.236313 63.192127 0
53.306534 63.197399 0.29948813
64 64 -0
53.320557 63.185474 -0.89279318
53.333725 63.186478 -0.59616435
53.229538 63.178532 -0.30167204
53.232113 63.178726 0
53.271233 63.181709 0.30050424
64 64 -0
53.316418 63.172173 -0.89322239
53.329559 63.173191 -0.59645236
53.235718 63.165916 -0.30152705
53.238297 63.166119 0
53.251503 63.167141 0.30108479
64 64 -0
53.281612 63.156445 -0.89621693
53.387299 63.164761 -0.59328085
53.247101 63.153728 -0.30123648
53.254887 63.154343 0
53.257694 63.154564 0.3009398
64 64 -0
53.328693 63.147175 -0.89236563
53.269714 63.14246 -0.59991187
64 64 -0
53.245529 63.14053 0
53.258724 63.141582 0.3009398
64 64 -0
53.28368 63.130547 -0.89621693
53.348103 63.135773 -0.59558719
53.197372 63.123543 -0.30268815
53.23621 63.126694 0
53.254593 63.128185 0.30108479
64 64 -0
53.259163 63.11549 -0.89835638
64 64 -0
64 64 -0
53.216522 63.11198 0
53.266003 63.116055 0.30079481
64 64 -0
53.285812 63.104649 -0.89621693
53.283211 63.104431 -0.59933472
53.256493 63.1022 -0.30109149
53.253918 63.101986 0
53.282619 63.104382 0.30035925
64 64 -0
53.256199 63.0891 -0.89878553
64 64 -0
53.226524 63.086586 -0.30196205
53.265373 63.089878 0
53.257824 63.089241 0.30108479
64 64 -0
53.241421 63.081303 -0.90006822
64 64 -0
53.237427 63.080959 -0.30167204
53.239998 63.081181 0
53.284264 63.084961 0.30035925
64 64 -0
53.252758 63.069187 -0.89921314
64 64 -0
53.228199 63.067062 -0.30196205
53.25668 63.069527 0
53.259491 63.069771 0.30108479
64 64 -0
53.258999 63.056652 -0.89878553
53.271629 63.057762 -0.60019988
53.224144 63.053589 -0.3021076
53.237068 63.054726 0
53.255451 63.056339 0.3012298
64 64 -0
53.260147 63.043674 -0.89878553
53.303703 63.04755 -0.59846956
53.235657 63.041492 -0.30181706
53.23304 63.04126 0
53.277306 63.0452 0.30064926
64 64 -0
53.297108 63.033928 -0.89578938
53.32547 63.036488 -0.59731638
53.283401 63.032692 -0.30051094
53.234207 63.028252 0
53.252571 63.029907 0.30137536
64 64 -0
53.267616 63.018192 -0.89835638
64 64 -0
53.269047 63.018322 -0.3009465
53.214657 63.013348 0
53.258942 63.017399 0.3012298
64 64 -0
64 64 -0
53.260853 63.004486 -0.60106504
53.249542 63.003437 -0.30152705
53.200302 62.998875 0
53.239441 63.002502 0.30181035
64 64 -0
64 64 -0
53.267227 62.991997 -0.6007759
53.261112 62.991421 -0.30123648
53.206696 62.986313 0
53.256161 62.990955 0.30137536
64 64 -0
64 64 -0
53.273598 62.979519 -0.60048789
64 64 -0
53.244205 62.976723 0
53.272911 62.979454 0.3009398
64 64 -0
64 64 -0
64 64 -0
53.206673 62.959988 -0.30283317
53.240273 62.963226 0
53.258629 62.964996 0.30137536
64 64 -0
64 64 -0
53.286385 62.954601 -0.59991187
53.197601 62.945942 -0.30312318
53.241535 62.950226 0
53.285767 62.954544 0.30064926
53.275017 62.940411 -0.89835638
53.277367 62.940643 -0.60048789
53.224739 62.935444 -0.30239761
53.253162 62.938251 0
53.261162 62.939041 0.30137536
64 64 -0
53.230312 62.922852 -0.90220928
53.263206 62.926144 -0.60135305
53.215679 62.921387 -0.30268815
53.21302 62.921124 0
53.277969 62.92762 0.3009398
64 64 -0
53.226517 62.909325 -0.90263683
53.259373 62.912647 -0.60164106
53.216991 62.90836 -0.30268815
53.214329 62.908089 0
53.258591 62.912571 0.30152035
64 64 -0
53.258499 62.899448 -0.90006822
53.307003 62.904415 -0.59904671
53.233833 62.896919 -0.30225262
53.220829 62.895588 0
53.254749 62.899063 0.30166537
64 64 -0
53.244511 62.88488 -0.90135252
53.292892 62.889896 -0.59991187
53.219658 62.882301 -0.30268815
53.21183 62.881493 0
53.261253 62.886616 0.30152035
64 64 -0
53.256069 62.872955 -0.90049744
64 64 -0
53.226204 62.869823 -0.3025426
53.213188 62.868458 0
53.257442 62.8731 0.30166537
64 64 -0
53.256752 62.866463 -0.90049744
53.325798 62.873749 -0.59818155
53.190704 62.859497 -0.30355874
53.224216 62.863029 0
53.268452 62.867699 0.30137536
64 64 -0
53.253029 62.85294 -0.90092498
53.316872 62.859753 -0.5987587
53.217922 62.849194 -0.30283317
53.2463 62.852222 0
53.269829 62.854733 0.30137536
53.264641 62.841057 -0.90006822
53.313118 62.846291 -0.59904671
53.234825 62.837837 -0.30239761
53.237354 62.838112 0
53.276398 62.842327 0.3012298
64 64 -0
53.271149 62.828644 -0.89964068
53.309383 62.832817 -0.59933472
53.231079 62.824268 -0.3025426
53.22324 62.823414 0
53.272625 62.828804 0.30137536
64 64 -0
53.262356 62.814552 -0.90049744
53.295372 62.818199 -0.60019988
53.206684 62.808407 -0.30326816
53.22467 62.81039 0
53.258568 62.814137 0.30181035
53.248505 62.799873 -0.90178007
53.296806 62.805264 -0.60019988
53.254608 62.800552 -0.30196205
53.220947 62.796795 0
53.218689 62.796543 0.30297148
64 64 -0
53.244846 62.786304 -0.90220928
53.308548 62.793495 -0.59962273
53.225071 62.784073 -0.30283317
53.217239 62.783188 0
53.251125 62.787014 0.30210093
64 64 -0
53.266724 62.775639 -0.90049744
53.315147 62.781162 -0.59933472
53.236885 62.772236 -0.3025426
53.218719 62.770161 0
53.24744 62.773438 0.30224591
53.273327 62.76326 -0.90006822
53.311497 62.767662 -0.59962273
53.238377 62.759232 -0.3025426
53.230545 62.758327 0
53.259247 62.761635 0.30195591
53.264618 62.749111 -0.90092498
53.307838 62.754147 -0.59991187
53.234707 62.745625 -0.30268815
53.221722 62.74411 0
53.255592 62.748058 0.30210093
53.276344 62.737343 -0.90006822
53.314507 62.741833 -0.59962273
53.21043 62.72958 -0.30341372
53.228413 62.731697 0
53.27776 62.737507 0.30152035
53.272766 62.723778 -0.90049744
53.310883 62.72831 -0.59991187
53.206818 62.715931 -0.30355874
53.235115 62.719296 0
53.238007 62.719643 0.30268148
53.26413 62.709591 -0.90135252
53.291882 62.712925 -0.60106504
53.218704 62.704132 -0.30326816
53.221161 62.704426 0
53.244736 62.70726 0.30253592
53.255493 62.695381 -0.90220928
53.308853 62.701859 -0.60019988
53.230587 62.692356 -0.30297816
53.238243 62.693287 0
53.235981 62.693012 0.30282646
53.251987 62.681774 -0.90263683
53.305302 62.688313 -0.60048789
53.22702 62.678711 -0.30312318
53.23983 62.680283 0
53.253048 62.681904 0.3023909
53.268879 62.670685 -0.90135252
53.296616 62.674118 -0.60106504
53.228626 62.665695 -0.30312318
53.205269 62.662804 0
53.244324 62.667641 0.30268148
53.250114 62.655167 -0.90306443
53.31876 62.663757 -0.59991187
53.235397 62.653328 -0.30297816
53.222389 62.651699 0
53.251114 62.655293 0.30253592
53.282303 62.646038 -0.90049744
53.320381 62.650852 -0.59991187
53.211258 62.637066 -0.30370373
53.203369 62.63607 0
53.257896 62.642956 0.3023909
53.288231 62.640213 -0.90006822
53.316071 62.643749 -0.60019988
53.227554 62.632511 -0.30326816
53.219692 62.631512 0
53.227776 62.632538 0.30326203
53.274597 62.625313 -0.90135252
53.292068 62.627552 -0.60164106
53.203426 62.616192 -0.30399427
53.20586 62.616501 0
53.219135 62.618202 0.30355203
53.276268 62.612354 -0.90135252
53.288609 62.613953 -0.60192907
53.215424 62.604481 -0.30370373
53.22303 62.605465 0
53.262043 62.610512 0.3023909
53.262672 62.597401 -0.90263683
53.305664 62.603016 -0.60106504
53.217117 62.59145 -0.30370373
53.209236 62.59042 0
53.258583 62.596867 0.30253592
53.264374 62.584427 -0.90263683
53.302238 62.58942 -0.60135305
53.229126 62.579781 -0.30341372
53.216103 62.578064 0
53.229362 62.579811 0.30340704
53.281364 62.57349 -0.90135252
53.28344 62.573765 -0.60250622
53.199951 62.562656 -0.30428427
53.217827 62.565033 0
53.246544 62.568855 0.30297148
53.247475 62.555756 -0.90434873
53.300556 62.562885 -0.60164106
53.217152 62.551682 -0.30384871
53.193783 62.548542 0
53.237968 62.554478 0.30326203
53.249229 62.542763 -0.90434873
53.292038 62.548569 -0.60221821
53.229198 62.540051 -0.30355874
53.211021 62.537586 0
53.244888 62.542175 0.30311647
53.266262 62.531864 -0.90306443
53.2938 62.535629 -0.60221821
53.236115 62.52774 -0.30341372
53.207645 62.523846 0
53.251804 62.529884 0.30297148
53.268044 62.518894 -0.90306443
53.305836 62.524109 -0.60164106
53.207024 62.510471 -0.30428427
53.188812 62.507961 0
53.232994 62.514057 0.30355203
53.244419 62.502388 -0.90520382
53.302505 62.510475 -0.60192907
53.219116 62.498863 -0.30399427
53.211243 62.497768 0
53.239941 62.501766 0.30340704
53.246239 62.489395 -0.90520382
53.29406 62.496113 -0.60250622
53.210655 62.484394 -0.30428427
53.218216 62.485458 0
53.24176 62.488766 0.30340704
53.244843 62.462685 -0.90563136
53.29261 62.469513 -0.60279423
53.19891 62.45612 -0.30471984
53.196152 62.455723 0
53.266022 62.465714 0.30282646
53.246708 62.449692 -0.90563136
53.289352 62.455837 -0.60308224
53.211079 62.444553 -0.30442929
53.228924 62.447124 0
53.23703 62.448296 0.30369702
53.228264 62.433743 -0.90734327
53.291225 62.442898 -0.60308224
53.202671 62.430023 -0.30471984
53.225662 62.433365 0
53.228619 62.433792 0.30398759
53.240314 62.422218 -0.90648812
53.308456 62.432209 -0.60221821
53.19944 62.416222 -0.30486482
53.206963 62.417328 0
53.251083 62.423798 0.30340704
53.237156 62.408466 -0.90691572
53.300133 62.417778 -0.60279423
53.211632 62.404694 -0.30457485
53.208885 62.404285 0
53.227299 62.407009 0.30413258
64 64 -0
53.263508 62.405735 -0.90477628
53.321556 62.414352 -0.60164106
53.217754 62.398941 -0.30442929
53.194397 62.395473 0
53.233398 62.401264 0.30398759
53.250202 62.39048 -0.90606058
53.292793 62.396858 -0.60337025
53.204273 62.383606 -0.30486482
53.222099 62.386272 0
53.255898 62.391335 0.30340704
53.257248 62.378262 -0.90563136
53.304962 62.385464 -0.60279423
53.221657 62.37289 -0.30442929
53.193165 62.368587 0
53.232159 62.374474 0.30413258
53.238911 62.362194 -0.90734327
53.312027 62.373322 -0.60250622
53.203079 62.356739 -0.30500984
53.231171 62.361015 0
53.234131 62.361465 0.30413258
53.23074 62.347633 -0.90820003
53.293549 62.357269 -0.60365939
53.210205 62.344482 -0.30486482
53.207439 62.344059 0
53.246384 62.350033 0.30384257
53.242901 62.336193 -0.90734327
53.290436 62.343544 -0.6039474
53.201927 62.329853 -0.3051554
53.230022 62.334202 0
53.23299 62.33466 0.3042776
53.23983 62.322403 -0.90777248
53.277107 62.328213 -0.60481256
53.203957 62.316807 -0.3051554
53.206314 62.317177 0
53.25555 62.324852 0.30369702
53.246952 62.3102 -0.90734327
53.284256 62.316063 -0.60452342
53.200867 62.302959 -0.30530038
53.213512 62.304947 0
53.242176 62.309452 0.30413258
53.218567 62.292389 -0.90991187
53.270966 62.30069 -0.60538858
53.21833 62.292351 -0.30486482
53.220703 62.292728 0
53.239098 62.295639 0.3042776
53.215572 62.278553 -0.91033942
53.288361 62.290173 -0.60452342
53.205002 62.276867 -0.30530038
53.21764 62.278885 0
53.236019 62.281818 0.30442315
53.227791 62.267155 -0.90948433
53.290432 62.277229 -0.60452342
53.222488 62.2663 -0.30486482
53.209442 62.264202 0
53.227852 62.267162 0.30471316
53.240036 62.255783 -0.90862757
53.297623 62.265118 -0.60423541
53.209198 62.250786 -0.30530038
53.196129 62.248665 0
53.229954 62.25415 0.30471316
53.237091 62.241959 -0.90905511
53.299728 62.25219 -0.60423541
53.211319 62.237747 -0.30530038
53.2188 62.238968 0
53.242317 62.242809 0.30442315
53.234142 62.228119 -0.90948433
53.27121 62.234219 -0.60596573
53.203209 62.223026 -0.30559039
53.205544 62.223412 0
53.270103 62.234035 0.30369702
53.23629 62.215111 -0.90948433
53.283569 62.22295 -0.60538858
53.205364 62.20998 -0.30559039
53.228237 62.213776 0
53.256859 62.218521 0.30413258
53.223278 62.19957 -0.91076702
53.295921 62.211704 -0.60481256
53.202415 62.196083 -0.30573541
53.220123 62.199043 0
53.248756 62.203827 0.30442315
53.22546 62.18655 -0.91076702
53.282799 62.196201 -0.60567659
53.209721 62.183899 -0.30559039
53.227436 62.186882 0
53.250938 62.190838 0.30442315
53.216423 62.178329 -0.91162378
53.278774 62.188862 -0.60596573
53.221058 62.179111 -0.30530038
53.218277 62.178642 0
53.226414 62.180016 0.30514869
53.213577 62.16444 -0.91205132
53.301369 62.179379 -0.60481256
53.223267 62.166088 -0.30530038
53.215363 62.164742 0
53.238876 62.168747 0.30485815
53.200615 62.148804 -0.91333562
53.278091 62.162083 -0.60625374
53.220375 62.152191 -0.3054454
53.217587 62.151714 0
53.235981 62.154865 0.30500314
53.218044 62.138378 -0.91205132
53.275227 62.148251 -0.60654175
53.212383 62.137402 -0.30573541
53.19931 62.135143 0
53.227966 62.140091 0.30529371
53.225357 62.126232 -0.91162378
53.302948 62.139725 -0.60510057
53.199276 62.121696 -0.30617094
53.216942 62.124767 0
53.230221 62.127075 0.30529371
53.207397 62.109669 -0.91333562
53.269531 62.120552 -0.6071189
53.206665 62.109543 -0.30602595
53.198708 62.108147 0
53.247856 62.116756 0.30485815
53.21981 62.098415 -0.91247886
53.287098 62.110283 -0.60625374
53.208958 62.0965 -0.30602595
53.195881 62.094193 0
53.229668 62.100155 0.3054387
53.227169 62.086288 -0.91205132
53.279213 62.095535 -0.60682976
53.195911 62.080734 -0.30646151
53.223808 62.085693 0
53.252438 62.090778 0.30485815
53.219391 62.071468 -0.91290641
53.276413 62.081669 -0.6071189
53.188019 62.065853 -0.30675152
53.215893 62.070843 0
53.234291 62.074131 0.3054387
53.206566 62.05571 -0.91419071
53.26857 62.066879 -0.60769492
53.210819 62.056477 -0.30617094
53.218231 62.057812 0
53.231514 62.060204 0.30558372
53.203873 62.041756 -0.91461831
53.281082 62.055759 -0.6071189
53.202942 62.041584 -0.30646151
53.194984 62.040142 0
53.213413 62.043484 0.30616426
53.201183 62.027786 -0.91504747
53.278355 62.041882 -0.60740691
53.215549 62.030411 -0.30617094
53.207592 62.028957 0
53.220894 62.031384 0.30601928
53.223774 62.018452 -0.91333562
53.280727 62.028927 -0.60740691
53.21283 62.016441 -0.30631596
53.204868 62.014977 0
53.21817 62.017422 0.30616426
53.216087 62.003567 -0.91419071
53.283119 62.015976 -0.60740691
53.220341 62.004353 -0.30617094
53.207275 62.001934 0
53.220573 62.004398 0.30616426
53.238697 61.994301 -0.91247886
53.280441 62.002083 -0.60769492
53.212532 61.989422 -0.30646151
53.199451 61.986984 0
53.2281 61.992325 0.30601928
53.220943 61.977512 -0.91419071
53.267609 61.986267 -0.60856009
53.194538 61.972557 -0.30704206
53.217243 61.976818 0
53.250961 61.983143 0.3054387
53.213295 61.962582 -0.91504747
53.27005 61.973301 -0.60856009
53.222542 61.964329 -0.30631596
53.219696 61.963791 0
53.243187 61.968227 0.30572927
53.219589 61.957024 -0.91461831
53.291603 61.970673 -0.60740691
53.198231 61.952976 -0.30704206
53.21582 61.95631 0
53.249535 61.9627 0.30558372
53.206932 61.941113 -0.91590261
53.273739 61.953857 -0.60856009
53.20071 61.939926 -0.30704206
53.208061 61.941326 0
53.221367 61.943867 0.30645481
53.204388 61.927105 -0.91633016
53.266068 61.93895 -0.6091361
53.198109 61.9259 -0.30718708
53.231003 61.932217 0
53.234077 61.932804 0.30616426
53.206902 61.914062 -0.91633016
53.278717 61.92794 -0.60856009
53.205719 61.913834 -0.30704206
53.218193 61.916245 0
53.216171 61.915855 0.30674481
53.199341 61.899059 -0.91718692
53.276154 61.914001 -0.60884809
53.21846 61.902779 -0.30675152
53.210491 61.90123 0
53.228889 61.904808 0.30645481
53.191818 61.884041 -0.918042
53.273609 61.900051 -0.6091361
53.2057 61.886757 -0.30718708
53.207932 61.887196 0
53.211029 61.887802 0.30703539
53.194382 61.870983 -0.918042
53.265995 61.88509 -0.60971326
53.218468 61.875729 -0.30689651
53.195168 61.871136 0
53.218681 61.875771 0.30689037
53.212059 61.86092 -0.91675937
53.258419 61.870113 -0.61028928
53.205746 61.859669 -0.30733207
53.20797 61.860107 0
53.226372 61.863758 0.30674481
53.20459 61.845879 -0.91761446
53.255932 61.856125 -0.61057729
53.203247 61.845612 -0.30747706
53.22076 61.849106 0
53.223846 61.84972 0.30689037
53.197124 61.830814 -0.91847122
53.263599 61.844162 -0.61028928
53.205856 61.832565 -0.30747706
53.213173 61.834034 0
53.216274 61.834656 0.30718037
53.189697 61.815731 -0.91932636
53.256058 61.82914 -0.61086643
53.203377 61.818493 -0.30762264
53.22599 61.823063 0
53.239273 61.825745 0.30659983
53.177246 61.799599 -0.92061067
53.253628 61.815128 -0.61115444
53.190758 61.802345 -0.30805764
53.218437 61.807972 0
53.241909 61.812744 0.30659983
53.189983 61.788582 -0.91975391
53.256275 61.802143 -0.61115444
53.203594 61.791367 -0.30776763
53.226189 61.79599 0
53.214001 61.793495 0.30747095
53.167526 61.770348 -0.9218933
53.264 61.790207 -0.61086643
53.211357 61.779369 -0.30762264
53.208466 61.778778 0
53.231949 61.783611 0.30703539
53.165184 61.756218 -0.92232251
53.246414 61.773041 -0.6120196
53.20388 61.764229 -0.30791262
53.200974 61.76363 0
53.209198 61.765331 0.30776092
53.15786 61.741035 -0.92317766
53.259254 61.762161 -0.61144245
53.206589 61.751186 -0.30791262
53.193481 61.748459 0
53.227173 61.755478 0.30732536
53.180698 61.732147 -0.92146575
53.272079 61.751305 -0.61086643
53.199131 61.736012 -0.30820319
53.196213 61.735401 0
53.229893 61.742462 0.30732536
53.172012 61.723499 -0.92232251
53.253193 61.740566 -0.6120196
53.195419 61.72842 -0.30834818
53.207779 61.731018 0
53.221077 61.733814 0.30761594
53.149658 61.705105 -0.92446196
53.250874 61.726513 -0.61230761
53.188011 61.713219 -0.30863819
53.200333 61.715824 0
53.223824 61.720791 0.30761594
53.162495 61.694138 -0.9236052
53.268814 61.716759 -0.61144245
53.195862 61.701237 -0.3084932
53.213295 61.704945 0
53.226585 61.707771 0.30761594
53.170303 61.682117 -0.92317766
53.246292 61.69838 -0.61288363
53.208801 61.690357 -0.30820319
53.216076 61.691914 0
53.214134 61.691498 0.30805093
53.127945 61.659309 -0.92702895
53.264236 61.688652 -0.6120196
53.216694 61.678413 -0.30805764
53.198517 61.674503 0
53.222004 61.679558 0.30790594
53.11071 61.641827 -0.9287408
53.256935 61.673492 -0.61259562
53.204266 61.662086 -0.3084932
53.191151 61.659248 0
53.209572 61.663235 0.3083415
53.11858 61.629761 -0.92831326
53.269855 61.662712 -0.6120196
53.212173 61.65015 -0.30834818
53.20417 61.648407 0
53.207333 61.649094 0.30848649
53.134377 61.605686 -0.9274565
53.275536 61.636791 -0.6120196
53.202671 61.620735 -0.30878317
53.19463 61.618961 0
53.207977 61.621902 0.30863148
53.132248 61.591442 -0.92788571
53.253151 61.618237 -0.61346078
53.205551 61.607689 -0.30878317
53.177189 61.601402 0
53.220993 61.611111 0.3083415
53.125156 61.57608 -0.9287408
53.266144 61.607506 -0.61288363
53.188164 61.590126 -0.30936375
53.20549 61.593987 0
53.213753 61.595829 0.30863148
53.123085 61.561821 -0.92916834
53.253895 61.591145 -0.61374879
53.191082 61.577065 -0.30936375
53.198257 61.578671 0
53.23695 61.587345 0.30805093
53.116013 61.546421 -0.9300251
53.25177 61.577023 -0.6140368
53.199081 61.565147 -0.30921873
53.196098 61.564472 0
53.239876 61.574341 0.30805093
53.093956 61.527596 -0.93216455
53.249668 61.562897 -0.61432481
53.181759 61.547501 -0.30979931
53.193977 61.55027 0
53.222538 61.556747 0.30863148
53.086929 61.512135 -0.93302131
53.252621 61.549908 -0.61432481
53.189793 61.535583 -0.3096543
53.202015 61.538372 0
53.220417 61.542568 0.30877706
53.094963 61.500103 -0.93259209
53.265663 61.539234 -0.61374879
53.19278 61.522526 -0.3096543
53.189793 61.521839 0
53.228474 61.530708 0.30863148
53.067963 61.480003 -0.9351607
53.263607 61.525105 -0.6140368
53.205917 61.511806 -0.30936375
53.177574 61.505272 0
53.221329 61.515358 0.30892205
53.079502 61.475716 -0.93430394
53.255016 61.516285 -0.61461395
53.192226 61.501774 -0.30979931
53.194302 61.502251 0
53.25322 61.515869 0.30805093
53.087559 61.463684 -0.9338764
53.258026 61.503304 -0.61461395
53.20031 61.489891 -0.3096543
53.182114 61.485661 0
53.215736 61.493477 0.30921206
53.080643 61.448166 -0.93473154
53.256016 61.489151 -0.61490196
53.198296 61.475662 -0.30979931
53.185158 61.472591 0
53.198532 61.475716 0.30979261
53.06374 61.430275 -0.93644339
53.259056 61.47617 -0.61490196
53.196301 61.461426 -0.3099443
53.193283 61.460716 0
53.221825 61.467422 0.30921206
53.046867 61.412342 -0.93815523
53.267143 61.464382 -0.61461395
53.169022 61.4412 -0.31081542
53.206501 61.450054 0
53.229946 61.455593 0.30906704
53.040001 61.396732 -0.93901199
53.260162 61.449028 -0.61518997
53.182243 61.430519 -0.31052485
53.204529 61.435814 0
53.227974 61.441383 0.30921206
53.028168 61.379913 -0.94029629
53.243126 61.431244 -0.61634314
53.185356 61.41745 -0.31052485
53.20256 61.421558 0
53.210857 61.423538 0.30979261
53.051311 61.371452 -0.93858445
53.246239 61.418251 -0.61634314
53.178368 61.401955 -0.31081542
53.205681 61.408512 0
53.224075 61.41293 0.3095026
53.054497 61.358227 -0.93858445
53.269478 61.410114 -0.61518997
53.196674 61.39254 -0.31037986
53.188583 61.390587 0
53.227207 61.39991 0.3095026
53.027771 61.337742 -0.94115144
53.252506 61.392269 -0.61634314
53.164474 61.370911 -0.31139597
53.181637 61.375072 0
53.225311 61.38567 0.30964762
53.035976 61.325699 -0.9407239
53.255665 61.379284 -0.61634314
53.177765 61.360283 -0.31110543
53.179764 61.360771 0
53.203239 61.366497 0.31037316
53.034233 61.311234 -0.94115144
53.258842 61.366306 -0.61634314
53.191048 61.349682 -0.31081542
53.167793 61.343979 0
53.216515 61.355927 0.31008318
53.032513 61.296757 -0.94157898
53.262032 61.353329 -0.61634314
53.189217 61.335381 -0.31096041
53.181107 61.333382 0
53.219719 61.342899 0.31008318
53.05072 61.287209 -0.94029629
53.245152 61.335381 -0.61749631
53.212624 61.32732 -0.31037986
53.179291 61.319061 0
53.207817 61.32613 0.31051818
53.024124 61.266537 -0.94286329
53.248379 61.322388 -0.61749631
53.175518 61.304241 -0.31154096
53.187584 61.307243 0
53.241302 61.320625 0.30964762
53.042381 61.257019 -0.94157898
53.266682 61.313168 -0.61663115
55.538017 61.881741 -0.24361905
53.175713 61.290394 0
53.204216 61.297531 0.31080872
53.025787 61.23877 -0.94329083
53.259895 61.297672 -0.6172083
55.63129 61.894341 -0.24100682
53.178993 61.277317 0
53.202457 61.283222 0.31095374
53.034107 61.226768 -0.94286329
53.243107 61.279625 -0.61836147
53.170242 61.261196 -0.31197652
53.177231 61.262962 0
53.215813 61.27272 0.31066373
53.025841 61.217625 -0.94371843
53.254791 61.275669 -0.61778432
53.232349 61.269981 -0.31023484
53.209167 61.264103 0
53.212433 61.264931 0.31080872
53.029209 61.204365 -0.94371843
53.253063 61.26141 -0.61807346
64 64 -0
53.17717 61.242069 0
53.20063 61.248047 0.31124428
53.027607 61.189835 -0.94414759
53.261406 61.24971 -0.61778432
53.13829 61.218182 -0.31313765
53.175472 61.227703 0
53.188873 61.231136 0.31167927
53.045933 61.18042 -0.94286329
53.249702 61.232868 -0.61864948
64 64 -0
53.173794 61.213329 0
53.172096 61.212894 0.31225985
53.019535 61.159473 -0.94543028
53.253052 61.219879 -0.61864948
53.210464 61.208862 -0.31125042
53.187237 61.202854 0
53.210678 61.20892 0.31124428
53.032902 61.148788 -0.94457519
53.25642 61.206898 -0.61864948
53.203773 61.193211 -0.31154096
53.165443 61.183247 0
53.214058 61.195885 0.31124428
53.016487 61.130348 -0.94628704
53.259804 61.193916 -0.61864948
53.192085 61.176224 -0.31197652
53.194027 61.176735 0
53.217453 61.182854 0.31124428
64 64 -0
53.019962 61.117077 -0.94628704
53.248184 61.177002 -0.61951464
53.195507 61.16317 -0.31197652
53.157173 61.153103 0
53.205799 61.165871 0.31167927
53.023453 61.103813 -0.94628704
53.251606 61.164009 -0.61951464
53.21402 61.154095 -0.31154096
53.170696 61.142662 0
53.209232 61.152832 0.31167927
53.017044 61.087921 -0.94714212
53.265049 61.153679 -0.61893749
53.202393 61.137066 -0.31197652
53.174156 61.129578 0
53.212681 61.139793 0.31167927
53.020573 61.074654 -0.94714212
53.278484 61.143372 -0.61836147
53.215912 61.126701 -0.31168598
53.167564 61.113819 0
53.191021 61.120068 0.31240541
53.034023 61.064041 -0.94628704
53.251972 61.122395 -0.62009066
53.219391 61.11367 -0.31168598
53.145924 61.094002 0
53.199543 61.108356 0.31225985
53.027672 61.04813 -0.94714212
53.260448 61.110752 -0.61980265
53.212841 61.097946 -0.31197652
53.154465 61.082241 0
53.187984 61.091259 0.31269538
53.03125 61.034874 -0.94714212
53.258957 61.096428 -0.62009066
53.206333 61.082203 -0.31226653
53.163036 61.070499 0
53.206562 61.082264 0.31225985
53.029869 61.020271 -0.94757134
53.242504 61.07803 -0.62124383
53.224915 61.07325 -0.31183097
53.166584 61.057407 0
53.190037 61.063778 0.3128404
53.016823 61.009602 -0.94885403
53.239288 61.070171 -0.62153184
53.19659 61.058548 -0.31270209
53.16333 61.049492 0
53.206841 61.06134 0.31240541
53.030342 60.999043 -0.94799888
53.247818 61.058537 -0.62124383
53.180099 61.040012 -0.31328264
53.171936 61.037777 0
53.195374 61.044189 0.3128404
53.024082 60.98307 -0.94885403
53.251381 61.045547 -0.62124383
53.183685 61.026939 -0.31328264
53.180538 61.026073 0
53.20396 61.032513 0.31269538
53.007942 60.964344 -0.95056587
53.244976 61.029804 -0.62182099
53.20232 61.018024 -0.31284708
53.16407 61.007462 0
53.207554 61.01947 0.31269538
53.01162 60.951061 -0.95056587
53.253571 61.018196 -0.62153184
53.205929 61.004978 -0.31284708
55.655251 61.684589 0
53.186131 60.999485 0.31342095
53.010368 60.936409 -0.95099342
53.262161 61.006603 -0.62124383
53.214558 60.993332 -0.31270209
55.698166 61.685692 0
53.179741 60.983627 0.31371152
53.019016 60.924519 -0.95056587
53.255814 60.990837 -0.62182099
53.208199 60.977501 -0.3129921
55.726025 61.682678 0
53.193413 60.973362 0.31342095
53.022743 60.911251 -0.95056587
53.249508 60.97506 -0.62239701
53.211861 60.964466 -0.3129921
55.733856 61.674095 0
53.192078 60.9589 0.31356597
53.021545 60.896595 -0.95099342
53.243206 60.959251 -0.62297416
53.200527 60.947189 -0.31342766
53.167316 60.937801 0
53.190746 60.944424 0.31371152
53.025303 60.883331 -0.95099342
53.256851 60.949089 -0.62239701
53.204224 60.934143 -0.31342766
53.191051 60.930401 0
53.194447 60.931366 0.31371152
53.029076 60.870071 -0.95099342
53.250587 60.933266 -0.62297416
53.197933 60.918247 -0.3137182
53.204788 60.9202 0
53.193169 60.916885 0.31385651
53.032867 60.856819 -0.95099342
53.244362 60.917435 -0.62355018
53.196674 60.903767 -0.31386322
64 64 0
53.206905 60.906696 0.31356597
53.021866 60.839306 -0.95227778
53.253059 60.905869 -0.62326217
53.200424 60.890713 -0.31386322
64 64 0
53.200653 60.890781 0.31385651
53.020767 60.824619 -0.95270532
55.830784 61.637325 -0.47393391
53.189224 60.873341 -0.31429821
53.126015 60.855057 0
53.189434 60.873402 0.31429207
53.024612 60.811356 -0.95270532
55.843571 61.630337 -0.47335786
53.212952 60.866074 -0.3137182
53.129822 60.841923 0
53.188236 60.858891 0.31443706
53.018608 60.795216 -0.95356208
55.826576 61.614689 -0.47451103
53.201797 60.848679 -0.31415319
53.108665 60.821499 0
53.197021 60.847286 0.31429207
53.022488 60.781952 -0.95356208
55.84436 61.60918 -0.4736459
53.210594 60.837093 -0.31400821
53.127502 60.812737 0
53.180893 60.828384 0.31487262
53.021461 60.767239 -0.95398962
55.85717 61.602249 -0.47306985
53.209442 60.822594 -0.31415319
53.101395 60.790775 0
53.17477 60.812382 0.31516263
53.023418 60.760609 -0.95398962
53.234169 60.822803 -0.62556851
53.201385 60.813129 -0.31444377
53.098351 60.782722 0
53.186657 60.808781 0.31487262
53.032257 60.748802 -0.95356208
53.203316 60.799511 -0.62758571
53.190311 60.795654 -0.31487876
53.137184 60.779907 0
53.180565 60.792767 0.31516263
53.021427 60.731159 -0.95484638
53.187355 60.780563 -0.62873888
53.204144 60.785561 -0.31458876
53.131096 60.763809 0
53.199398 60.784149 0.31472707
53.014622 60.700211 -0.95612907
53.219936 60.761883 -0.6272977
53.192032 60.753502 -0.31516933
53.094086 60.724079 0
53.18729 60.752075 0.31530762
53.008778 60.683968 -0.95698583
53.213943 60.745869 -0.62787485
53.200935 60.741943 -0.31502432
53.113007 60.715416 0
53.186234 60.737507 0.3154532
53.007881 60.669205 -0.95741338
53.232738 60.737339 -0.62700969
53.209869 60.730408 -0.31487876
53.102036 60.697735 0
53.180244 60.721432 0.31574318
53.011917 60.655926 -0.95741338
53.241631 60.725834 -0.62672168
53.183987 60.70829 -0.31574988
53.111027 60.686089 0
53.169296 60.703819 0.31617874
53.040508 60.65015 -0.95527393
53.240654 60.711327 -0.62700969
53.202885 60.699783 -0.31531432
53.13493 60.679012 0
53.183235 60.693779 0.3158882
53.015125 60.627876 -0.95784092
53.234756 60.695297 -0.62758571
53.20192 60.685215 -0.31545931
53.13895 60.665886 0
53.177292 60.677658 0.31617874
53.033913 60.619137 -0.95655823
53.233799 60.680763 -0.62787485
53.191029 60.667576 -0.31589487
53.147976 60.654305 0
53.211121 60.673771 0.31530762
53.028206 60.602856 -0.95741338
53.242771 60.669289 -0.62758571
53.20002 60.656055 -0.31574988
55.777172 61.454006 0
53.175434 60.648441 0.31646875
53.042114 60.592648 -0.95655823
53.241852 60.654755 -0.62787485
53.17926 60.635292 -0.31647545
55.785221 61.445614 0
53.184448 60.636906 0.31632376
53.007053 60.567173 -0.95998037
53.231102 60.637138 -0.62873888
53.198223 60.626869 -0.31603989
55.798241 61.438789 0
53.168678 60.617641 0.31690431
53.016106 60.555428 -0.95955276
53.230225 60.622574 -0.62902802
53.192379 60.610706 -0.31633043
53.164272 60.601894 0
53.162865 60.601452 0.31719431
53.010471 60.53907 -0.96040952
53.23431 60.609562 -0.62902802
53.181625 60.592972 -0.31676543
53.12867 60.576294 0
53.166977 60.58836 0.31719431
53.004879 60.522701 -0.96126467
53.243362 60.598122 -0.62873888
53.195652 60.583035 -0.31647545
64 64 0
53.22065 60.590939 0.31574318
53.016762 60.519157 -0.96040952
53.225693 60.585373 -0.62989205
53.192768 60.574936 -0.31662044
64 64 0
53.17318 60.568729 0.31719431
53.025883 60.50745 -0.95998037
53.234753 60.573925 -0.62960404
53.196915 60.561882 -0.31662044
53.144016 60.545048 0
55.965252 61.442913 0.23548511
53.005642 60.486374 -0.96212143
53.238899 60.560921 -0.62960404
53.186222 60.544083 -0.317056
53.148201 60.531933 0
55.894089 61.409477 0.23766233
53.009895 60.473091 -0.96212143
53.233223 60.544762 -0.63018006
53.175556 60.526253 -0.31749156
53.137527 60.51405 0
55.966511 61.421917 0.2356301
53.009285 60.458241 -0.96254897
53.227547 60.528576 -0.63075721
55.697365 61.324474 -0.24361905
53.141747 60.500927 0
55.999302 61.421776 0.23475954
53.028229 60.449707 -0.96126467
53.226833 60.513973 -0.63104522
55.680824 61.308044 -0.2441996
53.165791 60.494221 0
55.913429 61.383312 0.23737177
53.012997 60.430107 -0.96297652
53.226139 60.499359 -0.63133323
55.679146 61.296391 -0.24434461
53.150234 60.474697 0
55.857288 61.354271 0.23911345
53.00267 60.412056 -0.96426082
53.210705 60.479927 -0.6324864
55.692291 61.289558 -0.2440546
53.149559 60.459976 0
55.786377 61.320255 0.24129069
52.992371 60.393974 -0.96554518
53.224789 60.470112 -0.63191038
53.107853 60.431805 -0.32010379
53.129116 60.438766 0
55.789619 61.310333 0.24129069
53.011375 60.38549 -0.96426082
53.224152 60.455479 -0.63219839
53.151665 60.431637 -0.31894267
53.128487 60.424011 0
55.77808 61.295547 0.24172568
53.01088 60.370605 -0.96468842
53.228443 60.442459 -0.63219839
53.141178 60.413639 -0.31937823
53.132816 60.410877 0
55.722137 61.266056 0.24346736
53.025009 60.360558 -0.96383327
53.222919 60.426189 -0.63277555
64 64 -0
53.176682 60.410854 0
55.750107 61.264233 0.24274179
53.029415 60.347301 -0.96383327
53.227245 60.41317 -0.63277555
53.140022 60.384129 -0.31966823
53.121765 60.378048 0
55.709045 61.239494 0.24404791
52.999763 60.322659 -0.96682781
53.221786 60.396877 -0.63335156
53.149323 60.372654 -0.31952322
55.604118 61.193283 0
55.737026 61.237713 0.24332236
53.009079 60.311001 -0.96640027
53.231049 60.385502 -0.63306355
53.138931 60.354584 -0.31995878
55.646988 61.196388 0
53.188435 60.371201 0.31850043
53.008686 60.296085 -0.96682781
53.215813 60.365883 -0.63421673
53.143341 60.341461 -0.31995878
55.670113 61.192947 0
53.138649 60.339882 0.32009709
53.013168 60.282806 -0.96682781
53.210423 60.349545 -0.63479275
53.14777 60.328346 -0.31995878
55.693233 61.189556 0
64 64 0
53.000824 60.271221 -0.96811211
53.212627 60.343025 -0.63479275
53.149994 60.321793 -0.31995878
55.714649 61.191223 0
53.101009 60.305187 0.32140321
52.990753 60.252972 -0.96939647
53.217056 60.329994 -0.63479275
53.144615 60.30534 -0.32024878
55.708206 61.177864 0
53.110397 60.293694 0.32125822
53.00016 60.241337 -0.96896726
53.226387 60.318638 -0.63450474
53.153999 60.293903 -0.32010379
55.71162 61.167847 0
53.10997 60.278858 0.32140321
53.004707 60.228046 -0.96896726
53.225956 60.303947 -0.63479275
53.143734 60.275742 -0.32053936
55.764275 61.174721 0
56.152214 61.307804 0.23171176
53.009277 60.214764 -0.96896726
53.225544 60.289249 -0.63508075
53.133514 60.257553 -0.32097435
55.816895 61.181717 0
56.106346 61.281403 0.23316287
53.008991 60.199806 -0.96939647
53.205574 60.267776 -0.63652307
53.133118 60.242722 -0.3211199
55.918694 61.205849 0
56.109634 61.271866 0.23316287
53.013592 60.186527 -0.96939647
53.210094 60.254734 -0.63652307
53.132763 60.227894 -0.32126489
55.990925 61.219986 0
56.024555 61.231659 0.23577566
52.998814 60.166496 -0.97110832
53.214626 60.241699 -0.63652307
53.132423 60.213055 -0.32140991
64 64 0
55.99847 61.211765 0.23664622
53.008316 60.154907 -0.9706791
53.199646 60.22184 -0.63767624
53.12719 60.196491 -0.32170045
64 64 0
56.021469 61.208965 0.23606566
52.988731 60.133118 -0.97282016
53.213989 60.212223 -0.63709909
53.126892 60.181637 -0.32184547
55.981411 61.184071 0
56.034645 61.202766 0.23577566
52.998268 60.121529 -0.97239101
53.194183 60.190594 -0.63854027
53.146225 60.173687 -0.32140991
55.984818 61.174385 0
56.052738 61.19833 0.2353401
52.988441 60.103096 -0.97367531
53.2183 60.184444 -0.6373871
53.136154 60.155373 -0.32184547
55.95879 61.154282 0
56.090427 61.200867 0.23432399
53.022175 60.100105 -0.97110832
53.222919 60.171417 -0.6373871
53.135914 60.140511 -0.32199046
55.981853 61.151535 0
64 64 0
52.988228 60.073051 -0.9745304
53.227554 60.158401 -0.6373871
53.125896 60.122147 -0.32242602
56.00491 61.148842 0
56.092304 61.180008 0.23446955
53.017143 60.068401 -0.97239101
53.222454 60.141895 -0.63796425
55.997654 61.135353 -0.23737846
56.027962 61.146202 0
56.139771 61.186226 0.23316287
53.007401 60.049923 -0.97367531
53.212513 60.123627 -0.63882941
56.02557 61.134468 -0.23665291
56.085304 61.155933 0
56.182281 61.190781 0.23200232
52.990471 60.036324 -0.97538716
53.205132 60.113609 -0.63940543
56.051746 61.138454 -0.23592736
56.087025 61.151154 0
56.208443 61.194866 0.2312762
53.009758 60.028263 -0.97410285
53.195236 60.095291 -0.64027059
56.060112 61.130623 -0.23578179
56.119835 61.152206 0
56.236271 61.194283 0.23055063
53.014565 60.014984 -0.97410285
56.093239 61.13179 -0.4687452
56.112431 61.138748 -0.23433068
56.15263 61.153332 0
56.259209 61.191994 0.22997008
53.00491 59.996441 -0.97538716
56.09671 61.122238 -0.4687452
56.145184 61.139885 -0.23346013
56.185429 61.154541 0
56.287018 61.191532 0.22924453
56.047554 61.093449 -0.70578176
56.119629 61.119793 -0.46759203
56.168167 61.137535 -0.23287956
56.232864 61.161179 0
56.30994 61.18935 0.22866397
56.099262 61.101521 -0.70150292
