# .PCD v0.7 - Point Cloud Data file format
VERSION 0.7
FIELDS x y z
SIZE 4 4 4
TYPE F F F
COUNT 1 1 1
WIDTH 1579
HEIGHT 1
VIEWPOINT 0 0 0 1 0 0 0
POINTS 1579
DATA ascii
68.011047 65.911186 -0.49213973
68.484825 66.13694 -0.41411117
68.910011 66.339531 -0.30311301
69.737671 66.733894 -0.17750293
70.565437 67.128311 0
71.768806 67.701691 0.2403387
67.37973 65.615395 -0.61757618
67.505096 65.675316 -0.53591537
67.99498 65.909454 -0.49045053
68.431305 66.118004 -0.40940475
68.92585 66.354385 -0.30426618
69.659348 66.704971 -0.1751807
70.575745 67.142975 0
71.740883 67.699867 0.23961315
67.346573 65.604515 -0.61187065
67.656891 65.753296 -0.55944759
67.988091 65.912086 -0.48988819
68.428741 66.12336 -0.40940475
68.918327 66.358093 -0.30397707
64 64 -0
70.562569 67.146423 0
71.75515 67.718208 0.24019369
67.344627 65.608551 -0.61187065
67.64122 65.751198 -0.55737305
68.049881 65.947739 -0.49776751
68.463188 66.146507 -0.41282851
68.906158 66.35955 -0.30340105
69.779251 66.779457 -0.1790996
70.497787 67.125023 0
71.745956 67.725319 0.24004814
67.369385 65.625481 -0.61675888
67.517082 65.696732 -0.53868407
67.997177 65.928337 -0.49157524
68.418976 66.131828 -0.40897721
68.98716 66.40593 -0.30858976
69.612061 66.707397 -0.17401958
70.517441 67.14418 0
71.746147 67.736938 0.24019369
67.291779 65.592941 -0.60290527
67.501488 65.694427 -0.53660953
67.976547 65.924316 -0.48932371
68.439499 66.148346 -0.41111663
68.909744 66.3759 -0.30397707
69.64621 66.732292 -0.1751807
70.494896 67.142982 0
71.741623 67.746292 0.24019369
67.312103 65.607719 -0.60698241
67.535538 65.716179 -0.54214418
68.015358 65.949089 -0.49438912
68.399948 66.135773 -0.40769288
68.948769 66.402168 -0.30657253
69.65226 66.743652 -0.17547126
70.486412 67.14856 0
71.779167 67.77607 0.24149981
67.310158 65.611725 -0.60698241
67.528954 65.718254 -0.54145271
68.031273 65.962837 -0.49664065
68.457367 66.170303 -0.41325605
68.908653 66.39003 -0.30426618
69.658279 66.755028 -0.17576125
70.482605 67.156395 0
71.751221 67.774086 0.24077371
67.317085 65.620056 -0.60861081
67.553932 65.735733 -0.54560697
68.03804 65.972168 -0.49776751
68.422447 66.159912 -0.41025987
68.887169 66.386879 -0.30311301
69.668961 66.768707 -0.17619681
70.534889 67.191628 0
71.760666 67.790291 0.24120925
67.320541 65.624229 -0.60942495
67.710625 65.815033 -0.56983066
68.02771 65.970139 -0.49664065
68.38887 66.146797 -0.40726534
68.96936 66.43074 -0.30830175
69.667282 66.772125 -0.17619681
70.518951 67.188721 0
71.763039 67.797256 0.24135426
67.327461 65.632599 -0.61105645
67.573303 65.75322 -0.54906714
67.997963 65.961578 -0.49326444
68.436958 66.176971 -0.41197175
68.882835 66.395737 -0.30311301
69.696594 66.794998 -0.17721292
70.561813 67.219513 0
71.730461 67.792908 0.2404837
67.272263 65.610428 -0.60127687
67.571182 65.757538 -0.54906714
68.000145 65.968651 -0.49382678
68.4021 66.166466 -0.40897721
68.972748 66.447311 -0.30887777
69.646576 66.778931 -0.17576125
70.529907 67.213654 0
71.749184 67.813721 0.24120925
67.341232 65.649384 -0.61431634
67.614037 65.784058 -0.55598742
68.025116 65.986984 -0.49720517
68.45932 66.201324 -0.41454038
68.923409 66.43042 -0.3059954
69.66185 66.794952 -0.17634182
70.512009 67.21463 0
71.739914 67.820778 0.24106427
67.29493 65.631485 -0.60616511
67.692802 65.828491 -0.56844503
67.999924 65.98056 -0.49438912
68.406044 66.181648 -0.40983233
68.920471 66.436371 -0.3059954
69.644516 66.794884 -0.17590681
70.517441 67.227112 0
71.758575 67.84166 0.24178982
67.390366 65.683846 -0.62409592
67.582756 65.779396 -0.55183578
68.038506 66.005745 -0.4994567
68.407997 66.189255 -0.41025987
68.912888 66.440018 -0.3057074
69.641129 66.801697 -0.17590681
70.518211 67.237305 0
71.730659 67.83947 0.24106427
67.242317 65.615204 -0.59720284
67.589577 65.788193 -0.55321878
68.008774 65.997025 -0.49607831
68.396164 66.190002 -0.40940475
68.937714 66.459785 -0.30743659
69.660995 66.820099 -0.17663237
70.481682 67.228928 0
71.753914 67.862709 0.24193482
67.266891 65.63237 -0.60209107
67.618843 65.808235 -0.55806458
68.042725 66.020035 -0.50058138
68.407295 66.202202 -0.41068909
68.893097 66.444939 -0.30484223
69.66687 66.831573 -0.17692237
70.463799 67.229774 0
71.735306 67.865112 0.24149981
67.30027 65.654037 -0.60861081
67.56282 65.785629 -0.54975861
68.003937 66.006706 -0.49607831
68.418388 66.214417 -0.41197175
68.885513 66.448532 -0.30455422
69.677391 66.845413 -0.17735793
70.520378 67.267899 0
71.75386 67.886101 0.24222538
67.267349 65.642479 -0.60290527
67.609978 65.81472 -0.55737305
67.978813 66.00013 -0.49326444
68.392776 66.208229 -0.40983233
68.928764 66.477669 -0.30743659
69.655373 66.842934 -0.17677736
70.493179 67.264091 0
71.739861 67.890793 0.24193482
67.283012 65.655327 -0.60616511
67.549545 65.789719 -0.54837561
67.971863 66.002655 -0.49270207
68.40387 66.220474 -0.41111663
68.916534 66.478966 -0.30686054
69.665863 66.856781 -0.17721292
70.479942 67.26725 0
71.725883 67.895462 0.24164481
67.267792 65.652611 -0.60372257
67.610062 65.825699 -0.55806458
68.023857 66.034973 -0.4994567
68.41951 66.235062 -0.41282851
68.904297 66.480232 -0.30628341
69.634575 66.849548 -0.17634182
70.443474 67.258636 0
71.739723 67.914177 0.24222538
67.279007 65.663261 -0.60616511
67.598892 65.825516 -0.55667889
68.016853 66.037529 -0.49889219
68.398483 66.23111 -0.41111663
68.882843 66.476791 -0.30513024
69.645035 66.863411 -0.17677736
70.41169 67.252296 0
71.721077 67.916473 0.24178982
67.259369 65.658249 -0.60290527
67.578796 65.820763 -0.55391026
68.000809 66.035469 -0.49720517
68.4095 66.243401 -0.41239929
68.898285 66.492073 -0.30628341
69.613785 66.856094 -0.17590681
70.477325 67.295433 0
71.720963 67.928154 0.24193482
67.301407 65.684662 -0.61105645
67.545319 65.809128 -0.54906714
67.98024 66.031067 -0.49495363
68.402222 66.246391 -0.41197175
68.913704 66.507401 -0.30743659
69.633469 66.874687 -0.17663237
70.496521 67.315086 0
71.748619 67.954018 0.24295093
67.26416 65.670631 -0.60453677
67.569923 65.827126 -0.55321878
67.959686 66.026611 -0.49270207
68.390373 66.24704 -0.41111663
68.915291 66.515694 -0.3077257
69.64386 66.888588 -0.17706737
70.473976 67.313446 0
71.716087 67.949173 0.24208038
67.288521 65.688118 -0.60942495
67.549858 65.822273 -0.55045015
67.993408 66.049957 -0.49720517
68.392212 66.254684 -0.41154417
68.880028 66.505096 -0.3057074
69.617256 66.883537 -0.17634182
70.460716 67.316521 0
71.734421 67.97036 0.24280593
67.326027 65.712448 -0.61675888
67.543198 65.824265 -0.54975861
67.986397 66.052452 -0.49664065
68.398605 66.264687 -0.41239929
68.895393 66.520462 -0.30686054
69.609146 66.887947 -0.17619681
70.470589 67.331474 0
71.725006 67.977325 0.24266092
67.341522 65.72554 -0.62001872
67.549911 65.833153 -0.5511443
67.979401 66.054939 -0.49607831
68.395866 66.269997 -0.41239929
68.906136 66.533501 -0.3077257
69.619514 66.901878 -0.17663237
70.44342 67.327339 0
71.729424 67.991425 0.24295093
67.277992 65.697754 -0.60861081
67.525406 65.825897 -0.54768145
67.958862 66.050392 -0.49382678
68.388565 66.272949 -0.41197175
68.875504 66.525146 -0.3059954
69.620613 66.911057 -0.17677736
70.444031 67.337524 0
71.710739 67.993584 0.24251537
67.293488 65.710831 -0.61187065
67.585541 65.862541 -0.55737305
67.974426 66.064545 -0.49607831
68.385818 66.278252 -0.41197175
68.858673 66.52388 -0.30513024
69.617088 66.917847 -0.17677736
70.463089 67.357307 0
71.710541 68.005302 0.24266092
67.313332 65.726227 -0.61594468
67.561028 65.85527 -0.55391026
67.967422 66.067001 -0.49551597
68.37851 66.281181 -0.41154417
68.892319 66.548866 -0.30743659
69.627396 66.931839 -0.17721292
70.41748 67.343468 0
71.719505 68.021812 0.24309593
67.276192 65.711914 -0.60942495
67.558784 65.859573 -0.55391026
67.982941 66.081207 -0.49776751
68.380302 66.288841 -0.41197175
68.86174 66.540405 -0.3057074
69.591599 66.921783 -0.17619681
70.431892 67.360863 0
71.710037 68.028732 0.24295093
67.270782 65.711601 -0.60861081
67.557663 65.861725 -0.55391026
67.963669 66.074188 -0.49551597
68.360718 66.281967 -0.41025987
68.878532 66.55294 -0.30686054
69.608253 66.934799 -0.17677736
70.475967 67.388878 0
71.698402 68.02858 0.24266092
67.308105 65.736229 -0.61594468
67.533195 65.854362 -0.55045015
67.961159 66.078979 -0.49551597
68.344337 66.280083 -0.40897721
68.852547 66.546814 -0.30541936
69.609299 66.943985 -0.17692237
70.45343 67.387024 0
71.72113 68.052361 0.2435315
67.354126 65.765549 -0.62491012
67.530952 65.858635 -0.55045015
67.972137 66.090866 -0.49720517
68.368828 66.299675 -0.41154417
68.86319 66.559898 -0.30628341
69.619537 66.958023 -0.17735793
70.449333 67.394821 0
71.688644 68.047165 0.24266092
67.330132 65.758064 -0.62083608
67.550888 65.874611 -0.55391026
67.969612 66.095665 -0.49720517
68.415993 66.331322 -0.41625223
68.89669 66.585091 -0.30858976
69.597572 66.955109 -0.17677736
70.477455 67.419624 0
71.706726 68.068588 0.24338649
67.29306 65.743584 -0.61431634
67.579666 65.895332 -0.55875605
67.944611 66.088562 -0.49438912
68.399559 66.329445 -0.41496792
68.875275 66.581322 -0.30743659
69.598587 66.964302 -0.17692237
70.38591 67.381165 0
71.720177 68.087624 0.24396704
67.260384 65.731331 -0.60861081
67.524193 65.871422 -0.55045015
67.977989 66.112396 -0.49889219
68.383133 66.32753 -0.41368362
68.867584 66.584793 -0.30714858
69.613365 66.980812 -0.17750293
70.427803 67.4133 0
71.715225 68.096947 0.24396704
67.275742 65.744568 -0.61187065
67.552933 65.892189 -0.55529594
67.979927 66.119598 -0.4994567
68.353134 66.318352 -0.41111663
68.850761 66.583374 -0.30628341
69.600594 66.982712 -0.17721292
70.437439 67.428391 0
71.742371 68.12336 0.2449826
67.269272 65.746193 -0.61105645
67.524101 65.882301 -0.5511443
67.950462 66.110031 -0.49607831
68.382019 66.340538 -0.41411117
68.865883 66.598984 -0.30743659
69.601562 66.99192 -0.17735793
70.470024 67.455788 0
71.714462 68.120468 0.24425705
67.206154 65.717461 -0.59964538
67.49086 65.869972 -0.5462985
67.956879 66.119606 -0.49720517
68.35656 66.33371 -0.41197175
68.899223 66.624397 -0.30974293
69.588776 66.993774 -0.17706737
70.442909 67.451317 0
71.714058 68.13224 0.24440205
67.286812 65.765785 -0.61513048
67.546051 65.905052 -0.55529594
67.967728 66.131599 -0.49889219
68.36731 66.34626 -0.41325605
68.855042 66.608284 -0.30714858
69.589745 67.002991 -0.17721292
70.429573 67.454178 0
71.736534 68.156319 0.24527316
67.249863 65.750999 -0.60861081
67.609993 65.94503 -0.56567633
67.942787 66.124336 -0.49607831
68.359955 66.349106 -0.41282851
68.870102 66.623962 -0.30830175
69.58152 67.007271 -0.17706737
70.416222 67.457001 0
71.699478 68.148407 0.24425705
67.304276 65.785469 -0.61920458
67.545845 65.916 -0.55598742
67.953636 66.136353 -0.49776751
68.33905 66.344612 -0.41111663
68.880585 66.63723 -0.30916688
69.591606 67.021431 -0.17750293
70.398293 67.457329 0
71.726471 68.175003 0.24527316
67.249962 65.7612 -0.60942495
67.530289 65.913109 -0.55391026
67.933182 66.131439 -0.49551597
68.336212 66.349854 -0.41111663
68.8592 66.633263 -0.30801371
69.574242 67.020752 -0.17706737
70.43531 67.487381 0
71.707703 68.17691 0.24483761
67.200073 65.739166 -0.60046268
67.536804 65.922173 -0.55529594
67.930603 66.136192 -0.49551597
68.337875 66.357536 -0.41154417
68.851471 66.636665 -0.3077257
69.611694 67.049828 -0.17837404
70.426506 67.492661 0
71.707214 68.188698 0.2449826
67.22834 65.759583 -0.60616511
67.543282 65.931244 -0.55667889
67.923561 66.138512 -0.49495363
68.375595 66.384888 -0.41539547
68.834656 66.635094 -0.30686054
69.58062 67.041679 -0.17750293
70.435997 67.507896 0
71.693031 68.193039 0.24469261
67.295609 65.801422 -0.61920458
67.598175 65.966805 -0.56567633
67.938812 66.153 -0.49720517
68.363708 66.385254 -0.41454038
68.835999 66.643417 -0.30714858
69.57238 67.045929 -0.17735793
70.39978 67.498199 0
71.692513 68.204819 0.24483761
67.263084 65.788765 -0.61349899
67.521004 65.930153 -0.55391026
67.936203 66.157761 -0.49720517
68.360825 66.390526 -0.41454038
68.841881 66.654236 -0.3077257
69.591476 67.065147 -0.17808348
70.400124 67.508438 0
71.696548 68.219116 0.24512817
67.295578 65.81176 -0.62001872
67.584625 65.970665 -0.56429338
67.946945 66.169846 -0.49889219
68.335419 66.383415 -0.41239929
68.834129 66.657585 -0.30743659
69.555885 67.054375 -0.17706737
70.418686 67.528702 0
71.686882 68.225899 0.2449826
67.250099 65.791878 -0.61187065
67.51194 65.936234 -0.55321878
67.926514 66.164803 -0.49664065
68.341537 66.393616 -0.41325605
68.84903 66.673416 -0.30858976
69.561302 67.066109 -0.17735793
70.400734 67.528915 0
71.709084 68.250244 0.24585372
67.230629 65.786232 -0.60861081
67.513985 65.942902 -0.55391026
67.946144 66.181847 -0.4994567
68.320671 66.388924 -0.41154417
68.850319 66.68177 -0.30887777
69.562141 67.07534 -0.17750293
70.414688 67.546715 0
71.667557 68.239441 0.24469261
67.297638 65.828491 -0.62165022
67.537971 65.961754 -0.55806458
67.925728 66.176758 -0.49720517
68.326752 66.399117 -0.41239929
68.860657 66.69516 -0.30974293
69.562958 67.084572 -0.17764793
70.387642 67.541847 0
71.68969 68.263817 0.24556316
67.209023 65.784424 -0.60535091
67.535599 65.966026 -0.55806458
67.900879 66.169144 -0.49438912
68.350784 66.419319 -0.41496792
68.812195 66.675896 -0.30686054
69.595566 67.111496 -0.17880905
70.387901 67.552094 0
71.666367 68.263 0.2449826
67.297523 65.83886 -0.62246442
67.50692 65.955627 -0.55391026
67.916008 66.183754 -0.49664065
68.329918 66.414574 -0.41325605
68.849609 66.704376 -0.30945492
69.564575 67.103073 -0.17793849
70.374519 67.554741 0
71.692986 68.289978 0.24599873
67.210098 65.792648 -0.60616511
67.514503 65.962646 -0.55529594
67.923569 66.191078 -0.49776751
68.323982 66.414688 -0.41282851
68.843468 66.704788 -0.30916688
69.571762 67.111504 -0.17822848
70.404175 67.576347 0
71.694923 68.297157 0.24614373
67.272629 65.832756 -0.61839038
67.503372 65.961983 -0.55391026
67.916489 66.193336 -0.49720517
68.312096 66.414886 -0.41197175
68.831161 66.705582 -0.30858976
69.568001 67.118233 -0.17822848
70.358978 67.561195 0
71.680664 68.301384 0.24585372
67.270409 65.836708 -0.61839038
67.500992 65.966209 -0.55391026
67.918266 66.200554 -0.49776751
68.286797 66.407532 -0.40983233
68.827888 66.711418 -0.30858976
69.555176 67.119873 -0.17793849
70.381912 67.584175 0
71.693588 68.320839 0.24643429
67.24234 65.826103 -0.61349899
67.494247 65.967979 -0.55321878
67.924446 66.210274 -0.49889219
68.324135 66.435379 -0.41368362
68.838135 66.724861 -0.30945492
69.564987 67.134232 -0.17837404
70.386635 67.596992 0
71.674774 68.322479 0.24599873
67.21431 65.815437 -0.60861081
67.544296 66.001816 -0.56152469
67.917351 66.212517 -0.49832985
68.339073 66.450699 -0.41539547
68.825821 66.725616 -0.30887777
69.57476 67.148613 -0.17880905
70.400414 67.614944 0
71.674065 68.334305 0.24614373
67.293839 65.865608 -0.62409592
67.585526 66.030815 -0.56844503
67.919098 66.219749 -0.49889219
68.336105 66.45594 -0.41539547
68.84053 66.741638 -0.31003094
69.525742 67.129745 -0.17735793
70.382446 67.614975 0
71.686913 68.353813 0.24672428
67.315086 65.888237 -0.62898415
67.489052 65.987328 -0.55391026
67.913719 66.22921 -0.49889219
68.316772 66.458786 -0.41411117
68.829399 66.750771 -0.30974293
69.549774 67.161095 -0.17837404
70.351082 67.617508 0
71.667343 68.367241 0.24643429
67.26989 65.867729 -0.62083608
67.538933 66.021408 -0.56221622
67.888962 66.221344 -0.49607831
68.349464 66.484375 -0.41753492
68.830559 66.759171 -0.31003094
69.527901 67.157486 -0.17779349
70.428055 67.671646 0
71.684624 68.389389 0.24715984
67.250473 65.861855 -0.61757618
67.57132 66.045631 -0.56775349
67.895103 66.231094 -0.49720517
68.301918 66.464111 -0.41325605
68.836205 66.770149 -0.31060809
69.524086 67.164162 -0.17779349
70.351364 67.638031 0
71.665779 68.390915 0.24672428
67.265366 65.875626 -0.62083608
67.525345 66.024956 -0.56083322
67.910034 66.245926 -0.4994567
68.290024 66.464195 -0.41239929
68.8508 66.786301 -0.31176126
69.511238 67.165657 -0.17750293
70.36953 67.658661 0
71.651466 68.395004 0.24643429
67.254524 65.874634 -0.61920458
67.47506 66.001663 -0.55321878
67.902901 66.2481 -0.49889219
68.30484 66.479622 -0.41411117
68.851906 66.794739 -0.31204927
69.538933 67.190475 -0.17851904
70.38765 67.679337 0
71.668663 68.417213 0.24715984
67.299339 65.905762 -0.62816995
67.520439 66.03347 -0.56083322
67.882576 66.242653 -0.49664065
68.315186 66.492531 -0.41539547
68.830605 66.790253 -0.3108961
69.535072 67.197166 -0.17851904
70.351646 67.668831 0
71.67231 68.431671 0.24744983
67.275658 65.897362 -0.62409592
67.509285 66.032692 -0.55944759
67.910652 66.265175 -0.50058138
68.312164 66.497742 -0.41539547
68.831703 66.798676 -0.31118411
69.535698 67.206451 -0.17866404
70.410271 67.713028 0
71.666946 68.440933 0.24744983
67.196411 65.856621 -0.60942495
67.511177 66.039459 -0.56014174
67.907913 66.269897 -0.50058138
68.286949 66.490059 -0.41325605
68.823853 66.801918 -0.3108961
69.509354 67.200089 -0.17793849
70.374268 67.702469 0
71.657089 68.447586 0.24730484
67.262512 65.900291 -0.62246442
67.582413 66.086624 -0.57190782
67.87883 66.259277 -0.49720517
68.306122 66.508156 -0.41539547
68.842804 66.820755 -0.31233728
69.518959 67.214592 -0.17837404
70.365295 67.70755 0
71.647224 68.454224 0.24715984
67.226059 65.884285 -0.61594468
67.497566 66.04287 -0.55875605
67.876099 66.263962 -0.49720517
68.298653 66.510773 -0.41496792
68.86174 66.839661 -0.31377956
69.519554 67.223877 -0.17851904
70.338326 67.70211 0
71.659782 68.473946 0.24774039
67.253647 65.905678 -0.62165022
67.482101 66.039482 -0.55667889
67.90844 66.289185 -0.50170821
68.295616 66.515961 -0.41496792
68.84491 66.837685 -0.3129144
69.529114 67.238426 -0.1789546
70.396736 67.746597 0
71.645393 68.477943 0.24744983
67.251343 65.909607 -0.62165022
67.483978 66.046234 -0.55737305
67.9188 66.30162 -0.50339526
68.305862 66.528954 -0.41625223
68.841476 66.843536 -0.3129144
69.520706 67.242462 -0.17880905
70.324883 67.714783 0
71.648949 68.492447 0.24774039
67.219208 65.895966 -0.61594468
67.472847 66.045349 -0.55598742
67.902893 66.29863 -0.50170821
68.285103 66.523735 -0.41454038
68.833588 66.846764 -0.31262639
69.516785 67.24913 -0.17880905
70.378685 67.75676 0
71.639038 68.499046 0.2475954
67.204147 65.892311 -0.61349899
67.561096 66.103119 -0.57052213
67.900116 66.303345 -0.50170821
68.299736 66.539352 -0.41625223
68.852409 66.865753 -0.31406757
69.530754 67.266365 -0.1793896
70.36071 67.756531 0
71.651497 68.518845 0.24817595
67.316696 65.964195 -0.63550389
67.489471 66.066513 -0.55944759
67.919182 66.320999 -0.50452214
68.305489 66.549774 -0.41710734
68.840034 66.866333 -0.31349045
69.517868 67.267761 -0.1790996
70.342728 67.756248 0
71.654968 68.533379 0.24846596
67.229317 65.917725 -0.61920458
67.452461 66.050232 -0.55391026
67.890152 66.310158 -0.50114375
68.315659 66.562843 -0.41839167
68.827682 66.866905 -0.3129144
69.491577 67.261154 -0.17837404
70.369514 67.782516 0
71.631615 68.532013 0.24788539
67.214256 65.914032 -0.61675888
67.488792 66.077515 -0.56014174
67.874275 66.30706 -0.4994567
68.28167 66.54966 -0.41539547
68.837547 66.880676 -0.31377956
69.509949 67.281082 -0.1790996
70.297852 67.750267 0
71.64399 68.551865 0.24846596
67.23317 65.930595 -0.62083608
67.460426 66.066292 -0.55598742
67.902008 66.329971 -0.50339526
68.296219 66.565361 -0.41710734
68.816299 66.875916 -0.31262639
69.501526 67.28508 -0.1789546
70.342476 67.787224 0
71.642944 68.563759 0.24861096
67.206543 65.91732 -0.61594468
67.519455 66.104424 -0.56567633
67.896248 66.329727 -0.50283295
68.277046 66.557419 -0.41539547
68.836754 66.892097 -0.31406757
69.499542 67.288399 -0.1789546
70.353577 67.799065 0
71.617889 68.555046 0.24788539
67.191498 65.913567 -0.61349899
67.460976 66.075142 -0.55667889
67.889076 66.331818 -0.50227058
68.273949 66.562584 -0.41539547
68.846558 66.905907 -0.31493163
69.491096 67.292358 -0.17880905
70.313271 67.785324 0
71.634659 68.577606 0.24861096
67.163773 65.902145 -0.60861081
67.45417 66.076736 -0.55598742
67.899307 66.344368 -0.50395763
68.310448 66.591553 -0.41924676
68.816452 66.895775 -0.31320244
69.487114 67.298996 -0.17880905
70.33992 67.811729 0
71.624672 68.584152 0.24846596
67.237663 65.951897 -0.62327862
67.451653 66.08091 -0.55598742
67.896469 66.349075 -0.50395763
68.27655 66.578217 -0.41625223
68.821815 66.906937 -0.31377956
69.496475 67.313675 -0.17924461
70.362053 67.835503 0
71.619125 68.593361 0.24846596
67.201462 65.935349 -0.61675888
67.462021 66.092865 -0.55806458
67.871887 66.340637 -0.50114375
68.264633 66.578064 -0.41539547
68.840431 66.92614 -0.31522074
69.501358 67.325684 -0.1795346
70.344063 67.835121 0
71.635803 68.616005 0.24919151
67.194901 65.936661 -0.61594468
67.459496 66.097046 -0.55806458
67.929909 66.382202 -0.50902522
68.305412 66.609818 -0.41967434
68.832458 66.929298 -0.31493163
69.49733 67.332329 -0.1795346
70.357224 67.853577 0
71.612442 68.614449 0.24861096
67.167221 65.925117 -0.61105645
67.542709 66.153351 -0.57190782
67.896622 66.368469 -0.50508446
68.280327 66.601692 -0.41753492
68.824493 66.932449 -0.31464362
69.475555 67.328186 -0.1789546
70.348106 67.858543 0
71.615753 68.629051 0.24890152
67.287292 66.003548 -0.63468969
67.450134 66.102791 -0.55737305
67.906784 66.381111 -0.50677365
68.259644 66.596176 -0.41582304
68.816536 66.935593 -0.31435561
69.502579 67.353722 -0.17997016
70.303444 67.841835 0
71.614586 68.640953 0.2490465
67.196304 65.953384 -0.61757618
67.447594 66.106964 -0.55737305
67.877876 66.369926 -0.50339526
68.260895 66.604004 -0.41625223
68.799736 66.933311 -0.31349045
69.480789 67.349525 -0.1793896
70.325447 67.865738 0
71.617836 68.655563 0.24933651
67.206573 65.964989 -0.62001872
67.457863 66.11898 -0.55944759
67.870682 66.371956 -0.50283295
68.253357 66.606461 -0.41582304
68.822662 66.95533 -0.31522074
69.472305 67.353439 -0.17924461
70.347397 67.889687 0
71.616646 68.667488 0.24948207
67.221039 65.97921 -0.62327862
67.459587 66.125793 -0.56014174
67.85482 66.368645 -0.50114375
68.258957 66.616974 -0.4166798
68.823494 66.96386 -0.31550878
69.472679 67.362762 -0.1793896
70.307213 67.875557 0
71.611 68.676689 0.24948207
67.16394 65.949394 -0.61268485
67.444199 66.12207 -0.55806458
67.895226 66.399963 -0.50677365
68.24704 66.61673 -0.41582304
68.82431 66.972397 -0.31579679
69.47747 67.374832 -0.17968015
70.311394 67.888641 0
71.592072 68.677704 0.2490465
67.216248 65.986992 -0.62327862
67.454445 66.134148 -0.56014174
67.844765 66.37529 -0.50058138
68.278824 66.643448 -0.41924676
68.816315 66.97551 -0.31550878
69.477798 67.384178 -0.17982516
70.315544 67.901726 0
71.595245 68.692329 0.24933651
67.192841 65.977859 -0.61920458
67.456123 66.140961 -0.56083322
67.906693 66.420074 -0.50902522
68.266899 66.643211 -0.41839167
68.817108 66.984047 -0.31579679
69.478119 67.393524 -0.17997016
70.332939 67.923058 0
71.585159 68.698769 0.24919151
67.161049 65.963463 -0.61349899
67.53878 66.198082 -0.57467645
67.895126 66.419426 -0.50789833
68.272423 66.653778 -0.41924676
68.787148 66.973495 -0.31406757
69.482857 67.405632 -0.18026072
70.332634 67.933464 0
71.59713 68.718895 0.24977207
67.146095 65.959442 -0.61105645
67.433899 66.138695 -0.55806458
67.840439 66.391891 -0.50114375
68.247421 66.64537 -0.41710734
68.796707 66.987473 -0.31493163
69.46109 67.401268 -0.17968015
70.319031 67.9356 0
71.595833 68.73082 0.24991708
67.1605 65.973717 -0.61431634
67.43557 66.1455 -0.55875605
67.876335 66.420753 -0.50620914
68.248573 66.653221 -0.41753492
68.806259 67.001495 -0.31579679
69.470192 67.416115 -0.18011516
70.31868 67.945992 0
71.572479 68.728981 0.24933651
67.225143 66.019508 -0.62735575
67.437218 66.152306 -0.55944759
67.873405 66.425438 -0.50620914
68.258423 66.666527 -0.41881922
68.807014 67.01004 -0.3160848
69.45726 67.417206 -0.17982516
70.331551 67.964668 0
71.593193 68.754684 0.25020763
67.164085 65.986603 -0.61594468
67.434616 66.156464 -0.55944759
67.840355 66.411209 -0.50227058
68.272591 66.682594 -0.42053109
68.807762 67.0186 -0.31637391
69.44873 67.421036 -0.17968015
70.295914 67.95295 0
71.583046 68.761093 0.25006261
67.178413 66.000961 -0.61920458
67.436272 66.163292 -0.56014174
67.876144 66.440208 -0.50733602
68.217209 66.65493 -0.41539547
68.808487 67.027168 -0.31666195
69.457771 67.435921 -0.18011516
70.29113 67.960556 0
71.577286 68.770248 0.25006261
67.175995 66.004799 -0.61920458
67.463341 66.18618 -0.56498486
67.82592 66.415054 -0.50114375
68.235703 66.673721 -0.41753492
68.804825 67.032974 -0.31666195
69.466805 67.450836 -0.18055072
70.334747 67.998711 0
71.589096 68.790497 0.25064319
67.275063 66.070107 -0.63876373
67.453545 66.182915 -0.56360185
67.880295 66.45266 -0.5084607
68.255783 66.689995 -0.41967434
68.789871 67.02758 -0.31579679
69.473511 67.459694 -0.18084128
70.32354 67.996979 0
71.568626 68.783981 0.25006261
67.20993 66.034363 -0.62653846
67.446671 66.184402 -0.56291038
67.825836 66.424713 -0.50170821
68.226517 66.67865 -0.41710734
68.799324 67.041679 -0.31666195
69.473709 67.469086 -0.18098627
70.309898 67.999039 0
71.56723 68.795898 0.25020763
67.169922 66.014381 -0.61920458
67.460953 66.199318 -0.56567633
67.878662 66.46476 -0.50902522
68.223274 66.683754 -0.41710734
68.804367 67.053017 -0.31723797
69.460739 67.470116 -0.18069571
70.327042 68.02063 0
71.583359 68.81897 0.25093317
67.163322 66.015556 -0.61839038
67.53447 66.252037 -0.57813662
67.867096 66.463982 -0.50789833
68.233025 66.697136 -0.41839167
68.796318 67.056046 -0.31694996
69.452164 67.473923 -0.18055072
70.287064 68.00589 0
71.581909 68.830925 0.25107819
67.127563 65.998085 -0.61187065
67.442955 66.199585 -0.56360185
67.868401 66.471382 -0.5084607
68.225441 66.699486 -0.4179641
68.810059 67.072975 -0.31810313
69.456726 67.486107 -0.18084128
70.321693 68.038704 0
71.576065 68.84008 0.25107819
67.220871 66.063187 -0.63061249
67.410713 66.184792 -0.55875605
67.839745 66.459618 -0.50508446
68.209198 66.696281 -0.4166798
68.784561 67.064835 -0.31666195
69.44812 67.489891 -0.18069571
70.294891 68.032303 0
71.561462 68.843628 0.25078818
67.18927 66.048386 -0.62491012
67.488289 66.240433 -0.57190782
67.836769 66.464249 -0.50508446
68.223221 66.712463 -0.41839167
68.789551 67.076202 -0.31723797
69.448288 67.499283 -0.18084128
70.285629 68.037086 0
71.56871 68.861183 0.25122318
67.215874 66.070961 -0.63061249
67.426514 66.206612 -0.56221622
67.859413 66.48539 -0.5084607
68.202675 66.706444 -0.4166798
68.76844 67.070786 -0.3160848
69.444054 67.505867 -0.18084128
70.293877 68.053139 0
71.545372 68.859077 0.25064319
67.163551 66.042679 -0.62083608
67.406982 66.19986 -0.55944759
67.856407 66.490051 -0.5084607
68.225273 66.728226 -0.41924676
68.782104 67.087769 -0.31723797
69.444176 67.515259 -0.18098627
70.275848 68.052269 0
71.561325 68.882286 0.25136873
67.177681 66.057243 -0.62409592
67.412758 66.209435 -0.56083322
67.836334 66.483658 -0.50620914
68.234909 66.741699 -0.42053109
68.791405 67.101982 -0.31810313
69.435562 67.519012 -0.18084128
70.301537 68.079651 0
71.55542 68.891418 0.25136873
67.212502 66.085304 -0.63142979
67.468994 66.251801 -0.57052213
67.846123 66.496597 -0.50789833
68.222969 66.741219 -0.41967434
64 64 -0
69.418228 67.51709 -0.18040572
70.292244 68.084427 0
71.5495 68.900543 0.25136873
67.168541 66.062218 -0.62327862
67.487297 66.269669 -0.5739823
67.826065 66.490158 -0.50564682
68.223969 66.74913 -0.42010352
68.744873 67.088158 -0.31550878
69.440102 67.540634 -0.18127628
70.291664 68.094864 0
71.543571 68.90966 0.25136873
67.14949 66.055237 -0.62001872
67.421532 66.232758 -0.56360185
67.835823 66.503113 -0.50733602
68.246429 66.771057 -0.42267051
68.741142 67.093887 -0.31550878
69.453224 67.558563 -0.18185684
70.295433 68.108162 0
71.546333 68.924446 0.25165874
67.188377 66.086105 -0.62816995
67.397842 66.22316 -0.56014174
67.803024 66.488266 -0.50339526
68.238792 66.773376 -0.42224297
68.720085 67.088287 -0.31435561
69.414131 67.542389 -0.18069571
70.277397 68.107208 0
71.544724 68.936401 0.25180376
67.156914 66.070976 -0.62246442
67.428696 66.249268 -0.56567633
67.838257 66.517944 -0.5084607
68.226845 66.772865 -0.42138621
68.737976 67.10817 -0.31579679
69.440269 67.568886 -0.18171184
70.302879 68.134773 0
71.53875 68.945518 0.25180376
67.183327 66.093811 -0.62816995
67.459518 66.275467 -0.57121366
67.826729 66.516998 -0.50733602
68.206329 66.766678 -0.41967434
68.721245 67.105362 -0.31493163
69.427277 67.569748 -0.18142183
70.280502 68.130951 0
71.55014 68.966049 0.25238431
67.106506 66.04866 -0.61349899
67.435822 66.265839 -0.56775349
67.819443 66.518829 -0.50677365
68.1987 66.768936 -0.41924676
68.717491 67.111061 -0.31493163
69.448982 67.593468 -0.18229239
70.275505 68.138542 0
71.531128 68.966591 0.25194931
67.149391 66.082405 -0.62246442
67.420525 66.261681 -0.56567633
67.824867 66.529037 -0.50789833
68.212486 66.785339 -0.42095864
68.713722 67.11676 -0.31493163
69.448967 67.602913 -0.18243739
70.287849 68.157593 0
71.533783 68.981415 0.25223929
67.225159 66.138107 -0.63794953
67.438713 66.279686 -0.56913918
67.804863 66.52243 -0.50564682
68.196274 66.781914 -0.41967434
68.71859 67.128181 -0.31550878
69.422958 67.595139 -0.18171184
70.282822 68.165184 0
71.53643 68.996262 0.25252986
67.09906 66.059906 -0.61349899
67.448479 66.29216 -0.57121366
67.797585 66.524216 -0.50508446
68.210014 66.798347 -0.42138621
68.710503 67.13102 -0.31522074
69.405624 67.593056 -0.18127628
70.260468 68.161263 0
71.534714 69.00824 0.25267485
67.162384 66.107513 -0.62653846
67.44989 66.299118 -0.57190782
67.819901 66.5457 -0.5084607
68.185272 66.7892 -0.41924676
68.711014 67.139572 -0.31550878
69.405609 67.602478 -0.18142183
70.277084 68.18325 0
71.532974 69.020218 0.25281987
67.155731 66.108589 -0.62572426
67.388695 66.264252 -0.56221622
67.787254 66.530563 -0.50452214
68.203239 66.80851 -0.42138621
68.720123 67.153885 -0.31637391
69.435806 67.632088 -0.18258239
70.302307 68.211067 0
71.535553 69.035095 0.25311041
67.169601 66.123405 -0.62898415
67.369286 66.257179 -0.55944759
67.788414 66.537964 -0.50508446
68.204117 66.816452 -0.4218154
68.724899 67.165337 -0.31694996
69.401207 67.618416 -0.18156683
70.266953 68.19841 0
71.525131 69.041298 0.25296485
67.138306 66.107941 -0.62327862
67.391556 66.278038 -0.56360185
67.772682 66.534035 -0.50339526
68.217758 66.832985 -0.42352727
68.703896 67.159508 -0.31579679
69.401138 67.627838 -0.18171184
70.270515 68.211777 0
71.519035 69.050385 0.25296485
67.109901 66.097046 -0.61839038
67.424858 66.309425 -0.56983066
67.82708 66.58065 -0.51127672
68.187073 66.823395 -0.42095864
68.715317 67.179596 -0.31694996
69.407486 67.646339 -0.1821474
70.254242 68.217323 0
71.527107 69.07563 0.2535454
67.123741 66.111877 -0.62165022
67.471947 66.347282 -0.57813662
67.790276 66.5625 -0.50677365
68.200668 66.839958 -0.42267051
68.707184 67.182396 -0.31666195
69.415977 67.661591 -0.18258239
70.270699 68.239449 0
71.503746 69.073074 0.25296485
67.141647 66.129517 -0.62572426
67.394341 66.300797 -0.56567633
67.799789 66.575623 -0.5084607
68.205742 66.8508 -0.42352727
68.690491 67.179375 -0.31579679
69.402954 67.662308 -0.18229239
70.252647 68.238258 0
71.519135 69.096725 0.25369099
67.155426 66.144424 -0.62898415
67.441353 66.338745 -0.5739823
67.826096 66.600212 -0.5124014
68.16832 66.832787 -0.42010352
68.695206 67.190857 -0.31637391
69.394234 67.665916 -0.1821474
70.251816 68.248734 0
71.508659 69.102882 0.2535454
67.09565 66.109268 -0.61757618
67.44268 66.345734 -0.57467645
67.810349 66.596245 -0.51071221
68.177612 66.846489 -0.42138621
68.704163 67.205261 -0.31723797
69.402672 67.681198 -0.18258239
70.233788 68.247498 0
71.515373 69.120728 0.25398096
67.133904 66.140892 -0.62572426
67.43985 66.349892 -0.57467645
67.803017 66.597984 -0.5101499
68.18689 66.860222 -0.42267051
68.700287 67.210945 -0.31723797
69.415382 67.699455 -0.18316294
70.224342 68.252083 0
71.513474 69.132736 0.25412598
67.159866 66.16423 -0.63142979
67.399734 66.328522 -0.56844503
67.787292 66.593964 -0.5084607
68.204613 66.879784 -0.42480993
68.722015 67.234161 -0.31896827
69.415207 67.708939 -0.18330851
70.244972 68.277252 0
71.502975 69.138878 0.25398096
67.169464 66.17643 -0.63387239
67.446556 66.366707 -0.57675093
67.805115 66.61293 -0.51127672
68.188438 66.876152 -0.42352727
68.68399 67.216438 -0.31666195
69.363594 67.683113 -0.18171184
70.235512 68.281853 0
71.505325 69.153816 0.25427097
67.130188 66.155037 -0.62653846
67.414772 66.35096 -0.57190782
67.789391 66.608871 -0.50958753
68.172272 66.872475 -0.42224297
68.67157 67.216225 -0.3160848
69.401939 67.719055 -0.18316294
70.25177 68.304138 0
71.520508 69.177628 0.2549971
67.082848 66.127937 -0.61757618
67.399536 66.346535 -0.56983066
67.765335 66.599022 -0.50677365
68.189919 66.892097 -0.42438239
68.671951 67.224815 -0.31637391
69.393166 67.722633 -0.18301795
70.250839 68.314644 0
71.505684 69.180801 0.25470653
67.165634 66.190727 -0.63468969
67.404945 66.356346 -0.57121366
67.774712 66.612236 -0.5084607
68.190643 66.90007 -0.42480993
68.676552 67.236343 -0.31694996
69.363029 67.711411 -0.1821474
70.258469 68.331085 0
71.507973 69.195786 0.2549971
67.162979 66.19455 -0.63468969
67.381485 66.346161 -0.56775349
67.775742 66.619698 -0.50902522
68.132301 66.867088 -0.41924676
68.698151 67.259689 -0.31868026
69.375626 67.729736 -0.18272795
70.253227 68.338638 0
71.510223 69.21077 0.25528708
67.107574 66.161682 -0.62409592
67.407486 66.3703 -0.57259929
67.789261 66.635864 -0.51127672
68.183624 66.910194 -0.42480993
68.698448 67.268311 -0.31896827
69.396698 67.754028 -0.1835985
70.230896 68.334305 0
71.503922 69.219841 0.25528708
67.117111 66.173904 -0.62653846
67.392273 66.365807 -0.57052213
67.781891 66.637527 -0.51071221
68.163254 66.903496 -0.42309806
68.69873 67.276947 -0.31925631
69.366592 67.742714 -0.18272795
70.242729 68.353745 0
71.497604 69.228905 0.25528708
67.12664 66.186172 -0.62898415
67.377068 66.361275 -0.56844503
67.762039 66.630447 -0.5084607
68.184998 66.926186 -0.42566669
68.677811 67.27076 -0.31810313
69.391869 67.770035 -0.18374351
70.220398 68.34935 0
71.499809 69.243919 0.25557765
67.14019 66.201302 -0.63224399
67.439949 66.41143 -0.57951957
67.767189 66.640831 -0.50958753
68.181458 66.931236 -0.42566669
68.682335 67.282356 -0.31868026
69.370285 67.764618 -0.18316294
70.232185 68.368813 0
71.484947 69.247009 0.25528708
67.105171 66.18235 -0.62572426
67.43293 66.412704 -0.5788281
67.797256 66.668762 -0.5140906
68.207306 66.956947 -0.42866123
68.678368 67.28801 -0.31868026
69.361488 67.768112 -0.18301795
70.231155 68.379333 0
71.499855 69.270988 0.25601265
67.175262 66.23735 -0.64039207
67.421806 66.411064 -0.57744247
67.79818 66.67627 -0.51465297
68.144981 66.920631 -0.42267051
68.653236 67.278755 -0.31723797
69.373924 67.786568 -0.1835985
70.234367 68.392845 0
71.489235 69.277054 0.25586766
67.103928 66.192703 -0.62653846
67.39431 66.397835 -0.57329082
67.749283 66.648598 -0.5084607
68.158226 66.937485 -0.42438239
68.67041 67.299309 -0.31868026
69.343887 67.77507 -0.18272795
70.233315 68.403389 0
71.487099 69.289093 0.25601265
67.19001 66.2593 -0.6444661
67.387314 66.39904 -0.57259929
67.783401 66.679558 -0.51352614
68.179802 66.960304 -0.42694935
68.641083 67.287003 -0.31694996
69.360519 67.796539 -0.1834535
70.253464 68.428963 0
71.489189 69.304153 0.25630319
67.094589 66.197334 -0.62572426
67.363968 66.388603 -0.56913918
67.730453 66.648834 -0.50677365
68.155296 66.950493 -0.42480993
68.653976 67.304588 -0.31810313
69.360161 67.806023 -0.1835985
70.218399 68.415421 0
71.474297 69.307175 0.25601265
67.120125 66.221146 -0.63142979
67.36924 66.398483 -0.57052213
67.772781 66.685753 -0.51296377
68.164276 66.964447 -0.42609426
68.66684 67.322212 -0.31925631
69.35556 67.812492 -0.1835985
70.225784 68.431992 0
71.472122 69.319221 0.2561582
67.090599 66.202942 -0.62572426
67.363708 66.397606 -0.56983066
67.816681 66.720482 -0.51915604
68.162483 66.966965 -0.42609426
68.65641 67.319031 -0.31868026
69.370178 67.827797 -0.18417907
70.227341 68.438766 0
71.468903 69.323738 0.2561582
67.063812 66.189438 -0.62083608
67.417953 66.442505 -0.57951957
67.755516 66.683731 -0.51127672
68.150551 66.966026 -0.42523915
68.660812 67.330666 -0.31925631
69.369774 67.837296 -0.18432407
70.213509 68.440239 0
71.479362 69.344833 0.25673822
67.085266 66.210403 -0.62572426
67.361984 66.408653 -0.57052213
67.756393 66.691223 -0.51183909
68.138611 66.965057 -0.42438239
68.648376 67.330276 -0.31868026
69.373596 67.849846 -0.18461463
70.241989 68.472 0
71.4729 69.353867 0.25673822
67.050476 66.191055 -0.61920458
67.444649 66.474174 -0.5850569
67.753143 66.695763 -0.51183909
68.135025 66.970055 -0.42438239
68.644348 67.335884 -0.31868026
69.364723 67.853302 -0.18446963
70.202766 68.455246 0
71.466423 69.362892 0.25673822
67.120026 66.246735 -0.63387239
67.380592 66.434364 -0.57467645
67.770493 66.715134 -0.51465297
68.15226 66.990044 -0.42652181
68.64032 67.341499 -0.31868026
69.364273 67.862816 -0.18461463
70.22271 68.48098 0
71.447304 69.362808 0.25630319
67.061203 66.209999 -0.62246442
67.414253 66.464882 -0.58090526
67.7631 66.716721 -0.5140906
68.144485 66.992058 -0.42609426
68.657242 67.362236 -0.32012144
69.376457 67.881462 -0.18519518
70.229958 68.497635 0
71.470299 69.393089 0.25731876
67.078552 66.228188 -0.62653846
67.342178 66.418991 -0.56913918
67.743347 66.709343 -0.51183909
68.149178 67.003082 -0.42694935
68.636414 67.355728 -0.31896827
69.367538 67.884903 -0.18504962
70.220306 68.502113 0
71.459572 69.399063 0.25717378
67.107864 66.255127 -0.63305819
67.448891 66.502586 -0.58782554
67.777084 66.740723 -0.51690453
68.149712 67.011116 -0.42737857
68.657471 67.379555 -0.32069749
69.358643 67.888336 -0.18490462
70.189575 68.49128 0
71.457245 69.411125 0.25731876
67.045189 66.215271 -0.62083608
67.316025 66.412292 -0.56567633
67.761436 66.736313 -0.51521534
68.137764 67.010078 -0.42652181
68.6492 67.382141 -0.32040948
69.345543 67.888702 -0.18461463
70.192566 68.504883 0
71.467514 69.432358 0.25789931
67.086426 66.250977 -0.62979829
67.341492 66.436996 -0.57052213
67.737602 66.725891 -0.5124014
68.159019 67.033234 -0.42909044
68.636749 67.381653 -0.31983232
69.332436 67.889023 -0.18432407
70.208145 68.527695 0
71.444145 69.429131 0.25731876
67.039825 66.222626 -0.62083608
67.346649 66.44696 -0.57190782
67.75071 66.742401 -0.51465297
68.15535 67.038261 -0.42909044
68.641014 67.393364 -0.32040948
69.336128 67.901604 -0.18461463
70.211082 68.541344 0
71.454361 69.450394 0.25789931
67.009224 66.205833 -0.61513048
67.331551 66.442101 -0.56983066
67.739189 66.740913 -0.51352614
68.122688 67.022026 -0.42609426
68.636917 67.398972 -0.32040948
69.323021 67.901901 -0.18432407
70.222366 68.561142 0
71.456161 69.465546 0.25818989
67.050377 66.241669 -0.62409592
67.393288 66.493668 -0.58090526
67.739983 66.748451 -0.5140906
68.123161 67.030045 -0.42652181
68.624458 67.398438 -0.31983232
69.330872 67.917564 -0.18475962
70.208466 68.5625 0
71.44117 69.468391 0.25789931
67.127243 66.303986 -0.64039207
67.414497 66.515617 -0.5850569
67.748924 66.762001 -0.51577765
68.136032 67.047203 -0.42823368
68.632843 67.413231 -0.32069749
69.347046 67.939415 -0.18548518
70.20295 68.57 0
71.430374 69.474297 0.25775433
67.029045 66.237289 -0.62083608
67.32267 66.454163 -0.56983066
67.74968 66.769554 -0.51634216
68.1241 67.046104 -0.42737857
68.624565 67.415756 -0.32040948
69.333931 67.939705 -0.18519518
70.180679 68.565117 0
71.440475 69.495621 0.25833488
67.07798 66.279182 -0.63142979
67.388252 66.508934 -0.58159673
67.705482 66.743835 -0.51071221
68.132782 67.060242 -0.42866123
68.61628 67.418266 -0.32012144
69.329163 67.946144 -0.18519518
70.187714 68.581879 0
71.429657 69.501518 0.25818989
67.071243 66.279945 -0.63061249
67.340897 66.480125 -0.5739823
67.722565 66.763458 -0.51352614
68.124962 67.06218 -0.42823368
68.632912 67.439255 -0.32156265
69.320206 67.949471 -0.18504962
70.190521 68.595551 0
71.435524 69.519791 0.25862545
67.080391 66.292511 -0.63305819
67.333878 66.481171 -0.57329082
67.731453 66.777061 -0.51521534
68.133621 67.076355 -0.42951798
68.632896 67.447937 -0.32185066
69.357132 67.986931 -0.18650129
70.184959 68.603027 0
71.424667 69.525658 0.25847989
66.990463 66.231209 -0.61513048
67.330879 66.485191 -0.57329082
67.740318 66.790688 -0.51690453
68.117546 67.072136 -0.42823368
68.628723 67.453529 -0.32185066
69.327309 67.974747 -0.18563019
70.196083 68.622948 0
71.413826 69.531517 0.25833488
67.035263 66.270348 -0.62491012
67.311798 66.477196 -0.57052213
67.73288 66.79216 -0.51634216
68.138512 67.095566 -0.43080232
68.607979 67.446724 -0.32069749
69.297546 67.962517 -0.18475962
70.211327 68.646019 0
71.423782 69.552925 0.25891542
67.004829 66.25325 -0.61920458
67.389091 66.541397 -0.58436537
67.721367 66.790565 -0.51521534
68.126541 67.094398 -0.42994556
68.616234 67.461609 -0.32156265
69.33017 67.996971 -0.18606573
70.184891 68.637909 0
71.417068 69.56189 0.25891542
67.104828 66.334106 -0.64039207
67.414093 66.566605 -0.58921117
67.730179 66.804222 -0.51690453
68.114601 67.093216 -0.42909044
68.61618 67.470284 -0.32185066
69.308716 67.990913 -0.18548518
70.170975 68.63913 0
71.422806 69.580215 0.25935099
67.034904 66.287285 -0.62653846
67.350883 66.525421 -0.5788281
67.702431 66.790375 -0.51352614
68.102654 67.092003 -0.42823368
68.611977 67.475861 -0.32185066
69.316345 68.006714 -0.18592075
70.190292 68.665375 0
71.428497 69.598557 0.25978601
67.104553 66.342712 -0.64120942
67.325333 66.509323 -0.57467645
67.708862 66.798737 -0.51465297
68.113083 67.10376 -0.42951798
68.609879 67.478645 -0.32185066
69.29319 67.994278 -0.18519518
70.175003 68.659706 0
71.404381 69.587395 0.25906044
67.022873 66.286819 -0.62491012
67.318283 66.5103 -0.5739823
67.762215 66.84613 -0.52253228
68.084755 67.090134 -0.42694935
68.593292 67.474846 -0.3209855
69.31736 68.022606 -0.18621074
70.173531 68.670311 0
71.426636 69.618286 0.26007655
67.08313 66.338264 -0.63794953
67.347229 66.538567 -0.57951957
67.742577 66.838394 -0.52028072
68.097382 67.107483 -0.42866123
68.584976 67.477272 -0.32069749
69.295929 68.016464 -0.18563019
70.196907 68.699776 0
71.411552 69.620972 0.25978601
67.060616 66.327019 -0.63387239
67.344162 66.542603 -0.57951957
67.710838 66.821396 -0.51634216
68.089539 67.109322 -0.42823368
68.605484 67.501602 -0.32242778
69.315903 68.04174 -0.18650129
70.170509 68.691513 0
71.429588 69.648804 0.2606571
67.101044 66.363678 -0.64283776
67.297203 66.513199 -0.57190782
67.699333 66.81971 -0.51521534
68.102112 67.126709 -0.42994556
68.580666 67.491478 -0.3209855
69.302742 68.041855 -0.18621074
70.177261 68.708435 0
71.42276 69.657776 0.2606571
67.051056 66.331413 -0.63305819
67.294167 66.517181 -0.57190782
67.71611 66.8396 -0.51802921
68.094254 67.128555 -0.42951798
68.572334 67.493874 -0.32069749
69.301994 68.051422 -0.18635629
70.167435 68.712738 0
71.407646 69.660423 0.26036656
67.016846 66.31105 -0.62653846
67.311035 66.536407 -0.57536793
67.716721 66.847183 -0.51859373
68.078239 67.12413 -0.42823368
68.584541 67.511978 -0.32185066
69.305336 68.06414 -0.1866463
70.165863 68.723343 0
71.409065 69.675697 0.2606571
67.033646 66.329742 -0.63061249
67.299995 66.534294 -0.5739823
67.705208 66.845482 -0.51746684
68.086685 67.138435 -0.42951798
68.580292 67.517517 -0.32185066
69.292191 68.064224 -0.18635629
70.168396 68.737129 0
71.414566 69.694145 0.26109266
67.050423 66.348495 -0.63468969
67.392349 66.61174 -0.59059417
67.733978 66.874756 -0.52196991
68.078827 67.140244 -0.42909044
68.584244 67.529366 -0.32242778
69.303741 68.083298 -0.18693686
70.150307 68.735062 0
71.403549 69.699921 0.26094711
67.000626 66.315933 -0.62491012
67.325638 66.56678 -0.57951957
67.706375 66.860641 -0.51859373
68.087204 67.154572 -0.4303731
68.571777 67.528572 -0.32185066
69.30703 68.096046 -0.18722686
70.148697 68.745667 0
71.404892 69.715218 0.26123768
67.060379 66.367958 -0.63794953
67.314606 66.564667 -0.57813662
67.690857 66.855782 -0.51690453
68.087463 67.162659 -0.43080232
68.567513 67.534096 -0.32185066
69.27742 68.083382 -0.18635629
70.155312 68.76265 0
71.406197 69.730515 0.26152766
66.991119 66.320152 -0.62409592
67.343224 66.593269 -0.58367389
67.695427 66.866463 -0.51802921
68.071465 67.15815 -0.42951798
68.587769 67.55864 -0.32358095
69.293007 68.105682 -0.18708186
70.141319 68.763695 0
71.407486 69.745834 0.26181823
67.011719 66.341965 -0.62898415
67.324242 66.584991 -0.58090526
67.671906 66.855331 -0.51521534
68.079811 67.172531 -0.43080232
68.583466 67.564178 -0.32358095
69.288048 68.112076 -0.18708186
70.156105 68.787086 0
71.421051 69.770729 0.2625438
67.020584 66.354721 -0.63142979
67.38839 66.641441 -0.59267133
67.71254 66.894142 -0.5214076
68.096214 67.193237 -0.43294173
68.579155 67.569717 -0.32358095
69.29126 68.12484 -0.18737185
70.150314 68.794525 0
71.41407 69.779694 0.2625438
67.107315 66.428368 -0.6501717
67.333801 66.60537 -0.58367389
67.673012 66.870461 -0.51634216
68.055954 67.169731 -0.42909044
68.582985 67.581612 -0.324157
69.282181 68.128036 -0.18722686
70.144516 68.801949 0
71.402992 69.785454 0.26239878
66.987648 66.340668 -0.62572426
67.326691 66.606293 -0.58297974
67.701538 66.899971 -0.52084523
68.088486 67.203125 -0.43294173
68.574585 67.583961 -0.32386896
69.264915 68.124794 -0.1867913
70.142815 68.812592 0
71.408257 69.804001 0.26283377
67.066452 66.408394 -0.64283776
67.386673 66.659897 -0.59405434
67.686043 66.89502 -0.51915604
68.056343 67.18586 -0.42994556
68.566185 67.586288 -0.32358095
69.268112 68.137581 -0.18708186
70.132896 68.816788 0
71.397156 69.809738 0.26268879
67.028587 66.384583 -0.63550389
67.284904 66.586395 -0.57675093
67.658577 66.880608 -0.51577765
68.06057 67.197121 -0.43080232
68.57811 67.604607 -0.32473412
69.263107 68.143944 -0.18708186
70.139343 68.833855 0
71.402382 69.828316 0.26312435
66.98793 66.364288 -0.62816995
67.30619 66.616119 -0.58159673
67.687485 66.917831 -0.52084523
68.089066 67.235588 -0.43465361
68.549088 67.599602 -0.32329184
69.253075 68.156654 -0.18708186
70.123566 68.845451 0
71.388275 69.846191 0.26312435
67.016052 66.392471 -0.63468969
67.365921 66.670006 -0.59267133
67.683952 66.922279 -0.52084523
68.069061 67.227768 -0.43294173
68.544739 67.605095 -0.32329184
69.256187 68.169449 -0.18737185
70.125854 68.859306 0
71.397491 69.868034 0.2637049
67.044113 66.420731 -0.64120942
67.339127 66.655327 -0.58851701
67.660522 66.910904 -0.51802921
68.061142 67.229492 -0.43251416
68.548485 67.617027 -0.32386896
69.26741 68.188736 -0.18795241
70.124046 68.869942 0
71.38633 69.873734 0.26355991
67.000107 66.388695 -0.63224399
67.310059 66.635475 -0.58367389
67.67865 66.928955 -0.52084523
68.023033 67.203148 -0.42866123
68.562485 67.632668 -0.32502213
69.268944 68.195152 -0.18809742
70.112968 68.867165 0
71.386841 69.881432 0.2637049
67.001076 66.395401 -0.63305819
67.330391 66.658249 -0.58782554
67.655235 66.917534 -0.51802921
68.043243 67.227234 -0.43122986
68.562134 67.641396 -0.32531017
69.243568 68.18531 -0.18737185
70.135559 68.897278 0
71.387848 69.896828 0.2639949
66.959595 66.368149 -0.62491012
67.260574 66.608986 -0.57605946
67.687431 66.950539 -0.5230968
68.051369 67.241745 -0.43251416
68.54966 67.64045 -0.32473412
69.250679 68.201385 -0.18780741
70.133698 68.907936 0
71.392891 69.915497 0.26443046
66.991432 66.399559 -0.63224399
67.292641 66.641174 -0.58228827
67.687828 66.958168 -0.52365911
68.047447 67.246635 -0.43251416
68.549286 67.649178 -0.32502213
69.26992 68.227226 -0.18867797
70.095284 68.88929 0
71.37764 69.917923 0.26414046
67.000092 66.41246 -0.63468969
67.336372 66.682884 -0.59059417
67.656525 66.940323 -0.51971841
68.047523 67.254738 -0.43294173
68.536804 67.648186 -0.32444501
69.248604 68.220566 -0.18809742
70.117767 68.919487 0
71.398827 69.949623 0.26515603
67.027962 66.440903 -0.64120942
67.262825 66.630234 -0.57813662
67.668793 66.957497 -0.52196991
68.05957 67.272514 -0.43465361
68.544479 67.663406 -0.32531017
69.247559 68.230179 -0.18824297
70.103706 68.920334 0
71.371399 69.942253 0.26443046
67.117264 66.519119 -0.66076541
67.349388 66.706703 -0.59405434
67.66127 66.95874 -0.5214076
68.031647 67.258049 -0.43208498
68.523956 67.655891 -0.324157
69.250519 68.243042 -0.18853296
70.122055 68.947342 0
71.392517 69.97403 0.26544657
67.010521 66.438881 -0.63876373
67.334412 66.701271 -0.59197718
67.653748 66.959961 -0.52084523
68.067612 67.295242 -0.43636546
68.535614 67.674377 -0.32531017
