# .PCD v0.7 - Point Cloud Data file format
VERSION 0.7
FIELDS x y z
SIZE 4 4 4
TYPE F F F
COUNT 1 1 1
WIDTH 1719
HEIGHT 1
VIEWPOINT 0 0 0 1 0 0 0
POINTS 1719
DATA ascii
75.3442 72.284004 0.39230323
75.325638 72.291451 -0.78225225
75.33017 72.294769 -0.39216435
75.306969 72.277779 0
75.350952 72.309982 0.39288378
75.319794 72.308197 -0.78254139
75.328522 72.314606 -0.39245492
75.317932 72.306831 0
78.273438 74.476036 0.49447584
75.309746 72.321869 -0.78254139
75.326836 72.334442 -0.3927449
75.312096 72.323593 0
78.24823 74.484047 0.49404082
75.316338 72.347809 -0.78369457
75.320946 72.351219 -0.39289045
75.310394 72.34343 0
78.264809 74.522842 0.49505639
75.302071 72.358398 -0.78340542
75.323372 72.374153 -0.39332548
75.321228 72.372566 0
78.281342 74.561699 0.4960725
75.304428 72.381294 -0.78427058
75.313248 72.387825 -0.39332548
75.323654 72.395538 0
78.251869 74.566566 0.49549195
75.298447 72.398026 -0.78455859
75.319786 72.413895 -0.39390603
75.321846 72.415421 0
83.882042 78.778137 0.69185549
75.304878 72.424034 -0.78571177
75.334625 72.446198 -0.39477715
75.324196 72.438431 0
83.847504 78.789726 0.69127494
75.312233 72.440147 -0.78657693
75.342003 72.462364 -0.39521214
75.331612 72.454613 0
83.817741 78.786179 0.69054937
75.314453 72.463112 -0.78744209
75.352585 72.491631 -0.39593825
75.32972 72.474525 0
83.758255 78.778992 0.68909824
75.316628 72.486076 -0.78830612
75.33815 72.502213 -0.39579269
75.319466 72.488205 0
83.715424 78.784142 0.68822712
75.318771 72.509071 -0.78917128
75.348648 72.531532 -0.39651883
75.325844 72.514389 0
83.689247 78.801712 0.68793714
75.329132 72.538307 -0.79061246
75.350769 72.554611 -0.39695382
75.323868 72.53434 0
78.288788 74.768883 0.49970084
75.327072 72.558235 -0.79118961
75.323837 72.555794 -0.39637324
75.334312 72.563705 0
78.234314 74.754814 0.49824974
73.40744 71.125717 -0.98374099
75.320839 72.575035 -0.79147762
75.325928 72.578888 -0.3968088
75.336411 72.586823 0
78.229584 74.778275 0.49853975
73.402908 71.140182 -0.98416853
75.322838 72.598091 -0.79234278
75.348663 72.617706 -0.39796993
75.326019 72.600517 0
64 64 0
73.386101 71.145317 -0.98331177
75.324776 72.621162 -0.79320681
75.342377 72.63456 -0.39811492
75.340462 72.633102 0
78.141464 74.765411 0.49636251
73.373383 71.153542 -0.98288423
75.326691 72.644257 -0.79407197
75.340202 72.654572 -0.39840549
75.342438 72.656281 0
78.124321 74.779343 0.49621749
73.356583 71.158623 -0.98202908
75.324463 72.66423 -0.79464912
75.34211 72.677727 -0.39884049
75.33197 72.669975 0
78.070023 74.764824 0.49476638
73.339767 71.163673 -0.98117232
75.318085 72.681053 -0.79493713
75.339867 72.697762 -0.39913106
75.338013 72.696335 0
78.065239 74.788139 0.49505639
73.314827 71.16243 -0.97946048
75.328087 72.71048 -0.79637831
75.337585 72.717789 -0.39942104
75.323357 72.706848 0
78.043961 74.798798 0.49476638
73.314308 71.179955 -0.98031723
75.329849 72.733643 -0.79724348
75.347618 72.747337 -0.4001466
75.329315 72.733231 0
78.026794 74.812592 0.4946214
73.293434 71.181786 -0.97903293
75.331558 72.756805 -0.7981075
75.341164 72.764229 -0.40029216
75.318756 72.746918 0
77.984932 74.807281 0.49360526
73.276642 71.186729 -0.97817779
75.325066 72.773666 -0.79839665
75.334671 72.781105 -0.40043715
75.324638 72.773338 0
77.971863 74.824173 0.49360526
73.235512 71.172737 -0.97475404
75.318542 72.79052 -0.79868466
75.332253 72.801163 -0.40072715
75.338699 72.806175 0
83.076736 78.815903 0.67458487
73.194427 71.158661 -0.97133034
75.32016 72.813721 -0.79954982
75.342125 72.830826 -0.40145329
75.340363 72.829453 0
83.054718 78.835747 0.67443985
73.161484 71.150803 -0.96876168
75.325798 72.840118 -0.80070186
75.331444 72.844521 -0.40145329
75.337898 72.849564 0
83.008102 78.83638 0.67342377
73.169006 71.174522 -0.97047359
75.323265 72.860176 -0.80127901
75.341209 72.874222 -0.40217882
75.3395 72.872879 0
77.338219 74.436829 0.47299629
73.164383 71.188774 -0.97090274
75.316612 72.877037 -0.80156702
75.350922 72.903946 -0.40290439
75.332863 72.889786 0
77.305161 74.436905 0.47227076
73.151642 71.196663 -0.97047359
75.322144 72.903496 -0.80272019
75.336075 72.914452 -0.4027594
75.350754 72.925995 0
77.304794 74.462616 0.47270629
73.138916 71.204536 -0.97004598
75.315437 72.920372 -0.8030082
75.353851 72.950653 -0.40377495
75.339958 72.939705 0
64 64 0
73.146317 71.22831 -0.97175789
75.32901 72.953285 -0.80473852
75.338951 72.961143 -0.40362996
75.341393 72.963074 0
77.263168 74.48185 0.47212574
73.125839 71.221092 -0.97004598
75.339828 72.972969 -0.80589169
75.349838 72.980896 -0.40421051
75.348221 72.979614 0
77.252762 74.486633 0.47198075
73.153305 71.260826 -0.97389728
75.320862 72.980232 -0.80531454
75.343048 72.997826 -0.4043555
75.345512 72.999786 0
77.244148 74.505867 0.47212574
73.16864 71.291061 -0.97646594
75.322151 73.003563 -0.8061797
75.344368 73.021233 -0.40479106
75.342781 73.019974 0
77.223297 74.515388 0.4718352
73.17186 71.311722 -0.97774857
75.323402 73.026917 -0.80704486
75.353775 73.051132 -0.40551662
75.34816 73.046646 0
77.210587 74.531357 0.4718352
73.163017 71.3228 -0.97774857
75.3246 73.05027 -0.80790889
75.355011 73.074577 -0.40595219
75.337219 73.060356 0
77.161316 74.51812 0.47052908
73.142151 71.324249 -0.97646594
75.325775 73.073654 -0.80877405
75.352142 73.094788 -0.40624219
75.350624 73.093567 0
79.602242 76.499748 0.55833387
73.161308 71.35778 -0.97946048
75.347061 73.113243 -0.8110804
75.357353 73.121513 -0.40682274
75.335579 73.104019 0
79.574982 76.508842 0.55789888
73.176407 71.388168 -0.98202908
75.352165 73.139923 -0.81223357
75.354431 73.141754 -0.40711328
75.336731 73.127502 0
79.547707 76.517868 0.55746329
73.186455 71.432922 -0.98502362
75.350143 73.183601 -0.81367475
75.360573 73.192039 -0.40812886
75.342957 73.17778 0
79.541641 76.575012 0.55833387
73.197418 71.460197 -0.98716468
75.351097 73.207085 -0.81453991
75.365601 73.218857 -0.40870941
75.343987 73.201324 0
79.550659 76.613434 0.559205
73.1884 71.471306 -0.98716468
75.331924 73.214264 -0.81396276
75.342369 73.222755 -0.40827441
75.35305 73.231438 0
79.535408 76.63221 0.559205
73.195282 71.495377 -0.98887658
75.344849 73.247566 -0.81569308
75.355377 73.256149 -0.40914497
75.362061 73.261589 0
79.51207 76.644402 0.55891442
73.21006 71.52597 -0.99144357
75.345673 73.271072 -0.81655711
75.352242 73.276443 -0.40943554
75.354904 73.27861 0
79.472641 76.64341 0.55804384
73.189041 71.527328 -0.99015921
75.326469 73.278229 -0.81598109
75.34906 73.29673 -0.40972552
75.347702 73.295624 0
79.461372 76.66539 0.55818886
73.219627 71.571014 -0.99443972
75.335236 73.308319 -0.81742227
75.361908 73.330223 -0.41059607
75.360588 73.32914 0
79.518341 76.743423 0.56080109
73.214432 71.585411 -0.99486727
75.335968 73.331879 -0.81828743
75.362663 73.353851 -0.41103163
75.349312 73.342857 0
79.531021 76.785286 0.56181717
73.2211 71.609612 -0.99657917
75.336655 73.355446 -0.81915259
75.359383 73.374199 -0.41132221
75.358093 73.373138 0
79.499527 76.79081 0.56123662
73.235626 71.640373 -0.99914616
75.337288 73.379021 -0.82001662
75.360046 73.39785 -0.4117572
75.366814 73.403442 0
79.448029 76.779716 0.5599305
73.230331 71.6548 -0.99957371
75.341873 73.405922 -0.82116979
75.376686 73.434792 -0.41277331
75.367447 73.427132 0
79.460579 76.821602 0.56094664
75.330498 73.419617 -0.82116979
75.36528 73.448532 -0.41277331
75.348053 73.434212 0
79.437073 76.833618 0.56065607
75.327065 73.439934 -0.82174695
75.345879 73.455612 -0.4124833
75.360626 73.467903 0
79.465477 76.88887 0.56225276
75.331528 73.466881 -0.82290012
75.36235 73.49263 -0.41349888
75.373154 73.501656 0
79.521667 76.967514 0.56486499
75.325806 73.473724 -0.82290012
75.380539 73.519501 -0.41437
75.379395 73.518539 0
79.513832 76.976891 0.56486499
75.338127 73.507339 -0.82462931
75.376984 73.539917 -0.41466001
75.367882 73.532288 0
79.494164 76.992287 0.56471997
75.338516 73.531021 -0.82549447
75.369423 73.556999 -0.414805
75.360336 73.549362 0
79.418777 76.960838 0.56254274
75.346764 73.561378 -0.82693565
75.381721 73.590828 -0.41567612
75.372665 73.583199 0
82.912056 79.936279 0.69069433
75.347061 73.585098 -0.82780081
75.378052 73.611275 -0.41596609
75.357101 73.593575 0
82.904694 79.969185 0.69112992
75.347305 73.608818 -0.82866484
75.370392 73.628372 -0.41611111
75.369331 73.627472 0
82.936943 80.035675 0.69301659
75.347519 73.632568 -0.82953
75.374603 73.655556 -0.41669166
75.377541 73.658051 0
82.901703 80.04509 0.69243604
75.351631 73.659683 -0.83068317
75.358971 73.665924 -0.41654667
75.373779 73.678528 0
82.910011 80.091492 0.69345212
75.343887 73.676743 -0.83097118
75.363098 73.693138 -0.41712722
75.362076 73.692268 0
82.906372 80.127823 0.69403273
75.343979 73.700539 -0.83183634
75.363228 73.716995 -0.41756278
75.370132 73.7229 0
82.910561 80.170914 0.69490325
75.347961 73.727699 -0.83298951
75.359367 73.737473 -0.41785279
75.370239 73.746796 0
82.894951 80.197128 0.69504827
75.351898 73.75489 -0.83414268
75.383064 73.781677 -0.41915891
75.366341 73.767303 0
82.899017 80.24028 0.69591939
75.336182 73.765228 -0.83385468
75.359436 73.785255 -0.41872391
75.370308 73.794624 0
82.903 80.283447 0.69678992
75.351768 73.802574 -0.83587188
75.375122 73.822739 -0.41973945
75.366348 73.815163 0
82.89119 80.313072 0.69708049
75.347748 73.823059 -0.83644903
75.375038 73.846687 -0.42017502
75.378082 73.849319 0
82.887177 80.349495 0.69766104
75.351501 73.850327 -0.8376022
75.370987 73.867241 -0.42046556
75.374046 73.869896 0
82.887032 80.389328 0.69838661
75.3591 73.881012 -0.83904338
75.36689 73.887787 -0.42075557
75.373878 73.893867 0
82.898582 80.439423 0.69954771
75.354942 73.90152 -0.8396194
75.358849 73.90493 -0.42090058
75.377609 73.921288 0
82.906113 80.486145 0.70056331
75.339081 73.911835 -0.83933139
75.370361 73.939178 -0.42177168
75.377373 73.945312 0
82.905739 80.526077 0.70128882
75.346542 73.942566 -0.84077257
75.36615 73.959747 -0.42206168
75.377098 73.969345 0
82.90139 80.562607 0.70186943
75.346184 73.966515 -0.84163773
75.377541 73.994064 -0.4229328
75.376762 73.993378 0
82.912598 80.612877 0.70303053
75.338013 73.983635 -0.84192574
75.384956 74.024971 -0.42365837
75.368599 74.010567 0
82.888611 80.632286 0.70288551
75.353088 74.021294 -0.84394407
75.376724 74.042152 -0.42380336
75.368187 74.034622 0
82.884087 80.668854 0.70346606
75.340973 74.035004 -0.84394407
75.38015 74.069672 -0.42438391
75.363861 74.055252 0
77.150757 75.636375 0.49041247
75.352051 74.06929 -0.84567326
75.38353 74.097206 -0.42496449
75.367279 74.082794 0
77.132797 75.648811 0.49026749
75.363083 74.10363 -0.84740359
75.375198 74.114403 -0.42510948
75.362854 74.103432 0
64 64 0
75.360832 74.11393 -0.8476916
75.376854 74.128189 -0.42540005
75.368416 74.120682 0
77.111664 75.6726 0.49026749
75.356316 74.134529 -0.84826761
75.380119 74.155769 -0.4259806
75.360062 74.137871 0
77.093658 75.684959 0.49012193
75.347931 74.151703 -0.84855676
75.387199 74.186836 -0.42670617
75.371086 74.172417 0
77.067924 75.690392 0.48968694
75.351059 74.179222 -0.84970993
75.378754 74.204056 -0.42685115
75.374283 74.20005 0
77.053787 75.706169 0.48968694
75.350281 74.203293 -0.85057396
75.381874 74.231697 -0.4274317
75.38517 74.234657 0
82.929352 81.016479 0.71086776
75.35717 74.234329 -0.85201627
75.369499 74.245438 -0.4274317
75.376663 74.251892 0
82.908783 81.039337 0.71086776
75.360153 74.261917 -0.85316944
75.380241 74.280067 -0.42830226
75.364265 74.265625 0
82.911308 81.083069 0.71173835
75.351578 74.279099 -0.85345745
75.375526 74.300789 -0.42859283
75.348 74.275864 0
82.913773 81.126839 0.71260947
75.362122 74.313667 -0.85518664
75.393852 74.342468 -0.42975393
75.374107 74.324547 0
82.916145 81.170631 0.71348
75.35347 74.330864 -0.85547465
75.392868 74.366714 -0.43018895
75.380882 74.355804 0
82.903076 81.200478 0.71377057
75.367737 74.36898 -0.85749298
75.368828 74.36998 -0.42975393
75.387581 74.387085 0
82.93219 81.268829 0.71565723
75.355202 74.382706 -0.85749298
75.379295 74.404739 -0.43062449
75.382698 74.407852 0
82.907478 81.288193 0.71551222
75.357903 74.4104 -0.85864615
75.393539 74.443069 -0.43164062
75.39698 74.44622 0
82.905731 81.328583 0.71623778
75.3377 74.41713 -0.85807014
75.377083 74.453316 -0.43149561
75.388176 74.463501 0
82.923035 81.386566 0.71768892
75.359344 74.462357 -0.86066449
75.383553 74.48465 -0.43222117
75.390839 74.491364 0
82.91349 81.419983 0.71812445
75.3619 74.490112 -0.86181766
75.389969 74.516022 -0.43294674
75.378159 74.505119 0
82.903885 81.4534 0.71856004
75.345413 74.500305 -0.86152852
75.392509 74.5439 -0.43352729
75.357819 74.511795 0
82.917107 81.507996 0.71986616
75.359261 74.538643 -0.86354685
75.417847 74.592995 -0.4349784
75.379448 74.557365 0
82.918785 81.552048 0.72073668
75.357887 74.562927 -0.86441201
75.401237 74.603249 -0.43483341
75.370491 74.574654 0
82.908981 81.58551 0.72117227
75.364029 74.594284 -0.86585319
75.396011 74.6241 -0.43512341
75.365311 74.595474 0
82.910522 81.629601 0.7220428
75.362564 74.618607 -0.86671835
75.39077 74.644958 -0.43541396
75.382927 74.637634 0
82.904396 81.666634 0.72262335
75.357269 74.639389 -0.86729437
75.385483 74.665817 -0.43570396
75.39286 74.672737 0
82.864075 81.6717 0.72189784
75.359489 74.667267 -0.86844754
75.391533 74.697365 -0.43643007
75.387543 74.693611 0
77.23999 76.433174 0.50724757
75.363777 74.723091 -0.87075388
75.380768 74.739128 -0.43701065
75.384384 74.742538 0
77.198563 76.45443 0.50681198
75.372337 74.744164 -0.87190706
75.396942 74.76741 -0.4378812
75.381676 74.752991 0
77.160828 76.433868 0.50565141
75.374367 74.772125 -0.87306023
75.38015 74.777603 -0.43773618
75.398903 74.795364 0
77.153336 76.456902 0.50594145
75.380096 74.803665 -0.87450141
75.393494 74.816383 -0.43875176
75.393394 74.816292 0
77.138268 76.472786 0.50594145
75.367035 74.817413 -0.87450141
75.399246 74.848061 -0.43947786
75.395401 74.844398 0
77.123192 76.488647 0.50594145
75.376411 74.852554 -0.8762306
75.40493 74.879761 -0.44020343
75.393593 74.868942 0
77.111847 76.50808 0.50608641
75.370773 74.873451 -0.87680775
75.380501 74.882751 -0.43976787
75.399254 74.900688 0
77.100494 76.527519 0.50623196
75.361359 74.890762 -0.87709576
75.386101 74.914474 -0.44049343
75.397354 74.925262 0
77.085342 76.543335 0.50623196
75.363113 74.918816 -0.87824893
75.402878 74.957031 -0.44165453
75.399155 74.953453 0
77.100143 76.587929 0.50739253
75.364807 74.946892 -0.8794021
75.404602 74.985222 -0.44223511
75.393402 74.974434 0
82.998459 82.299835 0.73670119
75.366463 74.974991 -0.88055527
75.395058 75.002602 -0.4423801
75.398849 75.006264 0
82.927734 82.275848 0.73481452
75.371773 75.006699 -0.88199645
75.400421 75.034431 -0.44310567
75.385544 75.020027 0
82.924309 82.316772 0.73554009
75.380745 75.042053 -0.88372678
75.40947 75.069916 -0.44397676
75.398376 75.059151 0
82.928276 82.36496 0.73655623
75.363678 75.052177 -0.88343763
75.399811 75.087318 -0.44412178
75.392471 75.080185 0
82.906075 82.387817 0.73655623
75.39846 75.112839 -0.88718516
75.405006 75.119217 -0.44484732
75.390244 75.104828 0
82.917328 82.443298 0.73786229
75.388741 75.130234 -0.8874743
75.406425 75.147522 -0.44542789
75.399162 75.140419 0
82.928474 82.498833 0.73916841
75.367882 75.136742 -0.88689715
75.39666 75.164932 -0.44557288
75.404282 75.172394 0
82.932098 82.54715 0.74018455
75.372871 75.168587 -0.88833833
75.397987 75.193253 -0.44615343
75.405624 75.200752 0
82.920799 82.58094 0.74062014
75.366745 75.189583 -0.88891548
75.391869 75.214317 -0.446444
75.39949 75.221825 0
82.931664 82.636597 0.74192625
75.367943 75.217842 -0.89006865
75.389412 75.239029 -0.44687957
75.408165 75.25753 0
82.909134 82.659454 0.74192625
75.372765 75.249756 -0.89150983
75.40168 75.278358 -0.44789511
75.394554 75.271309 0
82.919815 82.715179 0.74323231
75.38855 75.292633 -0.89381617
75.395432 75.299454 -0.44818568
75.391998 75.296051 0
82.919327 82.759979 0.7441029
75.371231 75.302742 -0.89352816
75.422302 75.3535 -0.44978181
75.411575 75.342842 0
82.922447 82.808472 0.74511904
75.390549 75.349327 -0.89612252
75.412262 75.370972 -0.44992736
75.40155 75.360291 0
82.925484 82.857002 0.74613512
75.38414 75.370392 -0.89669853
75.405869 75.39209 -0.45021734
75.391495 75.377739 0
82.932083 82.909225 0.74729568
75.38459 75.38459 -0.89727569
75.421021 75.421021 -0.45108792
75.41774 75.41774 0
82.935356 82.935356 0.74787623
75.381775 75.409309 -0.89813972
75.414558 75.442177 -0.45137846
75.41864 75.446266 0
82.941826 82.987656 0.74903738
75.367981 75.423058 -0.89813972
75.41539 75.470695 -0.45195901
75.412148 75.467438 0
82.940872 83.032639 0.74990845
75.368744 75.451469 -0.89929289
75.423485 75.506607 -0.45282957
75.409271 75.492294 0
82.928833 83.066566 0.7503435
75.387657 75.498276 -0.90188724
75.424202 75.535172 -0.45341015
75.410034 75.520859 0
82.935036 83.118965 0.7515046
75.384666 75.523064 -0.9027524
75.421211 75.560059 -0.45384571
75.414391 75.553146 0
82.919235 83.149231 0.75179517
75.378006 75.544189 -0.90332955
75.421829 75.588654 -0.45442626
75.407738 75.574356 0
82.917969 83.194275 0.7526657
75.393059 75.58744 -0.90563589
75.429672 75.624672 -0.45529681
75.40834 75.602974 0
82.920265 83.243065 0.75368184
75.393539 75.615967 -0.90678906
75.415619 75.638474 -0.45529681
75.412529 75.63533 0
82.93338 83.303009 0.75513291
75.393951 75.644501 -0.9079411
75.426994 75.678268 -0.45631292
75.413025 75.663994 0
82.928215 83.344437 0.75585848
75.390717 75.669373 -0.90880626
75.416504 75.695778 -0.45645794
75.413467 75.692673 0
82.92662 83.389618 0.7567296
75.383835 75.690544 -0.90938342
75.409622 75.717018 -0.45674849
75.41748 75.725098 0
82.939423 83.449692 0.75818074
64 64 -0
75.387718 75.722839 -0.9108246
75.399071 75.73452 -0.45689347
75.414192 75.750092 0
82.941261 83.498665 0.75919682
75.384354 75.747742 -0.91168976
75.421043 75.785599 -0.45834461
75.428963 75.793777 0
82.93576 83.540192 0.75992239
75.373741 75.765198 -0.91197777
75.410416 75.803139 -0.45849016
75.414703 75.807571 0
82.937424 83.589218 0.76093853
75.384644 75.804993 -0.91399497
75.428612 75.850578 -0.45979628
75.414879 75.836342 0
82.931778 83.630783 0.76166409
75.384712 75.833649 -0.91514814
75.432297 75.883102 -0.46052185
75.411385 75.861374 0
82.933258 83.679855 0.76267964
75.391907 75.869797 -0.91687846
75.435913 75.915649 -0.46124738
75.415077 75.893936 0
82.931061 83.72522 0.76355076
75.399017 75.905968 -0.91860765
75.432297 75.940727 -0.46168295
75.40789 75.915237 0
82.921585 83.763092 0.76413131
75.37748 75.912254 -0.91803163
75.425034 75.962044 -0.46197295
75.415047 75.951584 0
82.933578 83.823517 0.76558244
75.37735 75.940979 -0.9191848
75.417747 75.983368 -0.46226349
75.411369 75.976677 0
82.927536 83.865189 0.76630801
75.370033 75.962204 -0.91976082
75.424736 76.019753 -0.46313408
75.414818 76.009323 0
82.925011 83.910652 0.76717907
75.355576 75.975937 -0.91976082
75.417358 76.041092 -0.46342462
75.418205 76.041985 0
82.929543 83.963669 0.76834023
75.380203 76.030991 -0.92293233
75.424225 76.07753 -0.46429518
75.414375 76.067123 0
82.894691 83.975204 0.76790464
75.383408 76.063538 -0.92437351
75.420326 76.102669 -0.46473074
75.414078 76.096046 0
77.367455 78.166138 0.543966
75.383202 76.077934 -0.92494953
75.434387 76.132248 -0.4656013
75.435326 76.13324 0
77.355331 78.170433 0.54382104
75.368599 76.091682 -0.92494953
75.437515 76.164986 -0.46632686
75.420654 76.147049 0
64 64 0
75.378754 76.131828 -0.92696786
75.444145 76.201546 -0.46719798
75.420212 76.176025 0
77.321053 78.202667 0.54382104
75.34642 76.126678 -0.92552668
75.440041 76.226738 -0.46763298
75.419724 76.205017 0
77.286133 78.199783 0.54309547
75.247047 76.049622 -0.91860765
75.446541 76.263351 -0.4685041
75.422714 76.237831 0
77.28315 78.231018 0.54367602
75.20076 76.029137 -0.9160133
75.442337 76.288589 -0.46893963
75.415024 76.259247 0
77.26239 78.243248 0.54353046
75.151016 76.004768 -0.91313094
75.445168 76.321442 -0.4696652
75.432083 76.30735 0
77.255783 78.270683 0.543966
75.143524 76.025818 -0.91370696
75.440857 76.346687 -0.47010019
75.420738 76.324974 0
77.235001 78.282883 0.54382104
75.132492 76.043068 -0.91399497
75.447098 76.383408 -0.47097132
75.434097 76.369339 0
77.302383 78.390442 0.5473038
75.131958 76.071716 -0.91514814
75.44622 76.412506 -0.47155187
75.415619 76.379326 0
77.665466 78.819099 0.56297833
75.096359 76.062325 -0.91341895
75.441772 76.437805 -0.47198743
75.421791 76.416084 0
77.682724 78.87384 0.5644294
75.130737 76.129074 -0.91745448
75.454834 76.482239 -0.47314799
75.42086 76.445213 0
77.657722 78.882713 0.56413943
75.238335 76.276062 -0.92754501
75.457298 76.515251 -0.47387412
75.412834 76.466675 0
77.601128 78.857033 0.56254274
64 64 -0
75.437515 76.554413 -0.47430912
75.431755 76.548096 0
77.400696 78.709312 0.55572164
75.374664 76.51577 -0.9425351
75.443314 76.591309 -0.47518024
75.420082 76.56575 0
77.285057 78.617821 0.55165827
75.296997 76.460533 -0.9373464
75.435066 76.612823 -0.47547022
75.429367 76.606537 0
77.225502 78.587662 0.54991663
75.261108 76.451149 -0.93561608
75.430275 76.638191 -0.47590578
75.445541 76.655075 0
77.193924 78.588211 0.54933602
75.197548 76.41098 -0.93158054
75.439369 76.679008 -0.47692189
75.43721 76.67662 0
77.179764 78.608002 0.54948103
75.141014 76.378365 -0.92812103
75.444893 76.715988 -0.47779247
75.439293 76.70977 0
77.141251 78.600746 0.54861051
75.015457 76.268646 -0.91889566
75.46077 76.76461 -0.47909856
75.430893 76.731339 0
77.10276 78.593407 0.54773939
74.955765 76.231857 -0.91514814
75.445335 76.77845 -0.47909856
75.439812 76.772278 0
77.119797 78.647949 0.54919106
74.913399 76.214226 -0.9128418
75.454124 76.819397 -0.4801147
75.427834 76.78997 0
77.095154 78.656029 0.54890049
74.82637 76.146324 -0.90678906
75.459366 76.856499 -0.48098525
75.4366 76.830963 0
77.070526 78.664093 0.54861051
74.766991 76.109131 -0.90304041
75.450737 76.878113 -0.4812758
75.424561 76.848671 0
77.045883 78.672096 0.54831994
74.769981 76.127243 -0.90390557
75.460205 76.904449 -0.48200136
75.437523 76.878914 0
77.04393 78.687759 0.54861051
74.64212 76.012474 -0.89439219
75.451492 76.926064 -0.48229137
75.428864 76.90052 0
77.012383 78.687943 0.5480299
74.613899 76.009819 -0.89323902
75.439316 76.943794 -0.48243693
75.437386 76.941612 0
76.977409 78.684174 0.5473038
74.595963 76.018761 -0.89295101
75.444283 76.980988 -0.48330748
75.432068 76.96714 0
76.973404 78.715439 0.54788435
74.615601 76.070404 -0.89583451
75.42173 76.987015 -0.48301747
75.430145 76.996582 0
76.931602 78.703796 0.5468688
74.577126 76.056 -0.89381617
64 64 -0
75.43502 77.033844 0
76.917252 78.723312 0.54701382
74.552322 76.057091 -0.89295101
64 64 -0
75.432976 77.063324 0
76.892609 78.731102 0.54672378
74.53775 76.069832 -0.89295101
64 64 -0
75.430878 77.092812 0
76.857704 78.727081 0.54599768
74.489189 76.043549 -0.89006865
64 64 -0
75.449242 77.145874 0
76.860382 78.766129 0.5468688
74.471237 76.052315 -0.88978064
64 64 -0
75.450409 77.179337 0
76.822075 78.75811 0.54599768
74.483757 76.096222 -0.89208585
64 64 -0
75.451523 77.21283 0
76.807648 78.777534 0.54614323
74.448845 76.085403 -0.89035666
74.743881 76.426651 -0.45878017
75.449165 77.242401 0
76.776184 78.777267 0.54556268
74.488289 76.160698 -0.89496934
74.769585 76.486855 -0.46052185
75.456955 77.283821 0
82.986313 86.013771 0.81187981
75.070724 76.867409 -0.94599462
74.815498 76.570755 -0.46313408
75.440895 77.297653 0
82.966469 86.044571 0.81216985
75.290985 77.155533 -0.96617341
74.810455 76.59565 -0.46356961
75.43837 77.327255 0
82.93306 86.059593 0.81187981
75.271713 77.165237 -0.9658854
74.785088 76.596863 -0.46313408
75.435791 77.35688 0
82.957077 86.141655 0.81405652
74.856033 76.710785 -0.93158054
74.736115 76.570374 -0.46168295
75.439934 77.394447 0
82.97757 86.219879 0.81608874
74.501846 76.32621 -0.90246439
74.774841 76.646629 -0.46400517
75.443993 77.432022 0
82.957443 86.250694 0.81637871
74.436691 76.279762 -0.89813972
74.749451 76.647751 -0.46356961
75.451355 77.473602 0
82.950729 86.29734 0.8172493
74.421844 76.292366 -0.89813972
74.744247 76.67263 -0.46400517
75.435059 77.487434 0
82.950661 86.351929 0.8184104
74.383614 76.277313 -0.89612252
74.718857 76.673691 -0.46356961
75.455719 77.544945 0
82.960556 86.418465 0.82000709
74.358757 76.277985 -0.89525735
74.676727 76.654861 -0.46240851
75.469566 77.594589 0
82.963608 86.477104 0.8213132
74.300613 76.239044 -0.89150983
74.634659 76.635941 -0.46124738
75.459824 77.616402 0
82.956512 86.523849 0.82218373
74.289146 76.25544 -0.89179784
74.616043 76.644806 -0.4611024
75.446709 77.634216 0
82.942642 86.56266 0.82276434
74.275101 76.253731 -0.89122182
74.658478 76.710938 -0.46327907
75.451843 77.657089 0
82.959076 86.609955 0.82407099
74.270233 76.27803 -0.89208585
74.699791 76.791573 -0.46574631
75.445358 77.682892 0
82.965073 86.672699 0.82552212
74.245453 76.278526 -0.89122182
74.727608 76.856361 -0.46763298
75.432144 77.700706 0
82.967628 86.731506 0.82682824
74.19751 76.251129 -0.88833833
74.712067 76.869308 -0.46763298
75.425575 77.726517 0
82.963425 86.782372 0.82784432
74.166183 76.243553 -0.88689715
74.679909 76.862259 -0.46690741
64 64 0
82.955795 86.829247 0.82871491
74.121681 76.219971 -0.88430279
74.63784 76.84314 -0.46574631
64 64 0
82.981239 86.916176 0.8310371
75.382004 77.775414 -0.99586666
74.582603 76.807922 -0.46400517
75.558083 77.988518 0
82.986633 86.979141 0.83248824
64 64 -0
74.567123 76.820702 -0.46400517
75.521317 77.978378 0
83.051399 87.114357 0.83655214
64 64 -0
74.55162 76.833458 -0.46400517
75.507721 77.996307 0
83.162071 87.305954 0.84264773
64 64 -0
74.54599 76.858238 -0.4644402
64 64 0
83.292076 87.52195 0.84961385
64 64 -0
75.474854 78.025299 -0.50609314
75.487045 78.040192 0
83.339333 87.637756 0.85295218
64 64 -0
75.480904 78.067337 -0.50710922
75.486526 78.074219 0
76.118195 78.848198 0.53525823
75.470459 78.089256 -0.50739926
75.482651 78.104233 0
76.106804 78.87088 0.53554821
74.436798 76.851295 -0.92264426
75.391182 78.026466 -0.50464201
75.48201 78.138298 0
76.075722 78.869362 0.53496766
74.391953 76.827705 -0.92004883
74.425591 76.869232 -0.4625535
75.487854 78.180473 0
76.051208 78.875877 0.53467762
74.354507 76.813103 -0.46008629
75.487061 78.214584 0
76.04303 78.902557 0.53511322
74.277054 76.748749 -0.45732903
75.482948 78.244659 0
75.998917 78.884727 0.53395212
64 64 -0
73.248863 75.501686 -0.41219276
75.482033 78.278809 0
75.977661 78.895157 0.53380656
73.228462 75.504753 -0.41190276
75.487572 78.321091 0
75.933647 78.877205 0.532646
73.201569 75.499664 -0.41132221
75.480003 78.347145 0
75.915665 78.891609 0.532646
73.148758 75.462036 -0.40958053
75.482147 78.385422 0
75.881447 78.885681 0.53191984
74.19931 76.809929 -0.91255379
73.157555 75.501526 -0.41059607
75.487442 78.42778 0
75.863449 78.900024 0.53191984
74.190269 76.830353 -0.91313094
64 64 -0
75.486198 78.462036 0
75.81958 78.88179 0.53075874
74.142624 76.802109 -0.91024745
64 64 -0
75.494576 78.508545 0
75.795143 78.887924 0.53046876
74.120743 76.806244 -0.90967143
64 64 -0
75.493164 78.542839 0
75.764252 78.885857 0.52988821
74.090561 76.783928 -0.90765309
64 64 -0
75.494049 78.562019 0
75.748825 78.884811 0.52959818
74.023911 76.731079 -0.90304041
64 64 -0
75.495766 78.600449 0
75.711533 78.874489 0.52872705
74.078819 76.832687 -0.90938342
73.019936 75.484489 -0.40783885
75.494186 78.634789 0
75.696762 78.892708 0.52887207
74.082809 76.901833 -0.91255379
72.976158 75.485786 -0.40711328
75.503654 78.719933 0
75.619141 78.867706 0.52698541
74.064034 76.909927 -0.91226578
72.95269 75.484322 -0.40667775
75.498657 78.750244 0
75.601166 78.881729 0.52698541
74.032555 76.901672 -0.9108246
72.910095 75.458214 -0.40537164
75.503197 78.792892 0
75.573616 78.883446 0.52655041
74.004272 76.89743 -0.90967143
72.829361 75.382736 -0.40232384
75.507645 78.835571 0
75.561989 78.905624 0.52684039
73.988678 76.909508 -0.90967143
72.77108 75.335869 -0.40029216
75.502457 78.865929 0
75.547142 78.923691 0.52698541
73.909866 76.839668 -0.90390557
72.773254 75.36702 -0.40101773
75.487663 78.883934 0
75.516403 78.921173 0.52640486
73.894341 76.851631 -0.90390557
72.77536 75.398201 -0.40174326
75.469666 78.897804 0
75.479347 78.910378 0.52553427
73.878807 76.863579 -0.90390557
72.802727 75.462372 -0.40362996
75.442146 78.899261 0
75.455002 78.916 0.5252443
72.803177 75.491676 -0.80675572
72.750946 75.423492 -0.40188828
75.427299 78.917206 0
75.4338 78.925697 0.52509874
72.798706 75.514641 -0.80762088
72.746605 75.446449 -0.40232384
75.418747 78.943413 0
75.418922 78.943642 0.5252443
72.778519 75.517044 -0.80704486
72.691818 75.403282 -0.40043715
75.419609 78.982033 0
75.419754 78.982224 0.52611482
72.689461 75.42881 -0.80012584
64 64 -0
75.414101 79.01239 0
75.411079 79.008423 0.52655041
64 64 -0
64 64 -0
75.39595 79.026176 0
75.402351 79.034607 0.52698541
64 64 -0
64 64 -0
72.70871 75.511765 0
75.440613 79.122986 0.52959818
64 64 -0
64 64 -0
72.675987 75.49736 0
75.43486 79.153389 0.53017873
73.791336 77.008064 -0.90736508
64 64 -0
75.441574 79.200455 0
75.435287 79.192101 0.53104931
73.75386 76.990929 -0.90534675
64 64 -0
75.44194 79.239243 0
75.413803 79.201759 0.53090429
73.669945 76.911621 -0.89900488
72.729004 75.655243 -0.40667775
75.426651 79.257233 0
83.476089 90.005096 0.90737629
72.957787 75.990891 -0.83414268
72.699364 75.644974 -0.40595219
75.426895 79.296036 0
83.550392 90.170158 0.91231078
72.940201 75.997566 -0.83385468
72.722549 75.705482 -0.40769386
75.420845 79.32653 0
83.515656 90.189598 0.91216576
72.978157 76.078934 -0.83875537
72.708405 75.716011 -0.40769386
75.424049 79.36956 0
83.514992 90.25486 0.9136169
73.019005 76.164558 -0.84394407
64 64 -0
75.424065 79.408432 0
83.517303 90.324348 0.91521353
72.918175 76.05899 -0.83587188
64 64 -0
75.420914 79.443146 0
83.507118 90.377167 0.91622967
72.867867 76.006134 -0.83183634
64 64 -0
75.433228 79.479355 0
83.518967 90.426559 0.91753578
72.791985 75.933548 -0.82607049
64 64 -0
75.423782 79.505737 0
83.505508 90.47522 0.91840637
72.707115 75.848297 -0.8194406
64 64 -0
75.429688 79.553062 0
83.485809 90.515526 0.91898692
72.64386 75.792053 -0.81482792
72.59655 75.727516 -0.40609717
75.432426 79.596252 0
83.490631 90.589348 0.92072856
72.599075 75.760742 -0.81194556
72.570107 75.721115 -0.40551662
75.745354 80.06382 0
83.461548 90.617065 0.92087358
72.533043 75.700073 -0.80704486
72.519188 75.681076 -0.40377495
75.827133 80.216759 0
83.380379 90.57338 0.91855133
72.506729 75.693649 -0.80589169
72.410301 75.561096 -0.39927605
75.81366 80.239464 0
83.326859 90.567375 0.91753578
72.492592 75.703918 -0.80589169
72.362747 75.524979 -0.39767936
75.800133 80.262146 0
83.294746 90.590714 0.91753578
72.469345 75.701591 -0.80502653
72.339684 75.522453 -0.39724436
75.853722 80.377586 0
83.250412 90.597168 0.91695523
72.44915 75.703438 -0.80445051
72.319672 75.524086 -0.39695382
75.812592 80.36235 0
83.203056 90.599342 0.91622967
72.398727 75.663269 -0.800991
72.296638 75.521492 -0.39651883
75.811066 80.401962 0
83.122314 90.555054 0.91390741
72.354446 75.631378 -0.7981075
72.276642 75.523056 -0.39622825
75.830711 80.471176 0
83.072029 90.552818 0.91303688
72.334366 75.633064 -0.79753149
72.262711 75.533051 -0.39622825
75.822929 80.50238 0
83.049004 90.588501 0.91347188
72.323303 75.647331 -0.7978195
72.251785 75.547249 -0.39637324
75.860466 80.597107 0
83.025925 90.624191 0.91390741
72.309227 75.657379 -0.7978195
72.240852 75.561455 -0.39651883
75.822281 80.586006 0
83.011841 90.672546 0.91477799
72.289146 75.658989 -0.79724348
72.214828 75.554459 -0.39593825
75.847466 80.663895 0
83.003685 90.729385 0.91593909
72.284019 75.681641 -0.7981075
72.206871 75.572853 -0.39622825
75.854431 80.716423 0
82.995422 90.78624 0.91710025
72.246002 75.65786 -0.79580116
72.183876 75.570023 -0.39579269
75.828201 80.722229 0
83.005051 90.868561 0.91913188
72.222969 75.655144 -0.79493713
72.178879 75.592651 -0.39622825
75.831993 80.770531 0
83.014526 90.950966 0.92116416
72.188042 75.635452 -0.7929188
72.164864 75.602524 -0.39622825
75.850662 80.840149 0
83.017838 91.024918 0.9229058
72.197754 75.679214 -0.79522514
72.141884 75.599617 -0.39579269
75.827316 80.850204 0
83.017998 91.094658 0.9245019
72.207367 75.723007 -0.79753149
72.104019 75.575386 -0.39463159
75.818886 80.881531 0
83.01506 91.160194 0.92595357
72.202087 75.745644 -0.79839665
72.078133 75.568146 -0.39405158
72.547447 76.240211 0
83.017921 91.234268 0.92769474
72.155365 75.708855 -0.79522514
72.064148 75.577896 -0.39405158
72.482079 76.177925 0
83.014709 91.299881 0.92914641
72.123505 75.693214 -0.79349595
72.053116 75.591896 -0.39419657
72.517838 76.260834 0
82.999489 91.348434 0.93001693
72.09874 75.672615 -0.79176563
72.052032 75.605293 -0.39448658
72.489655 76.236038 0
83.000748 91.385536 0.93088806
72.075798 75.669624 -0.79090047
72.040955 75.619278 -0.39463159
64 64 0
82.955811 91.39138 0.93030751
72.058754 75.675117 -0.79061246
72.018066 75.616165 -0.39419657
64 64 0
82.910889 91.397156 0.92972696
72.088646 75.748764 -0.79493713
72.009911 75.634399 -0.39448658
64 64 0
82.85714 91.390022 0.92871082
72.121292 75.826759 -0.79954982
72.007614 75.661209 -0.39506713
64 64 0
82.806389 91.387085 0.92784029
72.127457 75.866425 -0.80156702
72.002327 75.683746 -0.39550269
72.312645 76.136818 0
82.773285 91.40979 0.92784029
72.113106 75.876236 -0.80156702
71.999931 75.710571 -0.39608327
72.309715 76.16404 0
72.442429 76.358307 0.41799164
72.098755 75.886032 -0.80156702
72.01796 75.767456 -0.39767936
72.274498 76.143959 0
72.447968 76.398552 0.41900721
72.107643 75.930038 -0.80387336
72.0271 75.811523 -0.39884049
72.259811 76.153946 0
72.418373 76.387268 0.41828164
72.090324 75.935547 -0.80358535
72.015747 75.825523 -0.39898604
72.198395 76.094986 0
64 64 0
72.087486 75.962456 -0.80473852
72.016006 75.856728 -0.39971161
72.099236 75.979836 0
64 64 0
72.041214 75.925034 -0.80156702
72.004578 75.870705 -0.3998566
72.014923 75.886063 0
72.300781 76.309982 0.4146533
71.992149 75.88324 -0.7981075
71.990227 75.880371 -0.3998566
71.980225 75.865494 0
72.280106 76.311386 0.41436329
71.972031 75.8843 -0.79753149
71.970078 75.881393 -0.39956659
71.957176 75.86216 0
72.262337 76.31707 0.41421831
71.986427 75.936913 -0.80041385
71.94416 75.873734 -0.39898604
71.939949 75.867447 0
72.232986 76.305435 0.41349217
72.017738 76.046608 -0.80646771
71.929832 75.914528 -0.39971161
71.911247 75.886597 0
72.206116 76.329636 0.41363773
72.023209 76.086456 -0.80848604
71.915436 75.924103 -0.39971161
71.89975 75.900482 0
72.191208 76.339539 0.41363773
72.014305 76.104759 -0.80906206
71.903885 75.937988 -0.3998566
71.8825 75.905678 0
72.170547 76.340759 0.41334718
72.025322 76.153282 -0.81165642
71.9095 75.97789 -0.40087271
71.913994 75.984695 0
72.14991 76.341949 0.41305718
72.019173 76.175934 -0.81252158
71.995064 76.139328 -0.40595219
71.908104 76.007294 0
72.120705 76.330093 0.41233164
72.035698 76.233177 -0.81569308
72.054565 76.261902 -0.40972552
71.936447 76.082077 0
72.10865 76.344238 0.41247663
72.03791 76.268837 -0.81742227
72.045448 76.280334 -0.41001609
71.953217 76.139557 0
72.090881 76.349686 0.41233164
72.041824 76.291 -0.81857544
72.049393 76.302567 -0.41059607
71.943039 76.140007 0
72.094788 76.371948 0.41291162
72.035454 76.313713 -0.8194406
72.040207 76.320999 -0.41088665
71.945419 76.175743 0
72.088356 76.394783 0.41334718
72.034676 76.345085 -0.82088178
72.033821 76.343773 -0.41132221
71.964775 76.237686 0
72.070541 76.400192 0.4132022
72.005676 76.333092 -0.8194406
72.035873 76.379623 -0.41219276
71.998154 76.321518 0
72.05838 76.414291 0.41334718
72.002014 76.36013 -0.82059377
72.029388 76.402412 -0.41262832
72.00872 76.370491 0
72.049026 76.432755 0.41363773
71.987068 76.369789 -0.82059377
72.020027 76.42083 -0.41291833
72.005058 76.397644 0
72.019897 76.420624 0.41291162
71.949715 76.344635 -0.81828743
72.010643 76.439255 -0.41320887
72.001343 76.424812 0
71.996452 76.417213 0.41247663
71.934792 76.354233 -0.81828743
72.018082 76.48391 -0.41437
71.969452 76.408203 0
71.958977 76.391884 0.4113155
71.922646 76.368164 -0.81857544
72.064651 76.589851 -0.41756278
71.971298 76.444115 0
71.896347 76.327103 0.40884829
71.929977 76.412598 -0.82088178
72.0886 76.660889 -0.41959447
71.961853 76.462502 0
71.803101 76.214012 0.40478438
71.93721 76.457077 -0.82318813
72.084465 76.688187 -0.42017502
71.963577 76.498459 0
71.765999 76.18837 0.40362325
71.930473 76.479759 -0.82405329
72.091423 76.73304 -0.42133614
71.970802 76.543213 0
71.77356 76.232834 0.40478438
72.037224 76.681564 -0.83673704
72.09272 76.769135 -0.4222067
71.966782 76.570427 0
71.775475 76.268562 0.4056555
72.032951 76.708763 -0.83789021
72.141151 76.879944 -0.42554504
71.968269 76.60643 0
71.780075 76.308685 0.40667105
72.023102 76.727203 -0.83846623
72.139435 76.911751 -0.4262706
72.011322 76.708511 0
71.779045 76.340057 0.40739661
71.974686 76.684349 -0.83500785
71.982773 76.697205 -0.4188689
71.973793 76.68293 0
71.780731 76.375854 0.40826771
71.93187 76.650139 -0.83212435
73.20417 78.679268 -0.48388803
71.941879 76.666107 0
71.790619 76.424866 0.40957382
71.88916 76.615868 -0.82924199
73.167137 78.659531 -0.48287192
75.96933 83.14064 0
71.794891 76.465118 0.41058996
71.862961 76.607834 -0.82808882
73.141174 78.657379 -0.48243693
75.962723 83.181595 0
71.81282 76.527443 0.41233164
71.814934 76.564613 -0.82462931
73.139915 78.694885 -0.48330748
75.950539 83.213715 0
71.819626 76.572159 0.41349217
71.783386 76.547676 -0.82290012
73.124893 78.710327 -0.48345247
75.930054 83.232559 0
71.840042 76.639008 0.41537887
71.692017 76.433899 -0.81482792
71.803017 76.613319 -0.41422445
75.93692 83.295639 0
71.827507 76.652908 0.41552442
71.636253 76.377159 -0.81050438
71.875092 76.764267 -0.4188689
75.970985 83.403061 0
71.839493 76.706573 0.41697553
71.626709 76.39518 -0.8110804
71.878731 76.804764 -0.41988501
75.966629 83.448547 0
71.862259 76.777992 0.41900721
71.606323 76.395576 -0.81050438
71.863251 76.814278 -0.41988501
75.940399 83.458565 0
71.887589 76.853928 0.42118445
71.57991 76.369286 -0.80848604
71.844643 76.8013 -0.41930446
75.963997 83.523468 0
71.88797 76.871994 0.42161998
72.981087 78.695633 -0.95983154
73.934738 80.256073 -0.53207153
75.953964 83.560104 0
71.891373 76.912544 0.42263556
72.955246 78.693222 -0.95896637
73.885345 80.219269 -0.53047544
75.943863 83.596756 0
71.88118 76.930954 0.4229261
72.937485 78.704025 -0.95896637
73.871132 80.240074 -0.53076541
75.925583 83.620079 0
71.900635 76.998192 0.42481279
72.938484 78.745789 -0.96098471
73.851501 80.251991 -0.53076541
75.931541 83.683426 0
71.884926 77.007729 0.42481279
72.9394 78.787567 -0.96300304
73.813049 80.232758 -0.52974987
75.888908 83.666656 0
71.877266 77.030594 0.42524835
72.950897 78.847076 -0.96617341
73.78537 80.231247 -0.52931434
75.886635 83.716667 0
80.798706 91.864449 0.90868241
72.92762 78.84903 -0.96559739
73.776466 80.26088 -0.52989489
75.884247 83.766685 0
80.775742 91.902542 0.90926296
72.914986 78.868668 -0.96617341
73.756805 80.272675 -0.52989489
75.900505 83.848 0
83.539886 96.589172 1.0612164
73.758476 80.320137 -0.53105599
75.948631 83.982971 0
83.492493 96.599365 1.0607808
73.725441 80.309601 -0.53033042
75.972466 84.077866 0
83.442444 96.605042 1.0602002
73.708382 80.325806 -0.53047544
75.977455 84.141518 0
83.376472 96.583847 1.0587491
73.696602 80.350937 -0.53091097
75.96904 84.182846 0
83.241653 96.44632 1.0535241
73.663605 80.340263 -0.53018486
75.952591 84.210724 0
82.702484 95.624168 1.0260946
73.672897 80.401176 -0.53178155
75.938736 84.243088 0
82.608818 95.55275 1.0230467
73.713661 80.515869 -0.53511935
75.964401 84.342743 0
82.568047 95.570732 1.0229018
73.733139 80.594841 -0.53729659
75.981949 84.429016 0
82.50885 95.557281 1.0217407
73.736694 80.646957 -0.53860271
75.949371 84.43 0
82.483826 95.602051 1.0224662
73.711342 80.649734 -0.53831267
75.945656 84.480392 0
82.440384 95.615372 1.0221757
73.691216 80.661461 -0.53831267
75.962769 84.566803 0
82.86203 96.428238 1.0477191
73.681503 80.691139 -0.53889322
75.958794 84.617241 0
82.971451 96.707214 1.0559913
73.741989 80.84227 -0.54339218
75.957336 84.672241 0
82.890289 96.658157 1.0536697
73.739807 80.885544 -0.54440826
75.960953 84.736252 0
82.796288 96.586426 1.0506219
73.701256 80.865761 -0.54339218
75.967026 84.804832 0
82.733582 96.568573 1.0493157
73.691216 80.895508 -0.54397273
75.947067 84.828316 0
82.689041 96.582169 1.0490252
73.650009 80.847244 -0.54223102
75.975861 84.907776 0
82.67968 96.611488 1.0496057
73.645103 80.885956 -0.54310161
75.984146 84.980988 0
82.614494 96.588913 1.0481546
73.616989 80.884064 -0.54266661
75.953644 84.986412 0
82.544235 96.557198 1.0464129
73.586311 80.877594 -0.54208606
75.933411 85.009888 0
82.515152 96.597656 1.0469935
73.540291 80.843941 -0.54063439
75.946495 85.092224 0
64 64 0
73.507156 80.832832 -0.53990883
75.974754 85.20182 0
82.408203 96.592529 1.0453968
73.504623 80.923737 -0.54208606
64 64 0
76.064438 85.481674 0.6880821
73.499405 80.962402 -0.54295659
64 64 0
76.046097 85.509842 0.68851769
73.483971 80.982948 -0.54324716
64 64 0
75.997284 85.483536 0.68721104
73.473557 81.012558 -0.54382771
64 64 0
75.966263 85.488945 0.686921
73.468124 81.051247 -0.5446983
64 64 0
75.932716 85.489754 0.68648547
73.497864 81.153603 -0.54760104
75.784912 85.284126 0
75.894157 85.48143 0.6857599
73.477127 81.16507 -0.54760104
75.749123 85.280128 0
75.880753 85.518524 0.68648547
75.684433 85.223518 -0.67662323
75.718384 85.285194 0
75.842209 85.510109 0.6857599
75.691284 85.296844 -0.67850989
75.68013 85.276512 0
75.813713 85.519852 0.68561488
64 64 -0
75.641914 85.267784 0
75.792686 85.543221 0.68590492
64 64 -0
75.618706 85.2864 0
75.774124 85.571144 0.68634045
64 64 -0
75.600441 85.314148 0
75.750526 85.589912 0.68648547
64 64 -0
75.611923 85.396774 0
75.726921 85.608673 0.68663102
75.604454 85.444778 -0.68097711
75.613297 85.461128 0
75.705742 85.631958 0.686921
75.618019 85.531967 -0.68329936
75.612083 85.520966 0
75.701805 85.687248 0.68822712
75.628922 85.614624 -0.68547601
75.615654 85.589966 0
75.668205 85.687637 0.68779159
75.627365 85.674461 -0.68692768
75.604324 85.631516 0
81.717148 97.026367 1.046703
75.625671 85.734314 -0.68837881
75.605179 85.695992 0
81.69194 97.075256 1.047574
75.633652 85.812546 -0.69041103
75.603455 85.755936 0
81.688637 97.165375 1.0497507
75.632683 85.842506 -0.6911366
75.624557 85.827248 0
81.697914 97.231094 1.0514925
75.633087 85.907021 -0.69273275
75.607941 85.859665 0
81.699181 97.330482 1.0539596
75.66497 86.031288 -0.69621605
75.600998 85.910477 0
81.6978 97.425331 1.0562819
75.873672 86.491135 -0.71029389
75.625549 86.021133 0
81.68409 97.497246 1.0578785
64 64 -0
75.919098 86.643417 -0.71464783
75.979546 86.758247 0
81.67749 97.582962 1.0599102
75.935204 86.740623 -0.71726006
75.981064 86.828011 0
81.641724 97.613495 1.0602002
75.929398 86.796463 -0.71856618
75.9776 86.88858 0
83.562378 101.38269 1.1783379
64 64 -0
75.959564 86.921494 0
83.548447 101.4662 1.1802245
73.502357 82.265823 -0.57503062
75.9655 87.00058 0
77.982269 90.877304 0.84613049
73.475494 82.268082 -0.57474059
75.992813 87.121284 0
77.945 90.884964 0.84584051
73.472511 82.316444 -0.57590175
76.000732 87.205109 0
77.91967 90.915649 0.84627604
73.417038 82.263214 -0.57387006
75.99176 87.256584 0
77.891899 90.941673 0.84656608
73.399712 82.283813 -0.57416004
75.963654 87.271057 0
77.871208 90.981544 0.84729165
73.346794 82.235046 -0.57227337
75.945023 87.304024 0
77.814896 90.952049 0.84584051
73.393333 82.380524 -0.5764823
75.935799 87.355522 0
77.794144 90.991852 0.84656608
73.321579 82.294624 -0.57343447
75.921753 87.397758 0
77.740288 90.966835 0.84525996
73.332413 82.370728 -0.57546616
75.926476 87.477104 0
77.691216 90.950974 0.84424382
73.284386 82.331009 -0.57387006
75.987457 87.667938 0
77.635162 90.92115 0.84279275
73.292679 82.402512 -0.57575673
75.996391 87.756744 0
77.590912 90.914413 0.84206718
73.284454 82.441574 -0.57662725
76.005127 87.845612 0
77.539688 90.893677 0.84090602
73.243515 82.415619 -0.57546616
75.985649 87.878708 0
77.497856 90.891441 0.84032547
73.23056 82.445366 -0.57604671
75.996384 87.972298 0
77.456055 90.889145 0.83974493
64 64 -0
73.243065 82.52626 -0.57822394
75.995285 88.042648 0
64 64 0
73.269279 82.635132 -0.58127177
75.982452 88.089752 0
77.353996 90.847137 0.83742273
73.29985 82.753387 -0.58460951
75.978775 88.15551 0
77.323868 90.86792 0.83756828
73.295609 82.80188 -0.58577067
75.991096 88.253944 0
77.298294 90.897964 0.83800328
73.272881 82.813095 -0.58577067
75.996292 88.338432 0
77.284164 90.951302 0.83916438
73.252335 82.800049 -0.58519012
76.013771 88.411064 0
77.267883 90.95932 0.83916438
76.029083 88.516907 -0.76268631
76.007187 88.472282 0
77.246735 90.998657 0.83988994
76.035988 88.606125 -0.76500857
75.993622 88.519508 0
77.20269 90.991302 0.83916438
76.010803 88.629997 -0.76529914
76.01873 88.64624 0
77.174629 91.016594 0.83945495
75.97876 88.639801 -0.76515359
75.986664 88.656067 0
77.128334 91.00444 0.83858383
75.962578 88.682327 -0.76602465
75.988647 88.736122 0
77.088898 91.006248 0.83814824
75.977959 88.790337 -0.76892692
75.992714 88.820877 0
77.053993 91.017365 0.83800328
76.008888 88.931213 -0.7728458
75.978523 88.868179 0
77.001045 90.99099 0.83669716
76.014748 89.02066 -0.77516806
75.97776 88.943626 0
83.147743 103.87508 1.2353748
76.002457 89.072655 -0.77632916
75.985809 89.037888 0
83.126472 103.95444 1.2371165
76.001251 89.148109 -0.77821583
75.995895 89.136894 0
83.127419 104.0807 1.2403092
76.01104 89.247055 -0.78082806
75.996819 89.217163 0
83.132561 104.21641 1.2437925
76.031738 89.369537 -0.78416586
76.019867 89.344513 0
83.128479 104.33339 1.2466948
76.016624 89.416946 -0.785182
75.998138 89.377838 0
83.124161 104.45044 1.2495977
76.021355 89.506668 -0.7875042
76.016273 89.495895 0
83.135086 104.60043 1.253516
76.032501 89.610527 -0.79026145
75.994316 89.529236 0
83.132416 104.72229 1.2565638
76.014778 89.65329 -0.79113257
76.036308 89.699257 0
83.138298 104.86304 1.2601922
76.042648 89.875404 -0.79708254
75.982956 89.747147 0
83.146942 105.14003 1.2673038
76.02887 89.92765 -0.7982437
76.035072 89.941017 0
83.125648 105.22441 1.2691904
76.023712 89.998772 -0.79998535
76.023376 89.998055 0
83.14563 105.39844 1.2738349
75.990112 90.008568 -0.79984033
75.996307 90.022003 0
83.195663 105.63861 1.2805105
75.989052 90.089134 -0.80187201
75.977905 90.064865 0
64 64 0
75.981331 90.155579 -0.8034687
75.978912 90.150291 0
83.242149 106.00615 1.2903794
76.000107 90.238434 -0.80579096
75.965279 90.16227 0
83.216766 106.01776 1.2903794
76.039528 90.408936 -0.81057984
75.942291 90.195656 0
83.194016 106.10243 1.2922667
76.04631 90.508636 -0.81319261
75.934311 90.262177 0
83.20977 106.27225 1.2967656
76.040001 90.579956 -0.81493378
76.018539 90.532593 0
83.23587 106.46584 1.30199
76.093414 90.783951 -0.82073933
76.046448 90.679932 0
76.497498 91.678879 0.84816277
76.067444 90.812759 -0.82117486
76.059059 90.794136 0
76.491768 91.755569 0.85004944
76.130753 91.040672 -0.82770544
76.047974 90.856171 0
64 64 0
76.12989 91.12648 -0.82988268
76.064377 90.97998 0
64 64 0
76.164795 91.292999 -0.8345266
76.108055 91.165688 0
64 64 0
76.125488 91.293442 -0.8340916
76.100578 91.237373 0
64 64 0
76.121956 91.374588 -0.83612329
76.099266 91.323349 0
64 64 0
76.128731 91.479538 -0.83888048
76.085159 91.380806 0
64 64 0
76.114365 91.536995 -0.84018719
76.083504 91.466858 0
76.218895 91.774612 0.8474372
76.116554 91.632523 -0.84265441
76.077477 91.543404 0
76.179062 91.77507 0.84700161
64 64 -0
76.07962 91.639053 0
76.141327 91.780235 0.84671104
64 64 -0
64 64 0
76.095306 91.766312 0.84584051
64 64 -0
64 64 0
76.047256 91.747528 0.84482437
64 64 -0
64 64 0
75.995148 91.719147 0.84351826
64 64 -0
64 64 0
75.916367 91.628647 0.84032547
64 64 -0
64 64 0
75.778305 91.399536 0.83292377
75.86808 91.700569 -0.84163833
64 64 0
75.644913 91.179688 0.8258121
75.832558 91.710114 -0.84149331
75.853592 91.759377 0
75.589615 91.141174 0.82421601
75.788895 91.700485 -0.84076774
75.81189 91.754524 0
75.566986 91.17907 0.82494152
75.763527 91.733833 -0.84134775
75.78038 91.77356 0
75.609222 91.370041 0.83031154
75.744171 91.78154 -0.84236383
75.75087 91.797379 0
75.606491 91.455833 0.83248824
75.750946 91.891495 -0.84526664
75.747581 91.883484 0
75.545059 91.402802 0.83045655
75.772369 91.989594 -0.84802389
