# .PCD v0.7 - Point Cloud Data file format
VERSION 0.7
FIELDS x y z
SIZE 4 4 4
TYPE F F F
COUNT 1 1 1
WIDTH 1836
HEIGHT 1
VIEWPOINT 0 0 0 1 0 0 0
POINTS 1836
DATA ascii
73.584564 76.496048 -0.87767291
76.13559 79.822006 -0.55688941
76.063492 79.728012 0
76.056374 79.718727 0.55325437
73.582031 76.524055 -0.87882608
76.129097 79.853165 -0.55746996
76.066628 79.771515 0
76.046852 79.745667 0.55368996
73.580734 76.538055 -0.8794021
76.138443 79.885262 -0.55834055
76.088692 79.820152 0
76.068886 79.794228 0.55514103
73.578125 76.566078 -0.88055527
76.134987 79.920578 -0.55906612
76.079033 79.847168 0
76.056099 79.817078 0.5554316
73.569183 76.585876 -0.88113129
76.137756 79.964188 -0.5600822
76.072479 79.878326 0
76.06842 79.872993 0.55688274
73.569611 76.61805 -0.8825736
76.131027 79.995407 -0.56066275
76.087875 79.938507 0
76.061798 79.904129 0.55746329
73.554359 76.629601 -0.8825736
76.143036 80.051491 -0.56211388
76.08432 79.973869 0
76.061378 79.94355 0.55833387
73.551552 76.657654 -0.88372678
76.142418 80.091049 -0.562985
76.083809 80.013382 0
76.054626 79.974701 0.55891442
73.558022 76.698105 -0.88574398
76.144836 80.134766 -0.56400055
76.067581 80.032127 0
76.066574 80.030792 0.56036609
73.558197 76.730324 -0.88718516
76.13781 80.166046 -0.5645811
76.066956 80.071678 0
76.059677 80.061981 0.56094664
73.558319 76.762573 -0.88862747
76.127617 80.193184 -0.56501669
76.075607 80.123741 0
76.058945 80.101486 0.56181717
73.54908 76.782394 -0.88920349
76.114273 80.216164 -0.56530726
76.077911 80.167496 0
76.061256 80.145195 0.56283331
73.53054 76.78978 -0.88891548
76.100876 80.239113 -0.56559724
76.073929 80.202957 0
76.060364 80.184753 0.56370389
73.52124 76.809586 -0.8894915
76.087448 80.262077 -0.56588781
76.069862 80.238419 0
76.065598 80.232681 0.56486499
73.530411 76.854324 -0.89179784
76.08326 80.297539 -0.56661338
76.053329 80.257164 0
76.058357 80.263947 0.56544554
73.51487 76.865829 -0.89179784
76.072823 80.324646 -0.56704837
76.024391 80.259163 0
76.041786 80.282684 0.56559056
73.511597 76.893967 -0.89295101
76.077766 80.372681 -0.56820947
76.010925 80.282059 0
76.01902 80.293045 0.56544554
73.486809 76.892944 -0.89208585
76.076462 80.412384 -0.56908059
76.003578 80.313332 0
75.996246 80.303368 0.56530052
73.514084 76.962791 -0.89612252
76.075066 80.452095 -0.56995112
75.999252 80.348801 0
75.97654 80.317856 0.56530052
73.513687 76.995148 -0.8975637
76.082802 80.50441 -0.57125723
76.019455 80.417885 0
75.981369 80.36586 0.56646168
73.50103 77.010803 -0.89785171
76.078171 80.539978 -0.5719828
76.002678 80.436592 0
75.983032 80.409691 0.56747723
73.488342 77.026451 -0.89813972
76.082657 80.588165 -0.57314396
76.010391 80.488945 0
75.987671 80.457764 0.56863832
73.493881 77.067207 -0.90015805
76.068726 80.611168 -0.57343447
76.027168 80.553978 0
75.986115 80.497467 0.56950945
73.468979 77.066101 -0.89929289
76.082176 80.672012 -0.57503062
76.013275 80.576935 0
75.99971 80.55822 0.57110554
73.495613 77.13623 -0.90332955
76.089432 80.724518 -0.57633728
76.008476 80.612526 0
75.988831 80.585342 0.57154113
73.446449 77.10154 -0.90015805
76.063133 80.730682 -0.57604671
76.018829 80.669235 0
75.996132 80.637756 0.57284725
73.445717 77.133934 -0.90159923
76.076286 80.791656 -0.57764339
76.004761 80.6922 0
75.976021 80.652237 0.57284725
73.444908 77.166351 -0.90304041
76.086273 80.848457 -0.57909453
76.005814 80.73629 0
75.986176 80.708916 0.57429838
73.452026 77.193092 -0.90448272
76.103333 80.893768 -0.58040065
76.013893 80.768936 0
75.98214 80.724609 0.57458889
73.439087 77.20871 -0.90477073
76.098015 80.92952 -0.58112621
76.00573 80.800385 0
75.989113 80.777122 0.57589501
73.417107 77.21167 -0.90419358
76.104706 80.982224 -0.58243287
76.018646 80.861481 0
75.989944 80.821228 0.57691115
73.437103 77.273636 -0.90765309
76.1203 81.047653 -0.58417398
76.025406 80.914169 0
76.002731 80.882278 0.57850724
73.406097 77.263931 -0.90621191
76.171844 81.164024 -0.58765733
76.007973 80.932945 0
75.994347 80.913727 0.57908779
73.41098 77.304855 -0.90823025
76.181099 81.221138 -0.58910847
76.023575 80.998436 0
75.994911 80.957916 0.58010393
73.406822 77.333122 -0.90938342
76.22319 81.325012 -0.59215623
76.051025 81.080986 0
75.998383 81.006363 0.58126503
73.41452 77.378326 -0.91168976
76.226181 81.373772 -0.59331733
76.096283 81.189186 0
76.007721 81.063339 0.58271617
73.386467 77.372757 -0.91053659
76.238022 81.435326 -0.59491402
76.141289 81.297508 0
76.013969 81.116119 0.58402228
73.382164 77.401039 -0.91168976
76.231842 81.471382 -0.59563959
76.150223 81.354797 0
76.061829 81.228546 0.58736062
73.365967 77.412361 -0.91168976
76.234528 81.520233 -0.59680068
76.156059 81.407867 0
76.115387 81.349625 0.59098899
73.361572 77.440636 -0.9128418
76.228195 81.55632 -0.59752625
76.164772 81.465263 0
76.138962 81.4282 0.59316564
73.351227 77.460442 -0.91341895
76.221802 81.592422 -0.59825182
76.140686 81.475662 0
76.141617 81.477005 0.59432679
73.332016 77.467484 -0.91313094
76.233093 81.654167 -0.59984851
76.158096 81.545929 0
76.129372 81.504478 0.59476233
73.318672 77.483002 -0.91341895
76.226524 81.690308 -0.60057402
76.169441 81.607712 0
76.125931 81.544762 0.59563291
73.331726 77.536835 -0.91630131
76.219887 81.726456 -0.60129958
76.145203 81.618126 0
76.134224 81.602196 0.59708458
73.327087 77.565147 -0.91745448
76.227905 81.784042 -0.60275126
76.153397 81.675667 0
76.130608 81.642532 0.59795511
73.310692 77.576408 -0.91745448
76.21228 81.807365 -0.60304129
76.143799 81.707512 0
76.141617 81.70433 0.5995518
73.294281 77.587646 -0.91745448
76.211296 81.852142 -0.60405737
76.151779 81.765121 0
76.123146 81.723267 0.59969682
73.292435 77.620232 -0.91889566
76.207291 81.892632 -0.60492796
76.156715 81.818504 0
76.116364 81.759369 0.60042232
73.27597 77.631447 -0.91889566
76.223663 81.963219 -0.60681462
76.143951 81.846077 0
76.12413 81.816948 0.60187346
73.271111 77.659767 -0.92004883
76.20488 81.982285 -0.60696018
76.148682 81.89949 0
76.125938 81.865982 0.60303456
73.26123 77.716431 -0.92235518
76.219536 82.097855 -0.60986239
76.149078 81.993515 0
76.11763 81.946922 0.60477626
73.247543 77.731911 -0.92264426
76.212173 82.134155 -0.61058795
76.138962 82.025452 0
76.107544 81.97879 0.60535681
73.250786 77.754654 -0.92379636
76.233116 82.188972 -0.61218464
76.154205 82.071648 0
76.11409 82.011986 0.60622793
73.251457 77.791603 -0.92552668
76.234291 82.238266 -0.61334574
76.155563 82.120895 0
76.118362 82.065453 0.60753405
73.240532 77.811363 -0.9261027
76.223801 82.270309 -0.61392629
76.151016 82.161522 0
76.108086 82.097359 0.6081146
73.229584 77.831131 -0.92667985
76.219025 82.310997 -0.61479688
76.157959 82.219498 0
76.094856 82.124931 0.60854959
73.230057 77.868103 -0.92840904
76.217049 82.356033 -0.61581296
76.147476 82.251503 0
76.081589 82.152512 0.60898519
73.227592 77.900787 -0.92985022
76.240845 82.440063 -0.61813521
76.134041 82.27916 0
76.091263 82.214729 0.61058182
73.222214 77.929184 -0.93100339
76.232895 82.476501 -0.61886078
76.13781 82.332886 0
76.07785 82.24231 0.61101681
73.20253 77.936005 -0.93071538
76.222015 82.508614 -0.61944133
76.158669 82.412674 0
76.052933 82.252563 0.61087185
73.202759 77.973038 -0.9324457
76.219658 82.553757 -0.62045747
76.15358 82.45343 0
76.053741 82.301834 0.61203295
73.194382 77.997108 -0.93330973
76.225754 82.611931 -0.62190855
76.148422 82.494209 0
76.04303 82.333755 0.6126135
73.188805 78.02552 -0.9344629
76.220337 82.652771 -0.62277913
76.157448 82.55677 0
76.037949 82.374374 0.61348408
73.188835 78.062599 -0.93619323
76.240433 82.73278 -0.62495637
76.154938 82.601936 0
76.029961 82.410667 0.61421019
73.180298 78.086685 -0.93705726
76.220627 82.751907 -0.62510133
76.143822 82.634048 0
76.002029 82.416473 0.61391962
73.191467 78.141144 -0.93994075
76.231949 82.818947 -0.62684304
76.149658 82.692345 0
76.010925 82.478897 0.6155163
73.179993 78.160919 -0.94051677
76.243118 82.88604 -0.62858468
76.15538 82.750694 0
76.002716 82.515198 0.61624187
73.17411 78.189377 -0.94166994
76.223114 82.905182 -0.6287297
76.15815 82.804703 0
76.008545 82.573318 0.61769295
73.17379 78.22654 -0.9434002
76.228416 82.963608 -0.63018084
76.155167 82.850006 0
76.017075 82.635864 0.61928964
73.162186 78.246307 -0.94397628
76.216736 82.99585 -0.63076138
76.146454 82.886566 0
76.008606 82.672226 0.6200152
73.15892 78.279137 -0.94541746
76.216225 83.045593 -0.63192248
76.137672 82.923126 0
76.008484 82.72171 0.6211763
73.161179 78.320702 -0.9474358
76.232414 83.121635 -0.6339547
76.156876 83.003555 0
76.025055 82.797485 0.62320799
73.152222 78.344849 -0.9483009
76.212097 83.140778 -0.63409972
76.161896 83.062103 0
76.030289 82.855827 0.62465966
73.148758 78.377708 -0.94974214
76.21685 83.199356 -0.63555086
76.155617 83.103119 0
76.024231 82.896645 0.62553024
73.153557 78.423698 -0.95204848
76.227058 83.266762 -0.6372925
76.135323 83.122208 0
76.026443 82.950653 0.62683636
73.149948 78.456596 -0.95348966
76.206543 83.285912 -0.63743752
76.137253 83.17643 0
76.014656 82.982727 0.62741691
73.190964 78.540825 -0.95867836
76.219879 83.332809 -0.63874364
76.136795 83.201363 0
76.025398 83.025131 0.62857801
73.242348 78.661316 -0.9658854
76.221451 83.387123 -0.64004976
76.149666 83.273247 0
76.024574 83.074814 0.62973911
73.31823 78.821365 -0.97568679
76.222916 83.44149 -0.64135641
76.170685 83.358398 0
76.018112 83.115723 0.63060969
73.319557 78.863297 -0.97770512
76.221497 83.491447 -0.64251697
76.141754 83.364281 0
76.022614 83.174271 0.63206136
64 64 -0
76.2062 83.519424 -0.64295256
76.162506 83.449547 0
76.015961 83.21521 0.63293189
73.302765 78.916481 -0.97972232
76.218353 83.591484 -0.64483923
76.147263 83.477486 0
76.022995 83.278229 0.63452858
73.279274 78.918938 -0.9791463
76.202911 83.619476 -0.64527476
76.173195 83.571693 0
76.024391 83.332451 0.63583469
73.263962 78.934532 -0.97943431
76.217545 83.696022 -0.64730644
76.152283 83.590805 0
76.017456 83.373451 0.63670528
73.243195 78.941315 -0.9791463
76.212875 83.741714 -0.64832258
76.14502 83.632027 0
76.010445 83.41449 0.6375764
73.211555 78.930466 -0.97770512
76.227211 83.818367 -0.65035421
76.148628 83.690994 0
76.008797 83.464348 0.63873696
73.20163 78.954788 -0.97856915
76.230499 83.877396 -0.65180588
76.149376 83.745552 0
76.012512 83.523117 0.64018863
73.170029 78.943855 -0.97712797
76.201027 83.883293 -0.65151536
76.139114 83.782394 0
76.010651 83.573051 0.64134973
73.146576 78.946114 -0.97655195
76.217682 83.964516 -0.6536926
76.15596 83.863647 0
75.997849 83.605286 0.64193028
73.141975 78.979225 -0.97799313
76.220619 84.023613 -0.65514368
76.167198 83.936073 0
76.009338 83.677429 0.64381695
73.080841 78.919556 -0.97338045
76.220734 84.078316 -0.65644979
76.159332 83.977432 0
76.015266 83.740746 0.6454131
73.057442 78.921684 -0.97280443
76.218033 84.128609 -0.65761095
76.15139 84.018814 0
76.012978 83.790787 0.6465742
73.020653 78.901634 -0.97078609
76.212547 84.174484 -0.65862703
76.154144 84.078003 0
76.01059 83.840851 0.6477353
73.013336 78.930237 -0.97193927
76.223076 84.247055 -0.6605137
76.154083 84.132774 0
76.005409 83.886505 0.64875144
73.003296 78.954422 -0.97280443
76.220047 84.297424 -0.66167486
76.137802 84.160828 0
76.00013 83.932144 0.64976698
73.006516 79.000771 -0.97511071
76.214233 84.343353 -0.6626904
76.132179 84.206703 0
75.989418 83.968918 0.65049309
73.014954 79.056015 -0.97799313
76.22168 84.411606 -0.66443205
76.134499 84.266006 0
75.986641 84.019066 0.65165418
73.004715 79.080223 -0.97885823
76.212997 84.45314 -0.66530317
76.147354 84.343216 0
76.010391 84.113838 0.65426642
72.997078 79.108871 -0.9800114
76.214859 84.51252 -0.66675431
76.13076 84.3713 0
76.007355 84.164062 0.65542758
72.978813 79.119728 -0.9800114
76.211288 84.563011 -0.6679154
76.138031 84.439644 0
75.998894 84.205353 0.6562981
72.957893 79.126106 -0.97972232
76.207619 84.613525 -0.6690765
76.153099 84.521461 0
75.995659 84.255608 0.65745926
72.950134 79.154732 -0.98087549
76.217056 84.686432 -0.67096323
76.141525 84.558533 0
75.997597 84.314827 0.65891033
72.955437 79.20565 -0.98346984
76.20787 84.728035 -0.67183375
76.13253 84.600113 0
75.988869 84.356186 0.65978146
72.952782 79.243233 -0.98520017
76.206505 84.783096 -0.67313987
76.139259 84.66861 0
75.982681 84.402016 0.660797
72.954041 79.266487 -0.98635334
76.228119 84.84874 -0.67502654
76.139938 84.698387 0
75.98613 84.436157 0.66166812
72.948639 79.299614 -0.98779452
76.221291 84.894905 -0.67604268
76.146454 84.766953 0
75.982422 84.486511 0.66282928
72.950996 79.346161 -0.99010086
76.222214 84.954544 -0.67749375
76.147568 84.826569 0
75.978607 84.536888 0.66399038
72.94545 79.379326 -0.99154204
76.212563 84.996254 -0.67836487
76.153801 84.895226 0
75.98513 84.605232 0.66573149
72.916481 79.372223 -0.99038887
76.205444 85.042465 -0.67938101
76.149437 84.945915 0
75.978477 84.651169 0.66674763
72.913445 79.409859 -0.99211913
76.208626 85.106674 -0.68097711
76.142357 84.992104 0
75.971733 84.697128 0.66776371
72.889648 79.411652 -0.99154204
76.20388 85.157425 -0.68213826
76.140396 85.047348 0
75.964882 84.743073 0.66877925
72.90197 79.476189 -0.99500155
76.214584 85.235214 -0.68416989
76.130524 85.089066 0
75.968315 84.807076 0.67037594
72.885834 79.491417 -0.99528956
76.209602 85.286018 -0.68533105
76.149055 85.180458 0
75.969017 84.866592 0.67182708
76.212196 85.410255 -0.68837881
76.14682 85.295647 0
75.964912 84.976715 0.67443985
76.214584 85.474686 -0.6899755
76.14682 85.35556 0
75.957535 85.022766 0.67545539
76.214256 85.53463 -0.69142663
76.123573 85.374748 0
75.952637 85.073364 0.67661655
76.216377 85.599136 -0.69302326
76.128487 85.443748 0
75.950188 85.128502 0.67792267
76.213242 85.654617 -0.69432938
76.138359 85.521851 0
75.962944 85.210831 0.68009984
76.209991 85.710121 -0.6956355
76.120003 85.55011 0
75.952591 85.252434 0.68097043
76.181213 85.720329 -0.69549054
76.132141 85.632828 0
75.962494 85.33033 0.68300265
76.208221 85.830276 -0.6985383
76.139023 85.706543 0
75.949387 85.367447 0.68372822
76.189423 85.85862 -0.6989733
76.133057 85.757538 0
75.948868 85.427246 0.68517935
64 64 -0
76.208466 85.955093 -0.70158607
76.124466 85.804031 0
75.938126 85.468925 0.68605047
76.214691 86.028908 -0.70347279
76.130928 85.877838 0
75.949974 85.551498 0.68822712
76.200638 86.066391 -0.7041983
76.129669 85.938042 0
75.944038 85.60231 0.68938822
76.201569 86.13118 -0.70579499
76.130791 86.002808 0
75.953056 85.680428 0.6914199
76.197342 86.18689 -0.70710111
76.131783 86.067627 0
75.946877 85.731293 0.69258106
76.175522 86.210716 -0.70739114
76.122612 86.114204 0
75.950584 85.800392 0.69432271
76.166122 86.257339 -0.70840722
76.118362 86.169952 0
75.946671 85.85585 0.69562882
73.771622 81.928154 -0.57024169
76.126434 86.248558 0
75.945129 85.915909 0.69708049
73.752434 81.944511 -0.57038671
76.136818 86.331779 0
75.950897 85.989685 0.69896716
73.714325 81.900154 -0.56879002
76.125809 86.343697 0
75.964867 86.047134 0.70056331
73.697639 81.921028 -0.56908059
76.111191 86.381218 0
75.945641 86.075287 0.70099884
73.666107 81.914436 -0.56850004
76.108849 86.441635 0
75.936234 86.121727 0.70201498
73.637062 81.912369 -0.56806445
73.677414 81.987366 0
75.91935 86.154442 0.70259553
73.620331 81.933167 -0.56835502
73.640907 81.971519 0
73.68409 82.052017 0.57212168
73.583946 81.917274 -0.5674839
73.60936 81.964798 0
73.664719 82.068283 0.5722667
73.557404 81.919678 -0.56719393
73.575401 81.953438 0
73.620872 82.038681 0.57096058
73.530853 81.922028 -0.56690335
73.551262 81.960403 0
73.586868 82.027359 0.57023501
73.514069 81.942726 -0.56719393
73.527115 81.967339 0
73.567513 82.043518 0.57038003
73.489944 81.9496 -0.56704837
73.500534 81.96962 0
73.533562 82.032097 0.56965446
73.473099 81.970261 -0.56733888
73.461815 81.948853 0
73.499649 82.020622 0.5689289
73.451378 81.981689 -0.56733888
73.437706 81.955673 0
73.492371 82.059677 0.56979942
73.432053 81.997696 -0.5674839
73.418411 81.971664 0
73.470543 82.071136 0.56979942
73.417526 82.022903 -0.56791949
73.394287 81.978424 0
73.441475 82.068741 0.56936389
73.402946 82.048096 -0.56835502
73.374954 81.994377 0
73.424446 82.089363 0.56965446
73.378731 82.054825 -0.56820947
73.360405 82.019547 0
73.407364 82.109955 0.56994444
73.368866 82.089233 -0.56893557
73.350594 82.053955 0
73.385475 82.121307 0.56994444
73.361305 82.128235 -0.56980616
73.331169 82.069878 0
73.380264 82.164963 0.57096058
73.353661 82.167244 -0.57067668
73.318848 82.099632 0
73.360687 82.180893 0.57110554
73.34832 82.210899 -0.57169282
73.30648 82.129402 0
73.333969 82.182953 0.57081556
76.034851 87.514275 -0.73772401
73.284569 82.140633 0
73.32856 82.226593 0.57183111
76.034767 87.584335 -0.73946512
73.28157 82.188927 0
73.304169 82.233223 0.57168615
76.032188 87.649811 -0.74106181
73.261948 82.204781 0
73.29863 82.276886 0.57270223
76.060028 87.775566 -0.74454516
73.237587 82.211304 0
73.269485 82.2742 0.5722667
76.099304 87.924606 -0.74875402
75.984901 87.698395 0
75.923302 87.576584 0.73786229
76.161629 88.120171 -0.75441408
75.984383 87.768631 0
75.915855 87.632736 0.73916841
76.204826 88.278778 -0.75891298
76.037468 87.945847 0
75.910637 87.693558 0.74062014
76.20575 88.353897 -0.76079965
76.108795 88.160454 0
75.916924 87.777611 0.74279678
76.207314 88.393806 -0.76181579
76.152435 88.284134 0
75.911858 87.803391 0.74337733
76.187111 88.427139 -0.76239634
76.155617 88.364014 0
75.908615 87.868927 0.74497402
76.173782 88.474403 -0.76341188
76.140076 88.406631 0
75.907524 87.939117 0.74671513
76.183456 88.56826 -0.76587969
76.15451 88.509888 0
75.903992 88.004707 0.74831182
76.206734 88.690094 -0.76921749
76.143333 88.561867 0
75.904915 88.079636 0.75019848
76.213654 88.779411 -0.77153969
76.136665 88.623215 0
75.903381 88.149933 0.75194013
64 64 -0
76.220367 88.868774 -0.77386194
76.136742 88.698586 0
75.906281 88.229591 0.75397182
76.204025 88.911514 -0.77473247
76.138947 88.778664 0
75.904427 88.299957 0.75571352
76.210411 89.000961 -0.77705473
76.134125 88.844765 0
75.897858 88.361015 0.7571646
76.205208 89.067078 -0.77865082
76.14283 88.938957 0
75.900269 88.440796 0.75919682
76.208954 89.151947 -0.78082806
76.135406 89.000427 0
75.895691 88.506577 0.76079297
76.210243 89.232162 -0.78285974
76.132401 89.071297 0
75.890968 88.572395 0.76238966
76.20459 89.298386 -0.78445643
76.129234 89.142197 0
75.895142 88.65696 0.76456684
76.207787 89.383354 -0.78663307
76.132683 89.22718 0
75.899124 88.741547 0.76674354
76.204071 89.454323 -0.78837478
76.126945 89.293457 0
75.884949 88.788719 0.76775968
76.200195 89.525314 -0.79011643
76.125549 89.369133 0
75.884117 88.864014 0.76964635
76.193939 89.591644 -0.79171312
76.123993 89.444847 0
75.88089 88.934647 0.77138799
76.194321 89.752533 -0.79577643
76.12706 89.610489 0
75.889542 89.108879 0.77588689
76.185387 89.814255 -0.7972281
76.124992 89.68631 0
75.888031 89.184319 0.77777356
76.18737 89.899483 -0.7994048
76.12719 89.771591 0
75.877502 89.240982 0.77907968
76.191383 89.989471 -0.80172706
76.107094 89.809784 0
75.866859 89.297653 0.78038579
76.199585 90.088913 -0.80433929
76.106758 89.890396 0
75.862701 89.368469 0.7821275
76.194405 90.160156 -0.80608094
76.106247 89.971039 0
75.867165 89.458145 0.7844497
76.186874 90.226715 -0.80767763
76.098991 90.037582 0
75.86705 89.538437 0.78648138
76.197266 90.290627 -0.80941874
76.122681 90.129868 0
75.880051 89.606888 0.78836805
76.200394 90.380814 -0.81174093
76.117317 90.201187 0
75.8731 89.673111 0.78996474
76.190269 90.442741 -0.81319261
76.122696 90.296158 0
75.874702 89.758217 0.79214144
76.197372 90.542442 -0.81580484
76.121346 90.377007 0
75.869606 89.829208 0.79388309
76.191261 90.613861 -0.81754655
76.119804 90.457878 0
75.864365 89.90023 0.79562473
76.197945 90.713654 -0.82015878
76.115936 90.53405 0
75.861115 89.975998 0.79751146
76.195793 90.794586 -0.82219046
76.103264 90.591301 0
75.853409 90.042351 0.79910809
76.193474 90.875565 -0.82422268
76.109833 90.691216 0
75.854134 90.127625 0.80128479
76.195244 90.966026 -0.82654434
76.109749 90.77697 0
75.850388 90.203484 0.80317146
76.18615 91.03286 -0.82814103
76.109467 90.862747 0
75.855026 90.298325 0.80563867
76.189682 91.128143 -0.83060825
76.1026 90.934334 0
75.848801 90.369507 0.80738038
76.182388 91.199768 -0.83234996
76.106209 91.029686 0
75.850922 90.459694 0.80970258
76.179169 91.280899 -0.83438158
76.10537 91.115593 0
75.848595 90.540421 0.81173426
76.175774 91.362061 -0.83641326
76.106453 91.206284 0
75.843979 90.61644 0.81362092
76.182739 91.467018 -0.83917105
76.101006 91.282745 0
75.851845 90.720993 0.81637871
76.189461 91.572014 -0.8419283
76.09539 91.35923 0
75.832153 90.763809 0.8172493
76.179192 91.639038 -0.84352499
76.089607 91.435738 0
75.835434 90.858925 0.81971651
76.17086 91.710831 -0.84526664
76.089935 91.526573 0
75.830139 90.935059 0.82160318
76.168625 91.796913 -0.84744334
76.087967 91.612671 0
75.833015 91.030281 0.82407099
76.17244 91.897346 -0.85005611
76.089981 91.708359 0
75.825279 91.1017 0.8258121
76.169807 91.983505 -0.85223275
76.081406 91.78022 0
75.829834 91.201759 0.82842487
76.164925 92.064957 -0.85426503
76.083015 91.875977 0
75.83622 91.306618 0.83118212
76.157799 92.141647 -0.8561517
76.084412 91.971786 0
75.823822 91.368599 0.83263326
76.160774 92.242226 -0.85876393
76.085602 92.067635 0
75.823631 91.459236 0.83495545
76.167633 92.352417 -0.86166668
76.080414 92.14917 0
75.823235 91.549911 0.83727771
76.151756 92.410095 -0.8629728
76.077095 92.235535 0
75.818542 91.631065 0.83930939
76.141876 92.482124 -0.8647145
76.071541 92.317131 0
75.81572 91.717041 0.84148663
76.150124 92.597214 -0.86776227
76.073952 92.417915 0
75.80661 91.788696 0.84322828
76.167343 92.685875 -0.87022954
76.083206 92.487511 0
75.832428 91.896286 0.84627604
76.167068 92.781929 -0.87269676
76.08728 92.59317 0
75.82502 91.972786 0.84816277
76.140358 92.815765 -0.87327731
76.087074 92.689293 0
75.815422 92.044525 0.84990442
76.131683 92.8927 -0.87516397
76.082626 92.775864 0
75.821762 92.154594 0.85280663
76.140892 93.012802 -0.87835675
76.07798 92.862457 0
75.817825 92.240776 0.85498387
76.137833 93.104187 -0.88067901
76.087166 92.982704 0
75.821693 92.346153 0.85774112
76.118607 93.157211 -0.88183957
76.07811 93.059769 0
75.819351 92.437195 0.86006331
76.121155 93.263062 -0.88459736
76.068886 93.136871 0
75.804871 92.499481 0.86151505
76.09967 93.311317 -0.88561344
76.063454 93.223587 0
75.804138 92.595383 0.86398226
76.080063 93.364365 -0.8867746
76.073685 93.348862 0
75.799225 92.681702 0.8661589
76.056396 93.407776 -0.88764513
76.065849 93.43084 0
75.802017 92.787308 0.86891669
76.02282 93.427132 -0.88779014
76.071617 93.546577 0
75.798668 92.878502 0.87123841
76.00293 93.480148 -0.88895124
76.039833 93.57077 0
75.799042 92.979385 0.87385118
75.975113 93.513885 -0.88953179
76.008011 93.594955 0
75.797234 93.075478 0.8763184
75.956978 93.571693 -0.89083791
75.964439 93.590141 0
75.801048 93.18605 0.87922066
75.940666 93.634331 -0.89228958
75.922836 93.590088 0
75.79879 93.282227 0.88168788
75.941635 93.740356 -0.89504683
75.88707 93.604477 0
75.78083 93.339882 0.88299453
75.938507 93.836784 -0.89751405
75.857094 93.633316 0
75.785912 93.455414 0.88604236
75.935165 93.933243 -0.89998132
75.85984 93.744324 0
75.784958 93.556519 0.88865459
75.91626 93.991104 -0.90128744
75.860397 93.850525 0
75.776093 93.638344 0.89068621
75.902969 94.063469 -0.90302908
75.860733 93.956787 0
75.780449 93.754013 0.89373404
75.912407 94.193848 -0.90651244
75.856995 94.053398 0
75.778816 93.85524 0.89634627
75.938652 94.367805 -0.91130131
75.862564 94.174271 0
75.782661 93.971008 0.89939404
75.958824 94.527382 -0.91565579
75.903931 94.387253 0
75.776764 94.062653 0.90171629
75.978615 94.687035 -0.92000973
76.007256 94.760414 0
75.785789 94.193047 0.90519965
75.960365 94.749908 -0.92146081
76.041779 94.959229 0
75.773788 94.270218 0.90708631
75.972023 94.89032 -0.9252342
76.041977 95.070816 0
75.761612 94.347412 0.90897298
75.987106 94.984779 -0.92784643
76.058884 95.170303 0
75.784523 94.461136 0.91216576
75.971825 95.1689 -0.93249089
76.046967 95.364548 0
75.766777 94.635056 0.91651964
75.949013 95.222176 -0.93365198
76.057434 95.505463 0
75.770615 94.756027 0.91971248
75.961266 95.367683 -0.93757033
76.052742 95.607567 0
75.772324 94.872192 0.92276025
75.969498 95.503555 -0.94119871
76.042267 95.695076 0
75.768242 94.973846 0.92537302
75.949829 95.566612 -0.94265038
76.038971 95.802094 0
75.776802 95.10955 0.92900139
75.946518 95.673401 -0.94540757
76.035431 95.909134 0
75.774048 95.216125 0.93175864
75.937485 95.765648 -0.94772983
76.031662 96.016235 0
75.767395 95.313026 0.93422586
75.915497 95.823853 -0.94903594
76.02581 96.118484 0
75.762344 95.414818 0.93683809
75.927895 95.974556 -0.95309985
76.021553 96.225632 0
75.764336 95.536118 0.94003087
75.896492 96.00843 -0.9536804
76.027939 96.362106 0
75.76606 95.657494 0.94322419
75.83976 95.974037 -0.95222872
76.02317 96.46936 0
75.751259 95.735031 0.94511092
75.772339 95.910309 -0.94990647
76.019958 96.581528 0
75.745277 95.836967 0.94772315
75.71405 95.870872 -0.94831038
76.007515 96.669296 0
75.748032 95.96331 0.95106089
75.677322 95.889877 -0.94845539
76.009186 96.796181 0
75.748718 96.084854 0.95425427
75.665497 95.977203 -0.95063263
76.008797 96.918251 0
75.745552 96.196648 0.95715648
75.688972 96.162209 -0.95571208
76.004562 97.030563 0
75.735046 96.288971 0.95947874
75.708488 96.337555 -0.96050155
75.996544 97.133148 0
75.736717 96.415512 0.96281707
75.692329 96.41523 -0.96238822
75.998878 97.265106 0
75.732796 96.527428 0.96571928
75.670723 96.478226 -0.96383929
75.985085 97.353058 0
75.723358 96.624718 0.96818656
75.64373 96.526566 -0.96485543
75.98336 97.475311 0
75.729477 96.766083 0.97196043
75.618385 96.579773 -0.96601653
75.981369 97.597618 0
75.721291 96.868332 0.97457266
75.573792 96.579086 -0.965581
75.968643 97.690552 0
75.733757 97.029373 0.9789266
75.527481 96.573456 -0.96500045
75.973068 97.83255 0
75.719841 97.117004 0.98110324
75.493301 96.602066 -0.96543598
75.980637 97.984444 0
75.726471 97.263474 0.98502213
75.464981 96.584496 -0.96471041
75.977371 98.040764 0
75.747765 97.388191 0.98850495
75.439346 96.637543 -0.96587098
75.994766 98.222214 0
75.731476 97.471031 0.99053717
75.40847 96.675888 -0.96659714
75.987717 98.334961 0
75.715004 97.553864 0.99256885
75.379219 96.719086 -0.96746767
75.976997 98.437904 0
75.720543 97.700508 0.9964872
75.35498 96.777008 -0.96877378
75.972855 98.560547 0
75.715538 97.817764 0.99953496
75.349274 96.888954 -0.97167659
75.966743 98.678307 0
75.72213 97.969452 1.0035989
75.353447 97.030411 -0.97544992
75.958672 98.791183 0
75.723312 98.106445 1.0072272
75.375809 97.226028 -0.98081994
75.957085 98.923798 0
75.720802 98.233658 1.010565
75.355782 97.298767 -0.98256159
75.961914 99.076141 0
75.723045 98.375694 1.014339
75.342278 97.391182 -0.98488331
75.958031 99.203926 0
75.711586 98.478401 1.0169512
74.497513 95.027283 -0.91478467
75.950516 99.321884 0
75.724876 98.654968 1.0217407
74.46167 95.044868 -0.91492969
75.944389 99.444801 0
75.716179 98.767593 1.0246428
74.417542 95.037781 -0.91434914
75.939644 99.572708 0
75.717155 98.909828 1.0284168
74.373444 95.030647 -0.91376913
75.932953 99.695694 0
75.70462 99.012665 1.031029
74.327728 95.018494 -0.91304302
75.929276 99.828598 0
75.695145 99.125397 1.0339317
74.278793 94.996429 -0.91202748
75.93676 99.99614 0
75.7034 99.292404 1.0384307
74.233185 94.984138 -0.91130131
75.932426 100.12914 0
75.688446 99.390411 1.040898
74.179504 94.947128 -0.90985024
75.900154 100.17815 0
75.694389 99.552597 1.0452518
74.137245 94.94458 -0.90941465
75.862907 100.21228 0
75.687012 99.675339 1.0484446
74.091789 94.932114 -0.90868908
75.815918 100.21671 0
75.69548 99.847534 1.0530891
74.046379 94.919571 -0.90796357
75.770538 100.22599 0
75.687485 99.970367 1.0562819
74.001015 94.906975 -0.90723801
75.763611 100.3541 0
75.696808 100.14763 1.0610713
73.966843 94.928917 -0.90752798
75.756393 100.48221 0
75.689781 100.27549 1.0644091
73.916763 94.901352 -0.90636688
75.767967 100.66983 0
75.669762 100.36382 1.0665864
73.877838 94.908363 -0.90622187
75.774353 100.84268 0
75.682762 100.55608 1.0718108
73.831032 94.890579 -0.90535134
75.811905 101.11478 0
75.677979 100.69397 1.0754392
73.809219 94.886597 -0.90506077
75.887154 101.42947 0
75.701424 100.84465 1.079648
73.762489 94.868706 -0.90419018
75.895279 101.61253 0
75.697639 100.98759 1.0834215
73.718941 94.860649 -0.90360963
75.895164 101.77084 0
75.688843 101.11571 1.0867598
73.678528 94.862442 -0.90331906
75.893127 101.92426 0
75.682861 101.25377 1.0903881
73.642784 94.879089 -0.90346467
75.892281 102.08266 0
75.668816 101.36705 1.0932903
73.60701 94.895676 -0.90360963
75.887985 102.2312 0
75.663773 101.51014 1.0970637
73.565056 94.892365 -0.9031741
75.878723 102.36485 0
75.675316 101.70789 1.1024337
73.524666 94.893974 -0.90288407
75.866096 102.4886 0
75.658836 101.81633 1.1051915
73.487328 94.905464 -0.90288407
75.868462 102.66212 0
75.65583 101.96947 1.1092548
73.443901 94.897026 -0.90230352
75.867378 102.82576 0
75.650963 102.11772 1.1131737
73.403534 94.89846 -0.90201294
75.858337 102.96455 0
75.650284 102.28091 1.1175277
73.364685 94.904831 -0.90186799
75.85804 103.13328 0
75.649231 102.44417 1.1218816
73.324333 94.906181 -0.90157795
75.858849 103.30702 0
75.6493 102.61243 1.1263804
73.246643 94.918655 -0.90128744
75.862251 103.66467 0
75.663155 102.99895 1.13683
73.206314 94.919853 -0.9009974
75.858871 103.82863 0
75.667923 103.18732 1.1419095
73.170418 94.935936 -0.90114242
75.827011 103.89781 0
75.675217 103.38574 1.1472795
73.127151 94.927055 -0.90056187
75.833305 104.09677 0
75.648216 103.46961 1.1493117
73.09417 94.953026 -0.9009974
75.824463 104.24588 0
75.651787 103.65816 1.1543912
73.052383 94.94902 -0.90056187
75.8255 104.42999 0
75.625732 103.74701 1.1565678
73.01062 94.944962 -0.90012628
75.817383 104.58415 0
64 64 0
72.97612 94.96582 -0.90041685
75.824844 104.79336 0
90.356438 154.92447 2.6438801
72.94014 94.981628 -0.90056187
75.813072 104.93765 0
90.369019 155.38065 2.6562164
72.914169 95.032372 -0.90172297
75.811012 105.11696 0
90.288712 155.51733 2.6592641
72.886673 95.078102 -0.90273911
75.795662 105.25131 0
90.225266 155.7139 2.6640537
72.857651 95.118797 -0.90360963
75.795685 105.44073 0
90.122963 155.77553 2.6649246
72.839874 95.199471 -0.90564132
75.785324 105.59517 0
90.009216 155.79701 2.6646342
72.820503 95.275146 -0.90752798
75.791565 105.80975 0
89.889816 155.79837 2.6637635
72.850876 95.455566 -0.91260803
75.826935 106.03232 0
89.841393 155.839 2.6644893
72.92498 95.866562 -0.9242186
75.818245 106.19693 0
89.700974 155.76508 2.6614413
73.059509 96.498032 -0.94221479
75.810577 106.36659 0
89.583099 155.77104 2.6607158
73.045242 96.599091 -0.94482702
75.773285 106.43098 0
89.466629 155.78186 2.6601353
73.012756 96.635033 -0.94555259
75.723396 106.45021 0
89.350174 155.79251 2.6595547
72.978828 96.665939 -0.94613314
75.677612 106.48442 0
89.204819 155.69781 2.6559262
72.951691 96.721878 -0.94743925
75.656487 106.60893 0
89.100853 155.75327 2.656652
72.92717 96.787834 -0.94903594
75.641907 106.75858 0
89.006348 155.84369 2.6583936
72.901131 96.848747 -0.95048702
75.646049 106.97858 0
88.879044 155.81366 2.656652
72.888496 96.959831 -0.95338982
75.709297 107.41977 0
88.747803 155.7684 2.6544752
72.89312 97.136177 -0.9581793
75.75396 107.79581 0
88.623421 155.74803 2.6530235
72.921463 97.402954 -0.965581
75.770874 108.07146 0
88.516571 155.79279 2.6534591
72.959854 97.710022 -0.9741438
75.777771 108.31201 0
88.396286 155.78717 2.6524429
72.957649 97.866516 -0.97835273
75.788101 108.56772 0
88.28138 155.80153 2.6520081
72.944496 97.982849 -0.98140049
75.762062 108.68764 0
88.169113 155.82576 2.6518624
72.927132 98.084122 -0.98401272
75.776634 108.96364 0
88.054199 155.83983 2.6514275
72.912155 98.195457 -0.98691553
75.769547 109.15914 0
87.92617 155.80347 2.6495407
72.855171 98.145836 -0.98517382
75.745026 109.28922 0
87.779999 155.69647 2.6456218
72.77755 98.01561 -0.98110992
75.729309 109.45456 0
87.674377 155.74527 2.6462023
72.705429 97.905403 -0.97762716
72.686989 97.83358 0
87.566093 155.78387 2.646493
72.655449 97.880646 -0.97661102
72.634506 97.798668 0
87.447456 155.78207 2.6456218
72.6017 97.840729 -0.97515994
72.593658 97.809074 0
87.333977 155.80026 2.6453319
72.549339 97.805733 -0.97385323
72.540039 97.768967 0
87.193733 155.71251 2.6419935
72.480591 97.70517 -0.97066045
72.490341 97.743942 0
87.009354 155.44818 2.6335762
72.432281 97.685158 -0.96978992
72.44577 97.739021 0
86.839531 155.23898 2.6267545
72.384041 97.665054 -0.9689188
72.402481 97.73909 0
86.66774 155.01944 2.6196434
72.330856 97.624725 -0.96746767
72.359207 97.73912 0
86.541496 154.98119 2.6177568
72.291466 97.639809 -0.96761268
72.318428 97.749199 0
86.420349 154.96295 2.6164505
72.267426 97.629684 -0.96717769
72.307983 97.794655 0
86.352982 154.92599 2.6149991
72.230484 97.654785 -0.96761268
72.267136 97.804672 0
86.243103 154.95294 2.6149991
71.788132 96.013565 -0.92015469
72.237358 97.860146 0
86.109848 154.88382 2.6122417
71.718887 95.896683 -0.91652638
72.196442 97.870071 0
85.996353 154.89532 2.6118062
71.546562 95.350235 -0.90056187
75.758583 112.848 0
85.879211 154.89151 2.6109357
71.442116 95.081367 -0.89257962
75.704399 112.88242 0
85.740326 154.7966 2.6074522
71.349174 94.857796 -0.88590348
75.648941 112.9117 0
85.652267 154.91379 2.6100645
71.305893 94.84137 -0.88517791
75.580231 112.88522 0
85.524437 154.86404 2.6078877
71.256706 94.799606 -0.88372678
75.522354 112.90426 0
85.406288 154.85457 2.6068716
71.2183 94.803276 -0.88358122
72.930351 102.10925 0
85.270409 154.76906 2.6036789
71.177536 94.796806 -0.88314623
72.8713 102.06425 0
85.186661 154.90604 2.6068716
71.139145 94.800377 -0.88300067
71.346855 95.696503 0
85.04982 154.81514 2.603534
71.099594 94.798866 -0.8827107
71.303871 95.685074 0
84.936569 154.82532 2.6030984
71.058884 94.792221 -0.8822751
71.255119 95.648216 0
84.837257 154.89612 2.6044044
71.025139 94.815933 -0.8827107
71.218025 95.662033 0
84.722794 154.90097 2.6038239
70.986755 94.819336 -0.88256568
71.179764 95.670731 0
84.616394 154.94116 2.6042595
70.954079 94.84803 -0.88314623
71.14035 95.674309 0
84.495056 154.91528 2.6028078
70.927032 94.902046 -0.88445234
71.097519 95.662598 0
84.378372 154.90958 2.6019373
70.931511 95.098053 -0.88982183
71.063782 95.691467 0
84.256073 154.87833 2.6003406
70.9198 95.223106 -0.89316016
71.022102 95.684731 0
84.13501 154.85202 2.5988894
64 64 -0
70.89772 95.302483 -0.89519185
70.977097 95.662704 0
84.019623 154.85091 2.5981638
70.820946 95.313988 -0.89504683
70.897232 95.664215 0
83.796692 154.88379 2.5977283
70.777611 95.296814 -0.89432126
70.860069 95.677605 0
83.672569 154.84161 2.5958416
70.722282 95.223694 -0.89199907
70.823982 95.69606 0
83.559509 154.85007 2.5954061
70.68161 95.126129 -0.88909626
70.802643 95.689987 0
83.489349 154.79074 2.5933745
71.06913 97.126404 -0.94598812
70.765434 95.70327 0
83.389389 154.85995 2.5946805
71.016159 97.073921 -0.94424647
70.733604 95.741982 0
83.270966 154.84265 2.5935194
70.984764 97.123055 -0.94540757
70.6931 95.739899 0
83.133308 154.73367 2.589746
70.933014 97.075516 -0.94381094
70.663284 95.788719 0
83.028992 154.78215 2.5904717
70.870781 96.977036 -0.94076312
71.438057 99.699753 0
73.410393 109.16617 1.2884928
70.758217 96.634201 -0.93074918
71.39492 99.70871 0
73.356873 109.18261 1.2886384
70.664307 96.37767 -0.92320251
71.360161 99.758408 0
73.301216 109.18878 1.2884928
70.610596 96.31443 -0.92117083
71.320076 99.782578 0
73.239319 109.16436 1.2874773
70.560158 96.266373 -0.91957414
71.284096 99.827103 0
73.179565 109.15003 1.2867516
70.523216 96.284454 -0.91986418
71.249046 99.876694 0
73.12397 109.15598 1.2866061
70.482162 96.282127 -0.91957414
71.208763 99.900726 0
73.066338 109.1517 1.2861711
70.444168 96.295029 -0.91971916
71.166405 99.91452 0
73.009735 109.15242 1.2858806
70.403122 96.292603 -0.91942912
71.138184 99.999725 0
72.960228 109.18876 1.2866061
72.895668 109.14907 0
72.912651 109.23524 1.2876222
72.84211 109.16489 0
72.854988 109.23068 1.2871866
75.589043 123.57774 0
72.810257 109.29237 1.2886384
75.562469 123.82675 0
72.772285 109.38972 1.2911055
75.520599 123.99915 0
81.605293 155.68814 2.6074522
75.553421 124.56516 0
81.486702 155.66852 2.6062911
75.524811 124.81431 0
81.391411 155.77127 2.6086135
75.572647 125.47267 0
81.262238 155.69519 2.6058557
75.503143 125.51218 0
81.151436 155.71597 2.6058557
75.467789 125.73586 0
81.025421 155.65491 2.603534
71.603447 105.20977 0
80.925972 155.73671 2.6052752
71.552704 105.21379 0
80.800125 155.67532 2.6029534
71.524063 105.19786 0
80.752205 155.72635 2.6041145
71.469635 105.18132 0
80.629303 155.68004 2.6022272
71.416183 105.16983 0
80.518509 155.70007 2.6022272
71.376511 105.23512 0
80.384827 155.5921 2.5985994
71.317581 105.19277 0
80.287773 155.68857 2.6007762
72.679161 113.20264 0
80.152603 155.57001 2.5968578
72.63945 113.32587 0
80.043732 155.59969 2.5971477
72.576279 113.31577 0
79.930374 155.60364 2.5967121
72.508713 113.27994 0
79.790497 155.45386 2.5919232
72.452682 113.3107 0
79.686127 155.5087 2.5929389
72.393097 113.32088 0
79.599091 155.66592 2.5968578
72.328293 113.30018 0
71.071182 105.85863 1.1855946
72.281624 113.38721 0
71.022316 105.87738 1.1858846
72.240746 113.51013 0
70.977684 105.92172 1.1869007
72.235207 113.84869 0
70.929573 105.94551 1.1873362
72.254974 114.34656 0
70.876358 105.93846 1.1869007
72.209183 114.44896 0
70.826515 105.95186 1.1870457
72.163155 114.55132 0
71.659752 111.43397 1.3419013
72.117714 114.6588 0
71.584343 111.33031 1.3387085
72.108803 114.99754 0
71.505936 111.206 1.3349352
77.984375 152.64046 0
71.429451 111.09184 1.3314518
77.85714 152.52873 0
71.367722 111.06998 1.3305813
77.742172 152.49399 0
71.303665 111.03264 1.3292751
77.654259 152.634 0
71.247627 111.04655 1.3294201
73.428062 125.69576 0
71.192345 111.06557 1.3297107
64 64 -0
73.382957 125.64998 0
71.170944 111.11613 1.3310168
73.27739 125.70806 0
70.463593 106.99225 1.2141852
73.197449 125.68318 0
71.035484 111.18384 1.332323
73.128242 125.7303 0
70.965546 111.10492 1.3298557
73.092461 125.74611 0
70.936325 111.10397 1.3297107
73.019348 125.76735 0
70.878654 111.10716 1.3295652
70.587975 109.50098 0
70.814285 111.06403 1.328114
70.522636 109.43677 0
70.764053 111.11852 1.3294201
70.462593 109.40857 0
70.066429 106.62496 1.2024297
70.338425 109.32095 0
69.951889 106.55714 1.2001075
70.276512 109.27703 0
70.789558 112.97798 1.380942
70.221085 109.27941 0
69.475555 103.85312 1.1234777
70.159348 109.23533 0
69.428795 103.87002 1.1237682
70.103294 109.23244 0
69.367416 103.77869 1.1210104
70.051392 109.26039 0
69.313148 103.73879 1.1197044
69.997391 109.27284 0
69.617271 106.40342 1.1945924
69.939293 109.25426 0
69.5755 106.48232 1.1966246
69.884613 109.2614 0
69.545601 106.65392 1.2012686
69.817947 109.17555 0
69.488747 106.61935 1.2001075
64 64 -0
69.764015 109.18772 0
69.436592 106.6208 1.1999624
69.603081 108.35297 0
69.363594 106.45721 1.1951729
69.511368 108.05499 0
69.314865 106.48428 1.1957536
69.451736 108.00998 0
69.270561 106.54741 1.1973501
69.397919 108.01135 0
69.214714 106.51764 1.1963341
69.342224 107.99718 0
70.156158 114.70052 1.4263682
64 64 -0
69.288437 107.99844 0
70.068222 114.48605 1.4201277
69.236504 108.01514 0
69.998009 114.41594 1.4179505
64 64 -0
69.174789 107.94905 0
69.933441 114.3922 1.4170799
74.829086 156.45139 0
69.912666 114.47836 1.4194021
74.701187 156.32481 0
69.892952 114.84164 1.4294161
64 64 -0
74.59259 156.36353 0
69.880066 115.27206 1.4413167
64 64 -0
74.426407 155.89529 0
69.833931 115.41856 1.4452356
64 64 -0
74.294464 155.72165 0
69.782806 115.52368 1.4479928
74.168121 155.59433 0
69.723419 115.55647 1.4487189
74.032448 155.37892 0
69.674164 115.68214 1.4520568
64 64 -0
73.927086 155.43755 0
69.619003 115.75613 1.4539434
64 64 -0
73.79882 155.28387 0
69.571434 115.90237 1.4578618
64 64 -0
64 64 0
69.555328 116.34834 1.4701985
64 64 -0
64 64 0
69.535988 116.77364 1.4819541
64 64 -0
73.127563 152.03659 0
69.481331 116.86816 1.4844213
64 64 -0
73.022774 152.06308 0
69.416382 116.8644 1.4841307
64 64 -0
72.916885 152.0791 0
69.348312 116.82954 1.4829696
64 64 -0
72.803711 152.02248 0
69.281372 116.80495 1.4820991
64 64 -0
72.694283 152.00198 0
69.225227 116.88885 1.4842757
72.590973 152.04349 0
69.153244 116.81239 1.4819541
72.480591 152.01239 0
68.983261 115.71678 1.4510406
64 64 -0
72.375221 152.03293 0
68.9188 115.70207 1.4504601
72.263008 151.98079 0
68.86264 115.77524 1.4523467
64 64 -0
72.156212 151.98553 0
68.808235 115.86903 1.454814
64 64 -0
72.046577 151.95903 0
68.748871 115.91104 1.4558301
71.938889 151.95316 0
68.69268 115.9892 1.4578618
64 64 -0
71.831223 151.94711 0
68.631706 116.01553 1.4584423
64 64 -0
71.722214 151.9254 0
68.571579 116.05216 1.4593134
64 64 -0
71.666832 151.90413 0
68.533356 115.97725 1.4571362
64 64 -0
71.55571 151.85629 0
68.46521 115.92056 1.4553945
64 64 -0
71.451302 151.88611 0
68.398956 115.88451 1.454234
64 64 -0
71.343803 151.87949 0
68.332802 115.84836 1.4530728
64 64 -0
71.233765 151.84161 0
68.262466 115.76031 1.4504601
64 64 -0
71.122993 151.79321 0
68.199501 115.76025 1.450315
64 64 -0
71.013588 151.76025 0
68.136131 115.75494 1.4500251
70.913261 151.84131 0
68.069107 115.7029 1.4484284
64 64 -0
64 64 0
68.007431 115.71815 1.4487189
64 64 -0
64 64 0
67.944939 115.72296 1.4487189
64 64 0
67.88205 115.72249 1.4485734
64 64 -0
64 64 0
67.822998 115.77379 1.4498795
64 64 -0
64 64 0
67.765327 115.84575 1.4517661
64 64 -0
64 64 0
67.708969 115.93839 1.454234
64 64 -0
64 64 0
67.64949 115.98949 1.4555401
64 64 -0
64 64 0
67.586304 115.98866 1.4553945
64 64 -0
64 64 0
67.520676 115.95149 1.454234
64 64 0
69.607513 148.25406 2.3582609
64 64 -0
64 64 0
67.399864 116.03244 1.4562657
64 64 0
67.272804 116.01976 1.455685
64 64 -0
64 64 0
67.20739 115.98218 1.4545239
64 64 -0
64 64 0
67.143951 115.97565 1.454234
64 64 -0
64 64 0
67.080528 115.96903 1.4539434
64 64 -0
64 64 0
67.01532 115.93121 1.4527823
64 64 -0
64 64 0
66.983353 115.92265 1.4524922
64 64 -0
64 64 0
66.917107 115.86395 1.4507506
64 64 -0
64 64 0
66.848442 115.75848 1.4477028
64 64 0
66.789253 115.82416 1.4494445
64 64 -0
64 64 0
66.728813 115.869 1.4506056
64 64 -0
64 64 0
66.663467 115.82036 1.4491539
64 64 -0
64 64 0
68.24366 148.5575 2.3645012
64 64 -0
64 64 0
68.144287 148.61966 2.3660979
64 64 -0
64 64 0
66.476349 115.84525 1.4495895
64 64 -0
64 64 0
66.413948 115.85339 1.4497344
64 64 -0
64 64 0
66.353172 115.8978 1.4508957
64 64 -0
64 64 0
66.292526 115.94733 1.4522017
64 64 -0
64 64 0
66.22953 115.94487 1.4520568
64 64 -0
64 64 0
66.16655 115.94234 1.4519117
64 64 0
66.103157 115.92934 1.4514762
66.041634 115.96299 1.4523467
64 64 -0
65.976273 115.89791 1.4504601
64 64 -0
65.912415 115.86911 1.4495895
64 64 -0
65.851036 115.90775 1.4506056
64 64 -0
65.785095 115.81644 1.4479928
64 64 -0
65.696236 115.02911 1.4259328
65.632416 114.96361 1.424046
65.569878 114.93439 1.4231755
65.507713 114.91547 1.4225949
65.44516 114.88087 1.4215789
65.382545 114.84103 1.4204177
65.352936 114.88342 1.4215789
64 64 -0
65.286972 114.70839 1.4166443
64 64 -0
65.227455 114.78265 1.4186766
64 64 -0
65.16478 114.72694 1.4170799
64 64 -0
65.106651 114.87379 1.4211438
64 64 -0
65.043045 114.77117 1.418241
64 64 -0
65.134094 122.65421 1.6384063
64 64 -0
65.063034 122.64514 1.6381158
64 64 -0
64.991997 122.636 1.6378257
64 64 -0
64.92131 122.64754 1.6381158
64 64 -0
64.850975 122.68498 1.6391319
64 64 -0
64.780479 122.71714 1.6400025
64 64 -0
64.709343 122.70247 1.6395675
64 64 -0
64 64 0
64 64 -0
64.886452 155.70108 2.5611553
64 64 -0
64.774017 155.5098 2.5557854
64 64 -0
64.662994 155.4483 2.5540438
64 64 -0
64.552155 155.39188 2.5524471
64 64 -0
64 64 0
64 64 -0
64 64 0
64 64 -0
64 64 -0
64 64 -0
64 64 -0
64 64 -0
63.874329 116.00293 1.4523467
64 64 -0
63.811134 116.10149 1.4551045
64 64 -0
63.779724 116.08577 1.454669
64 64 -0
63.716732 116.09586 1.4549595
64 64 -0
63.654095 116.04872 1.4536535
64 64 -0
63.591206 116.04826 1.4536535
64 64 -0
63.528221 116.05811 1.4539434
64 64 -0
63.465481 116.04192 1.4535078
64 64 -0
63.369648 113.6814 1.3876182
64 64 -0
63.310413 113.62343 1.3860215
64 64 -0
63.25108 113.58099 1.3848604
64 64 -0
63.191849 113.5385 1.3836998
64 64 -0
63.131901 113.54268 1.3838449
64 64 -0
63.073307 113.47405 1.3819581
64 64 -0
62.942043 117.05785 1.4820991
64 64 -0
62.918919 115.11863 1.4279649
64 64 -0
62.855412 115.19521 1.4301417
64 64 -0
62.791592 115.27692 1.4324639
64 64 -0
62.729248 115.29101 1.4328995
64 64 -0
62.667816 115.26865 1.4323189
64 64 -0
62.605728 115.2722 1.4324639
64 64 -0
62.543922 115.26529 1.4323189
64 64 -0
62.478748 115.37257 1.4353666
64 64 -0
62.417957 115.32914 1.4342055
64 64 -0
62.356937 115.29601 1.4333345
64 64 -0
64 64 0
64 64 0
64 64 -0
64 64 0
64 64 -0
64 64 0
62.218044 113.97061 1.3964709
64 64 -0
64 64 0
62.191242 113.87605 1.3938587
64 64 -0
64 64 0
62.128448 113.94135 1.3957454
64 64 -0
64 64 0
62.828846 94.274109 0.84613049
64 64 -0
62.792679 94.262299 0.84584051
64 64 -0
64 64 0
64 64 -0
64 64 0
64 64 -0
64 64 0
62.682087 94.278488 0.84642106
64 64 -0
64 64 0
62.645733 94.27169 0.84627604
64 64 -0
62.606056 94.337517 0.84816277
64 64 -0
62.554222 94.657623 0.85716057
62.514668 94.707779 0.85861224
62.478336 94.690384 0.85817665
62.440994 94.69371 0.85832167
62.403095 94.707375 0.8587572
64 64 -0
62.366547 94.695053 0.85846722
62.33313 94.62558 0.85658002
62.554214 89.98494 0.72683227
62.527538 89.900162 0.72451007
61.809441 101.72678 1.0554113
64 64 -0
61.762321 101.75003 1.0561368
64 64 -0
61.867317 99.257462 0.98647326
64 64 -0
64 64 0
61.825676 99.239288 0.98603773
64 64 -0
61.77494 99.366302 0.98966604
64 64 -0
61.726887 99.446564 0.9919883
64 64 -0
61.485165 102.48772 1.0771809
64 64 -0
61.647446 99.347641 0.98937607
61.638977 99.154366 0.98400605
61.595791 99.161865 0.98429662
61.55872 99.081161 0.98211938
61.511559 99.145576 0.98400605
64 64 -0
57.888618 148.8588 0
61.24139 102.30429 1.0725363
64 64 -0
57.781143 148.91882 0
61.436501 99.004715 0.98023272
64 64 -0
57.659607 149.16557 0
61.401154 98.90831 0.97762048
57.549244 149.25647 0
61.364857 98.827408 0.97544324
57.45182 149.17596 0
61.325962 98.782745 0.97428209
57.392265 148.61276 0
61.287983 98.727692 0.97283101
57.31472 148.29341 0
61.247253 98.708839 0.97239542
57.228333 148.09332 0
61.209488 98.653702 0.97094434
57.141144 147.90869 0
61.168041 98.645126 0.97079933
57.079777 147.41797 0
60.842197 102.06488 1.0667313
56.99514 147.21765 0
60.795334 102.07139 1.0670214
56.914963 146.97058 0
60.741817 102.15551 1.0694886
56.81741 146.93085 0
60.689888 102.21887 1.0713758
56.59948 147.11024 0
60.584633 102.35568 1.0754392
56.494385 147.15308 0
61.291355 94.008476 0.84148663
56.028816 151.13493 0
60.708775 99.977158 1.0089689
59.301342 114.687 0
60.663868 99.988686 1.0094044
59.240097 114.68129 0
60.621357 99.974274 1.0091139
59.180344 114.65995 0
60.579369 99.954636 1.0086783
59.121628 114.62819 0
60.535427 99.955658 1.0088239
59.063492 114.59117 0
60.491482 99.956619 1.0089689
59.003387 114.57481 0
61.080048 93.555252 0.82944047
58.975925 114.5407 0
61.062191 93.55349 0.82944047
58.913818 114.54496 0
61.034286 93.472366 0.82726377
58.853802 114.52841 0
61.007629 93.380875 0.82479656
58.794353 114.50664 0
60.976925 93.330719 0.82349044
58.73225 114.51066 0
60.945259 93.290855 0.8224743
58.671223 114.50426 0
60.909325 93.292313 0.82261932
64 64 -0
58.60965 114.50294 0
60.870625 93.319565 0.82349044
58.54472 114.53262 0
60.826275 93.398415 0.8258121
58.482533 114.53636 0
60.282585 98.049057 0.95657593
58.422047 114.52447 0
60.732998 93.592117 0.83147269
59.509426 104.22939 0
60.696095 93.598473 0.83176267
59.467823 104.16187 0
60.661495 93.584137 0.83147269
59.420479 104.14603 0
59.492577 103.51398 1.1107066
59.377937 104.08875 0
59.444836 103.5085 1.1107066
59.333115 104.05212 0
59.397705 103.49779 1.110561
59.285328 104.04129 0
59.347549 103.51285 1.1111416
64 64 -0
59.238796 104.02005 0
59.301651 103.49173 1.1107066
60.0415 96.933685 -0.9263953
59.187958 104.03494 0
59.251457 103.50666 1.1112871
60.016743 96.805069 -0.92291194
59.135197 104.06525 0
59.204353 103.49572 1.1111416
59.991657 96.68161 -0.91957414
59.087421 104.05418 0
