# .PCD v0.7 - Point Cloud Data file format
VERSION 0.7
FIELDS x y z
SIZE 4 4 4
TYPE F F F
COUNT 1 1 1
WIDTH 1751
HEIGHT 1
VIEWPOINT 0 0 0 1 0 0 0
POINTS 1751
DATA ascii
73.411942 68.845871 -0.29565176
108.09183 86.701294 0
108.50226 86.912613 1.3979226
72.930443 68.611618 -0.83781111
73.318718 68.812126 -0.58449417
64 64 -0
108.01349 86.728287 0
108.41913 86.937752 1.396181
72.911179 68.615326 -0.83652681
73.308304 68.821007 -0.58420616
73.487892 68.914017 -0.29840955
107.95827 86.76709 0
108.37292 86.98185 1.3956004
72.919273 68.633186 -0.83781111
73.30706 68.834633 -0.58449417
73.463501 68.915894 -0.297829
107.91687 86.812988 0
108.25749 86.989929 1.3928427
72.92733 68.651085 -0.83909541
73.296631 68.843483 -0.58420616
73.452927 68.924919 -0.29768342
107.82927 86.83477 0
108.1882 87.021774 1.3915365
72.917137 68.659485 -0.8386662
73.27243 68.845131 -0.58305299
73.428566 68.92672 -0.29710343
107.73245 86.851562 0
108.15115 87.070343 1.3912464
72.920609 68.675026 -0.83952296
73.275726 68.86113 -0.58362901
73.413391 68.933273 -0.29681286
107.69559 86.899551 0
108.07722 87.099556 1.3897954
72.931427 68.687576 -0.84080732
73.272789 68.866737 -0.58362901
73.419617 68.943802 -0.29710343
107.60339 86.884827 0
107.98502 87.085121 1.3873276
72.948463 68.710312 -0.84294671
73.276062 68.882759 -0.58420616
73.404434 68.950333 -0.29681286
107.52506 86.910835 0
107.86054 87.087425 1.3842803
72.933678 68.716324 -0.84208995
73.274727 68.896378 -0.58449417
73.398445 68.961693 -0.29681286
107.47894 86.95369 0
107.80962 87.128265 1.3835542
72.955208 68.741539 -0.84465861
73.273369 68.909996 -0.58478218
73.415405 68.985199 -0.29753843
107.37756 86.967239 0
107.73573 87.156876 1.3821031
72.990273 68.774025 -0.84850991
73.272011 68.92363 -0.58507133
73.413956 68.999008 -0.29768342
107.3176 87.002548 0
107.72607 87.219452 1.3826836
73.034348 68.811432 -0.85321796
73.270615 68.937263 -0.58535933
73.417091 69.015266 -0.29797399
107.22546 87.020622 0
107.64294 87.24295 1.380942
73.096451 68.85862 -0.85963619
73.264648 68.948456 -0.58535933
73.406448 69.0242 -0.297829
107.14711 87.045853 0
107.52774 87.249161 1.3781848
73.117737 68.884155 -0.86220485
73.24498 68.952316 -0.58449417
73.427849 69.050278 -0.29869956
107.11006 87.093063 0
107.44006 87.269836 1.3762981
73.138954 68.909744 -0.86477184
73.261765 68.975723 -0.58593535
73.440048 69.071503 -0.29928011
107.06837 87.137741 0
107.35698 87.292793 1.3745564
73.128494 68.91835 -0.86434424
73.260315 68.989372 -0.5862245
73.447647 69.090309 -0.29971567
106.98999 87.162621 0
107.29221 87.325447 1.3733953
64 64 -0
73.175262 68.972198 -0.86990744
73.261864 69.019127 -0.58708853
73.435318 69.113121 -0.29971567
106.85151 87.221794 0
107.1946 87.407715 1.3720891
73.191803 68.995537 -0.87204683
73.278511 69.042664 -0.58852971
73.419991 69.119553 -0.2994251
106.82799 87.276047 0
107.14343 87.447479 1.371363
73.230827 69.031204 -0.87632573
73.276962 69.056351 -0.58881885
106.80441 87.330269 0
107.13789 87.512032 1.3720891
73.238258 69.049744 -0.87761003
73.279922 69.07251 -0.58939487
106.80815 87.399445 0
107.13681 87.579086 1.3729597
73.263672 69.078178 -0.88060617
73.30101 69.098648 -0.59112519
106.78442 87.453659 0
107.16753 87.663666 1.3748465
73.262024 69.091843 -0.88103372
73.294838 69.109879 -0.59112519
106.71957 87.485275 0
107.16623 87.730835 1.3757175
73.291832 69.122856 -0.88445747
73.302238 69.128593 -0.59198922
106.63646 87.506721 0
107.12842 87.777954 1.375427
73.321579 69.153954 -0.88788122
73.309616 69.147339 -0.59285438
106.57613 87.540588 0
107.06327 87.809937 1.3742659
73.310844 69.16272 -0.88745201
73.348625 69.18367 -0.59573674
106.50215 87.566788 0
106.96631 87.824158 1.3720891
73.34948 69.198921 -0.89173251
73.351402 69.199997 -0.59631389
106.43271 87.59536 0
106.89662 87.853325 1.3707831
73.338707 69.207718 -0.89130497
73.358658 69.218842 -0.59717792
106.3587 87.621262 0
106.84505 87.892479 1.370057
73.430984 69.274124 -0.9007194
73.361382 69.235199 -0.59775507
106.29834 87.654648 0
106.78895 87.929016 1.3691864
73.406693 69.275467 -0.89900756
73.368591 69.254097 -0.59862024
106.20162 87.667549 0
106.71922 87.957825 1.3678803
73.36451 69.266693 -0.89558381
73.371246 69.270485 -0.59919626
106.14125 87.700668 0
106.60417 87.961021 1.3651226
73.420738 69.313316 -0.90157455
73.360367 69.279266 -0.59890825
106.07176 87.728546 0
106.54351 87.994614 1.3641069
73.390717 69.303864 -0.89900756
73.384193 69.300179 -0.60063744
106.02571 87.736053 0
106.47923 87.992203 1.3625103
64 64 -0
73.326225 69.28231 -0.89344436
105.96982 87.771423 0
106.46378 88.051193 1.3629458
64 64 -0
73.395729 69.336678 -0.9007194
105.88675 87.791267 0
106.39402 88.079391 1.3616397
64 64 -0
73.420486 69.365807 -0.90371394
105.82181 87.821259 0
106.3107 88.099731 1.3598981
64 64 -0
73.396179 69.367012 -0.90200371
105.73875 87.840797 0
103.53801 86.583755 1.2716577
64 64 -0
73.389687 69.378365 -0.90200371
105.66928 87.867935 0
103.50168 86.62635 1.2713677
64 64 -0
73.369827 69.382027 -0.9007194
105.59978 87.894928 0
106.06084 88.15976 1.354673
64 64 -0
73.332169 69.375404 -0.89772326
105.53028 87.921799 0
106.0046 88.195007 1.3538024
64 64 -0
73.343445 69.39695 -0.8994351
105.46078 87.948532 0
105.96632 88.24054 1.3535119
64 64 -0
73.35025 69.415962 -0.9007194
105.39578 87.977737 0
105.91902 88.280807 1.3529314
64 64 -0
73.330376 69.419518 -0.8994351
105.33078 88.006828 0
105.82674 88.294907 1.3508997
64 64 -0
73.354881 69.448875 -0.90243131
105.26578 88.035797 0
105.7345 88.308815 1.348868
64 64 -0
73.357147 69.465347 -0.9032864
105.19624 88.062012 0
105.65573 88.330391 1.3472713
64 64 -0
73.394852 69.502602 -0.90756691
105.10875 88.077576 0
105.5994 88.364952 1.3464007
64 64 -0
73.326202 69.477547 -0.90157455
105.0527 88.11142 0
105.54304 88.399399 1.3455297
64 64 -0
73.35939 69.51226 -0.90542585
104.98318 88.137238 0
105.47322 88.42585 1.3442235
64 64 -0
73.352722 69.52356 -0.90542585
104.91814 88.165565 0
105.37209 88.433655 1.3419013
64 64 -0
73.403465 69.568863 -0.91098899
104.86203 88.199066 0
105.28889 88.451859 1.3401601
64 64 -0
73.379089 69.569748 -0.90927875
104.78801 88.221855 0
105.13866 88.430084 1.3362412
64 64 -0
73.394409 69.594208 -0.9114182
104.70058 88.236504 0
105.05553 88.447868 1.3344996
64 64 -0
73.409676 69.618713 -0.91355759
104.62659 88.258987 0
104.8252 88.377579 1.3279691
64 64 -0
73.354424 69.601067 -0.90884954
104.45435 88.222488 0
104.62183 88.322777 1.322309
64 64 -0
73.42247 69.657288 -0.91612458
104.3358 88.217766 0
104.5033 88.318344 1.3194063
64 64 -0
73.41124 69.666023 -0.91569704
104.20395 88.20475 0
104.43382 88.34314 1.3181001
64 64 -0
73.443939 69.701271 -0.91954833
104.0722 88.191444 0
104.38658 88.381241 1.3175195
73.419472 69.702042 -0.91783649
104.05184 88.245232 0
104.32153 88.408485 1.3163584
73.456474 69.740067 -0.92211694
103.97357 88.263901 0
104.25203 88.432922 1.3150523
73.506538 69.786186 -0.92768013
103.94422 88.31218 0
104.21802 88.478836 1.3149067
64 64 -0
64 64 -0
103.88065 88.306519 0
104.18105 88.489609 1.3141812
64 64 -0
64 64 -0
103.80682 88.327545 0
104.14699 88.535431 1.3140363
64 64 -0
64 64 -0
103.73303 88.348434 0
104.08186 88.562202 1.312875
64 64 -0
103.63263 88.352829 0
104.01674 88.588852 1.3117139
64 64 -0
103.57217 88.381592 0
103.95604 88.618103 1.3106984
64 64 -0
103.52052 88.415703 0
103.88646 88.641777 1.3093917
73.456421 69.857964 -0.92725092
103.43791 88.430557 0
103.81248 88.66259 1.3079406
73.444984 69.866676 -0.92682338
103.40836 88.478195 0
103.76059 88.696976 1.3072151
73.450966 69.88623 -0.92810768
103.36549 88.517532 0
103.70425 88.728516 1.3063445
73.465614 69.91124 -0.93024713
103.25639 88.515457 0
103.64349 88.757202 1.3053284
73.445404 69.914497 -0.92896277
103.2135 88.554581 0
103.58271 88.785774 1.3043122
64 64 -0
103.13972 88.57428 0
103.50873 88.805954 1.3028611
73.396347 69.915436 -0.92554069
103.06155 88.591049 0
103.43474 88.825989 1.3014095
73.397865 69.932259 -0.92639583
103.0054 88.621559 0
103.37396 88.85421 1.3003939
73.399361 69.949097 -0.92725092
102.96243 88.660324 0
103.28243 88.862862 1.2983623
73.4095 69.971451 -0.92896277
102.87987 88.673912 0
103.21286 88.885239 1.2970556
73.419609 69.993843 -0.93067467
90.832413 81.073883 -0.88822567
102.80612 88.692932 0
103.12576 88.896332 1.2951689
73.425346 70.013504 -0.93195897
90.781097 81.086723 -0.88720959
102.71481 88.700607 0
103.02118 88.896072 1.2927017
73.431053 70.033195 -0.93324327
90.721031 81.093872 -0.88590348
102.69372 88.752991 0
102.92979 88.904007 1.29067
73.432388 70.050125 -0.93409842
90.67849 81.112122 -0.88517791
102.62435 88.774429 0
102.82531 88.903328 1.2882028
73.452263 70.095161 -0.93752211
90.57592 81.137115 -0.88314623
102.50751 88.831032 0
102.66893 88.935127 1.28501
73.444885 70.106575 -0.93752211
90.507187 81.138168 -0.88154954
102.45561 88.863403 0
102.58205 88.945152 1.2831233
73.459038 70.131943 -0.93966156
90.486458 81.170189 -0.88154954
102.4037 88.895699 0
102.48647 88.949348 1.280946
73.45594 70.146179 -0.94009078
90.461334 81.199348 -0.88140458
102.33432 88.916557 0
102.39095 88.953354 1.2787694
73.465118 70.160278 -0.94137341
90.450943 81.215332 -0.88140458
102.27127 88.908478 0
102.34537 88.956703 1.2777532
73.474869 70.182938 -0.94308531
90.377899 81.213203 -0.87966287
102.20629 88.931961 0
102.28471 88.983131 1.2767372
73.488869 70.208435 -0.9452247
90.348373 81.239365 -0.87937236
102.17177 88.97525 0
102.20667 88.998085 1.275141
73.498535 70.231155 -0.94693661
90.253654 81.222733 -0.87690508
102.11111 89.001373 0
102.14602 89.024277 1.274125
73.413795 70.191849 -0.93923402
90.245857 81.263016 -0.87734067
102.05043 89.027382 0
102.08102 89.047501 1.2729638
90.155563 81.248932 -0.87501842
101.9854 89.050415 0
102.0247 89.076332 1.2720933
90.108704 81.263336 -0.87414789
101.9117 89.067596 0
101.95969 89.099335 1.2709322
90.096481 81.300606 -0.87443787
101.85534 89.096123 0
101.91202 89.133698 1.2703515
90.036606 81.306236 -0.87313175
101.79465 89.121681 0
101.84267 89.153595 1.2690455
73.487289 70.322632 -0.95036036
90.002716 81.329048 -0.87269676
101.72963 89.144241 0
101.78197 89.179123 1.2680293
73.483902 70.336945 -0.9507879
89.942856 81.334457 -0.8713901
101.64728 89.155106 0
101.71263 89.198776 1.2667233
73.471977 70.345543 -0.95036036
89.895996 81.34845 -0.87051952
101.60388 89.191887 0
101.63899 89.215408 1.2652721
73.498398 70.379883 -0.95378405
89.870697 81.376831 -0.8703745
101.53021 89.20829 0
101.57399 89.237686 1.264111
89.793655 81.370338 -0.86848783
101.4695 89.233261 0
101.52621 89.271454 1.2635305
89.772644 81.401497 -0.86848783
101.41312 89.261047 0
101.47412 89.302246 1.2628049
89.725769 81.415138 -0.86761671
101.35669 89.288727 0
101.39618 89.31546 1.2612082
89.670311 81.422859 -0.86645561
101.29597 89.313393 0
101.33978 89.343124 1.2603377
89.623466 81.436333 -0.86558503
101.22664 89.332085 0
101.27045 89.3619 1.2590309
89.585205 81.455566 -0.86500448
101.15729 89.350639 0
100.91783 89.187271 1.2481465
89.534073 81.465927 -0.8639884
101.10086 89.377892 0
100.50563 88.970741 1.2352297
89.482956 81.476196 -0.8629728
101.03154 89.39621 0
100.38972 88.956047 1.232327
89.496078 81.530533 -0.86413395
100.99654 89.437988 0
64 64 0
89.419258 81.52298 -0.86224729
100.85007 89.402908 0
100.23946 88.981979 1.2292792
89.389511 81.547768 -0.86195672
100.59244 89.290588 0
100.20068 89.019829 1.2289886
89.334114 81.554756 -0.86079562
100.27522 89.136169 0
100.12344 89.031006 1.2273926
89.27874 81.56163 -0.85963446
100.03536 89.03447 0
100.08037 89.065735 1.226957
89.302254 81.600647 -0.86079562
99.973236 89.023544 0
100.0183 89.054893 1.2253609
89.242615 81.604454 -0.8594895
99.913086 89.04615 0
99.953903 89.074615 1.2241998
89.195778 81.617081 -0.85861892
99.861481 89.074615 0
99.889503 89.094215 1.2230387
89.114883 81.605743 -0.85658669
99.775749 89.079094 0
99.833618 89.119659 1.2221675
89.106354 81.645042 -0.85702223
99.711349 89.098358 0
99.790497 89.153976 1.2217325
89.063782 81.6604 -0.85629666
99.655479 89.123505 0
99.726089 89.173264 1.2205714
89.029678 81.681671 -0.85586113
99.629341 89.169571 0
99.674423 89.201416 1.2198459
88.944695 81.666855 -0.85368448
99.552177 89.179512 0
99.626984 89.232491 1.2192652
88.931801 81.702995 -0.85397446
99.487778 89.198341 0
99.562576 89.25145 1.2181041
88.893456 81.721054 -0.85339391
99.470024 89.250259 0
99.498169 89.270294 1.216943
88.859329 81.742058 -0.85295832
99.384415 89.253799 0
99.442215 89.295044 1.216072
88.820969 81.759987 -0.85237777
99.315781 89.269279 0
99.38205 89.316696 1.2150564
88.769943 81.768768 -0.85136223
99.281006 89.308899 0
99.313431 89.332169 1.2137502
88.714706 81.774414 -0.85020113
99.20813 89.321114 0
99.265923 89.362686 1.2131697
88.705856 81.813385 -0.85063666
99.139511 89.336243 0
99.209953 89.387032 1.2122986
88.629562 81.80365 -0.84875
99.108871 89.378685 0
99.145554 89.405205 1.2111374
88.612244 81.836441 -0.84889501
99.023392 89.381386 0
99.076965 89.420212 1.2098314
88.578056 81.857002 -0.84845942
98.980072 89.414505 0
99.029404 89.450356 1.2092508
88.522858 81.862206 -0.84729832
98.919891 89.43531 0
98.965027 89.468185 1.2080897
88.518044 81.904083 -0.84787887
98.88913 89.477486 0
98.904861 89.488968 1.2070742
88.462845 81.909134 -0.84671777
98.820511 89.491943 0
98.857262 89.518845 1.2064936
88.44957 81.944839 -0.84700835
98.823257 89.55864 0
98.792885 89.536346 1.2053324
88.45298 81.992844 -0.84787887
98.763016 89.579109 0
98.736877 89.559883 1.2044613
88.447952 82.034714 -0.84845942
98.744629 89.630356 0
98.672531 89.577164 1.2033007
88.434502 82.070435 -0.84875
98.897774 89.808495 0
98.620697 89.603584 1.2025746
88.471085 82.143265 -0.85078168
99.129967 90.045937 0
98.577225 89.636124 1.2021396
88.390762 82.129425 -0.84875
99.223785 90.181511 0
98.512848 89.653076 1.2009785
64 64 -0
88.467354 82.209312 -0.85179776
99.303986 90.274246 0
98.472328 89.655304 1.2001075
64 64 -0
88.453659 82.245071 -0.8520878
99.268044 90.313782 0
98.395493 89.662766 1.1985114
64 64 -0
88.423279 82.268387 -0.85179776
99.22789 90.350143 0
98.356133 89.698074 1.1982207
64 64 -0
88.496803 82.369583 -0.85513556
99.166878 90.370834 0
98.295959 89.717751 1.1972052
64 64 -0
88.46212 82.389801 -0.85470003
99.122498 90.403915 0
98.235779 89.737312 1.196189
64 64 -0
88.497993 82.463142 -0.85673225
99.061493 90.424416 0
98.188057 89.766144 1.1956085
64 64 -0
64 64 -0
98.918686 90.449356 0
98.075974 89.811035 1.1938668
88.584023 82.668091 -0.86210173
98.874268 90.482079 0
98.015808 89.8302 1.1928513
88.598663 82.726112 -0.86340785
98.829834 90.514748 0
97.95562 89.849243 1.1918352
88.576019 82.755821 -0.86340785
98.73983 90.512604 0
97.903709 89.874496 1.1911097
88.573982 82.8013 -0.86413395
98.707771 90.554558 0
97.847649 89.896484 1.1902385
88.575981 82.849953 -0.86500448
98.659134 90.583801 0
97.799835 89.924713 1.1896579
88.569664 82.892303 -0.86558503
98.598122 90.603462 0
97.735535 89.940193 1.1884968
88.608566 82.969574 -0.86776227
98.516479 90.607117 0
97.695938 89.974594 1.1882068
88.651405 83.050125 -0.87008399
92.549805 86.062737 0
97.656311 90.008942 1.1879169
88.657127 83.10218 -0.87110007
64 64 0
97.649506 90.06868 1.1887873
88.712006 83.19252 -0.87385732
64 64 0
97.630295 90.118889 1.1892229
88.6847 83.219177 -0.8737123
64 64 0
97.623306 90.178658 1.1900935
88.649178 83.239403 -0.87327731
64 64 0
97.632614 90.251236 1.1915447
88.720039 83.342819 -0.87661511
64 64 0
97.649979 90.330284 1.1932863
88.770241 83.430405 -0.87922734
64 64 0
97.634499 90.383759 1.1938668
88.820267 83.518143 -0.88183957
64 64 0
97.618935 90.437225 1.1944474
88.988487 83.699333 -0.88866127
64 64 0
97.591042 90.481041 1.1945924
88.948357 83.716629 -0.88808072
64 64 0
97.58757 90.544174 1.1956085
64 64 0
97.575592 90.56768 1.1957536
64 64 0
97.58419 90.640533 1.1972052
64 64 0
97.608917 90.726372 1.1992369
64 64 -0
64 64 0
97.584717 90.773438 1.1995269
64 64 -0
64 64 0
97.601059 90.852928 1.2012686
64 64 -0
64 64 0
97.564529 90.890259 1.2011236
64 64 0
97.540131 90.937317 1.2014141
64 64 0
97.499451 90.971298 1.2011236
64 64 0
97.40213 90.959534 1.1988013
64 64 0
97.317017 90.957382 1.1969147
64 64 0
97.2481 90.968155 1.1956085
64 64 0
97.187256 90.985352 1.1945924
64 64 0
97.13047 91.005737 1.1937219
64 64 0
97.097809 91.045753 1.1937219
64 64 0
97.036964 91.062668 1.1927058
91.381462 86.485229 0
96.968094 91.072891 1.1913996
91.318115 86.488533 0
96.927345 91.10611 1.1911097
91.298958 86.528152 0
96.854477 91.112785 1.1896579
96.689636 91.043221 0
96.78566 91.122658 1.1883519
96.648933 91.076065 0
96.748871 91.158936 1.1882068
96.600189 91.10218 0
96.668076 91.158615 1.1864651
96.523422 91.104897 0
96.65519 91.214706 1.1871907
90.994598 86.552521 0
96.602341 91.237488 1.1864651
90.971313 86.588455 0
87.657227 83.812912 0.86180502
90.904144 86.58757 0
87.63327 83.841484 0.86180502
90.746452 86.51033 -0.97632051
96.324348 91.204796 0
87.593376 83.856644 0.86122447
90.699371 86.525879 -0.97559494
96.247704 91.206924 0
87.505814 83.83152 0.85890222
90.652298 86.541351 -0.97486937
96.202881 91.235779 0
87.37471 83.769302 0.85498387
96.142715 91.218231 0
87.231888 83.6726 0.85019439
96.113785 91.260429 0
87.172447 83.670395 0.84888828
96.049118 91.272224 0
87.176369 83.721954 0.84990442
96.008209 91.304169 0
87.195999 83.787033 0.85150051
95.951469 91.322533 0
87.227379 83.862335 0.85353279
95.918427 91.361122 0
87.14418 83.839653 0.85135555
95.853767 91.372528 0
87.057121 83.813416 0.8490333
95.804893 91.397408 0
86.989868 83.803955 0.8474372
95.759949 91.425613 0
87.005241 83.865677 0.84888828
95.714989 91.453758 0
87.004791 83.913864 0.84975886
95.638542 91.454529 0
86.968948 83.931442 0.84932387
95.57785 91.468826 0
86.889946 83.911423 0.84729165
95.548576 91.510391 0
87.006882 84.062019 0.85251665
95.491791 91.527931 0
86.994362 84.100067 0.85295218
95.431099 91.541946 0
86.954422 84.114136 0.85237163
95.397797 91.579903 0
86.863731 84.083557 0.84990442
95.352737 91.607513 0
86.835533 84.107727 0.84975886
95.219666 91.624565 0
86.654556 84.045769 0.84482437
95.170692 91.648453 0
86.544792 83.997269 0.84163159
86.949783 84.406097 0
86.505081 84.010681 0.84105104
86.909576 84.41996 0
86.527435 84.079353 0.84279275
86.88488 84.447632 0
86.538033 84.137718 0.84409887
86.825272 84.444016 0
86.498199 84.15107 0.84351826
86.707596 84.388123 0
86.357834 84.074089 0.83916438
86.679077 84.412064 0
86.252449 84.028084 0.83611661
86.654404 84.439453 0
86.185799 84.01667 0.83452046
94.743706 91.805321 0
86.177002 84.057388 0.83510047
94.707611 91.806427 0
86.172592 84.077774 0.83539104
94.650864 91.82251 0
86.14447 84.101059 0.83524603
94.605682 91.84903 0
86.054825 84.068344 0.83277881
94.548927 91.864937 0
85.992157 84.059952 0.83132714
94.503723 91.891304 0
85.933388 84.054947 0.83002102
94.470001 91.928139 0
85.955109 84.123573 0.83176267
94.394073 91.926193 0
86.122116 84.32589 0.83901936
94.341164 91.945274 0
86.437729 84.665932 0.8519361
94.26149 91.939545 0
86.657104 84.91864 0.86122447
94.204788 91.95488 0
86.509758 84.833038 0.85658002
94.083221 91.909935 0
86.362671 84.747131 0.8519361
93.977074 91.878922 0
86.508835 84.933395 0.85846722
93.920517 91.893822 0
86.722977 85.183815 0.86761004
93.871574 91.915741 0
88.219864 86.634071 0.92580801
93.83403 91.948257 0
88.222839 86.691742 0.92696917
93.792656 91.977165 0
88.21434 86.738777 0.92769474
93.728508 91.984604 0
88.270111 86.846397 0.93088806
93.694672 92.020508 0
88.336975 86.964867 0.93451643
93.649445 92.045631 0
88.328079 87.012108 0.93524194
93.596657 92.06353 0
88.322876 87.062935 0.93611252
93.536316 92.074165 0
85.477562 84.414352 0.82755375
85.853012 84.821541 0
85.396454 84.38652 0.82537711
85.760094 84.783226 0
85.364281 84.405174 0.82508653
85.644737 84.723114 0
83.616707 82.781433 0.75847131
85.537071 84.669968 0
83.578995 82.790726 0.7578907
85.474579 84.659897 0
93.54023 92.419563 1.1448122
85.469582 84.680084 0
83.593567 82.873047 0.75977743
85.463295 84.724083 0
83.615608 82.940033 0.76151907
85.367188 84.681229 0
83.577774 82.949257 0.76093853
85.237587 84.605545 0
83.491455 82.911385 0.75847131
85.029846 84.453377 0
83.446236 82.913177 0.75760019
84.926865 84.402489 0
83.42337 82.936661 0.75760019
84.857529 84.384102 0
83.437645 82.996445 0.75905186
84.773392 84.351013 0
83.436943 83.041733 0.75992239
84.652245 84.281281 0
64 64 0
87.272125 86.909409 -0.91202748
84.605453 84.284302 0
64 64 0
87.266609 86.959404 -0.912898
84.625397 84.353058 0
83.364098 83.108414 0.75977743
87.349686 87.097137 -0.91725194
84.68219 84.458488 0
83.363152 83.153717 0.76064795
87.528397 87.330231 -0.92537916
84.705498 84.531105 0
83.354759 83.191742 0.7612285
87.662369 87.519844 -0.93176532
84.695442 84.570786 0
92.921638 92.747437 1.1388621
87.667061 87.581429 -0.93307143
84.652138 84.577408 0
92.883186 92.778679 1.1387166
87.568687 87.540222 -0.93031365
84.638306 84.613388 0
92.837372 92.802551 1.1382816
87.459435 87.487801 -0.92712086
84.620735 84.645668 0
92.795197 92.830017 1.1379911
87.431038 87.516129 -0.92712086
84.584763 84.659515 0
92.749336 92.853737 1.1375555
87.398949 87.540741 -0.92697585
84.592804 84.717598 0
92.692474 92.866348 1.136685
87.337555 87.535789 -0.92566973
94.748306 95.009483 0
92.635628 92.87886 1.1358144
87.225037 87.478989 -0.92233139
94.791336 95.128014 0
92.582428 92.894958 1.1350883
87.01416 87.322098 -0.91507524
94.782944 95.194839 0
87.28775 87.59935 0.92595357
86.865654 87.227676 -0.91028577
84.857552 85.187782 0
87.138908 87.505264 0.92116416
86.797516 87.2145 -0.90868908
84.733475 85.112709 0
87.034027 87.455338 0.91811633
86.751266 87.223473 -0.90796357
84.587753 85.015053 0
86.96566 87.442314 0.91651964
86.683228 87.21006 -0.90636688
84.500504 84.976639 0
86.901001 87.432892 0.91506857
86.640671 87.22258 -0.90578687
95.102585 95.901978 0
86.850899 87.43821 0.91419744
86.56958 87.233757 -0.90462577
95.211533 96.130035 0
86.732338 87.401306 0.91114962
86.523392 87.24234 -0.90389967
95.263245 96.261162 0
92.226303 93.127289 1.1327666
86.462784 87.235916 -0.90259355
95.292969 96.37001 0
92.234421 93.206192 1.1345078
86.441917 87.270523 -0.90288407
95.354996 96.512695 0
92.271263 93.315102 1.1374105
86.392159 87.275146 -0.90201294
95.395073 96.633072 0
92.275452 93.390442 1.1390072
86.353233 87.290947 -0.90157795
95.474548 96.794907 0
92.301094 93.488327 1.1414744
86.299911 87.291664 -0.90056187
95.506897 96.908112 0
92.362473 93.62384 1.1453928
86.271751 87.318588 -0.90056187
95.553375 97.036476 0
92.394859 93.7295 1.1481506
86.21846 87.319145 -0.89954573
95.574471 97.138641 0
83.705429 84.68161 0.79780197
86.193863 87.349747 -0.89969128
95.670662 97.320114 0
83.676834 84.70163 0.79765642
86.15847 87.369003 -0.89940071
95.709175 97.441467 0
83.655388 84.729172 0.79780197
86.137367 87.40332 -0.89969128
95.758163 97.57428 0
83.673187 84.798218 0.79954368
86.158997 87.482956 -0.90172297
95.835434 97.737541 0
83.630196 84.803062 0.79881757
86.219658 87.604309 -0.90535134
95.873138 97.859375 0
83.612175 84.834343 0.79910809
86.23024 87.672806 -0.90694743
95.967598 98.042038 0
92.828949 94.699707 1.1761607
86.279793 87.783096 -0.91014081
96.097229 98.262955 0
92.795395 94.738327 1.1763062
86.286514 87.847961 -0.91159189
96.375641 98.643951 0
92.829185 94.849022 1.1792084
86.325012 87.947083 -0.91434914
96.514755 98.877197 0
92.816696 94.910446 1.1802245
86.366837 88.050156 -0.91725194
96.578926 99.030792 0
83.546112 85.017136 0.80157536
86.383705 88.126686 -0.91913861
96.614464 99.154091 0
83.425262 84.937874 0.79765642
86.382782 88.184227 -0.92029971
96.681549 99.311882 0
93.078613 95.418968 1.1956085
86.392326 88.253258 -0.9218964
96.730652 99.450768 0
93.089981 95.50753 1.1976402
83.127602 84.767517 -0.78851974
96.811203 99.624283 0
93.05542 95.546494 1.1977857
83.070854 84.756172 -0.78721362
96.866745 99.771217 0
86.69915 88.705101 0.93698364
83.024704 84.756226 -0.7863431
96.925484 99.92218 0
86.658745 88.721016 0.93654805
82.999603 84.77919 -0.7863431
96.945267 100.03107 0
86.621834 88.7407 0.93625754
64 64 -0
97.006927 100.18621 0
86.609444 88.787224 0.93698364
82.965408 84.817429 -0.78648806
97.076195 100.30618 0
83.371223 85.262878 0.80331701
64 64 -0
82.954224 84.855713 -0.78706867
97.130325 100.45396 0
83.24765 85.178581 0.79925311
64 64 -0
82.922035 84.870911 -0.78677863
97.205109 100.62508 0
83.113846 85.082481 0.79475421
64 64 -0
82.889824 84.886047 -0.78648806
97.223671 100.73465 0
82.983788 84.989937 0.79040033
64 64 -0
82.878494 84.924286 -0.78706867
97.255959 100.85978 0
82.920113 84.970413 0.78880364
82.863632 84.958679 -0.7875042
87.462181 90.067947 0
82.89476 84.993256 0.78880364
82.84523 84.989182 -0.78779417
87.416756 90.08078 0
82.862442 85.008347 0.7885136
82.833725 85.02742 -0.78837478
87.350502 90.070297 0
82.826645 85.019508 0.78807807
82.825615 85.069534 -0.78910029
87.374474 90.160591 0
82.808151 85.04998 0.78836805
82.824356 85.119431 -0.79011643
87.370537 90.219887 0
82.806908 85.099854 0.78938419
82.809181 85.153809 -0.79055202
87.297348 90.201447 0
82.781403 85.122559 0.78938419
82.807739 85.203728 -0.79156756
87.217316 90.175049 0
82.73172 85.118027 0.78836805
82.799332 85.245911 -0.79229367
87.102905 90.109543 0
82.688972 85.121185 0.78764254
70.855148 71.766182 -0.86348748
82.801147 85.299759 -0.79345423
87.023102 90.082802 0
82.629051 85.104797 0.7861914
70.754166 71.670433 -0.8519336
82.809753 85.361473 -0.7949059
87.029411 90.15358 0
82.579498 85.099983 0.78517526
70.646629 71.566727 -0.83952296
82.831932 85.438843 -0.79693758
87.028709 90.216576 0
82.543694 85.110703 0.78473973
70.634102 71.570892 -0.83909541
86.11438 89.237114 -0.93713534
82.414345 85.014603 0
82.52845 85.144821 0.78517526
70.533714 71.474533 -0.82753992
86.046249 89.220779 -0.93553865
82.354691 84.997658 0
82.492622 85.155457 0.78473973
70.54493 71.505646 -0.83010852
85.899635 89.114227 -0.93060422
82.305359 84.992355 0
82.449974 85.158203 0.78401417
70.515633 71.490303 -0.82753992
85.794243 89.054413 -0.92741138
82.266312 84.998749 0
82.414169 85.168732 0.78357917
70.520035 71.51368 -0.82925177
85.637932 88.935509 -0.92204136
82.220467 84.997223 0
82.38858 85.190964 0.78357917
70.460564 71.463333 -0.82283348
85.556763 88.902695 -0.91986418
82.167831 84.987747 0
82.39357 85.24852 0.78488529
70.414627 71.428391 -0.81812543
82.152664 85.0215 0
82.371277 85.274666 0.78503031
70.385544 71.412804 -0.81555843
82.164612 85.086792 0
82.345551 85.296844 0.78503031
70.379929 71.4244 -0.81598604
82.125549 85.092934 0
82.268997 85.259872 0.78285307
70.370949 71.432106 -0.81598604
82.072945 85.083206 0
82.21286 85.246422 0.78154695
70.30191 71.369568 -0.80828345
71.054825 72.250038 -0.60496211
82.037323 85.09317 0
82.173668 85.252609 0.7809664
70.290787 71.365562 -0.80742669
71.066628 72.273964 -0.60640329
82.061752 85.147591 0
82.16758 85.2715 0.78125691
70.248589 71.334084 -0.80314779
71.073395 72.302177 -0.60784447
82.063187 85.201096 0
82.12838 85.277618 0.78067636
70.216446 71.31424 -0.80015165
71.049965 72.294952 -0.6066913
64 64 0
82.082458 85.275742 0.77980524
70.257408 71.380493 -0.80657154
71.006485 72.264015 -0.60380894
81.981606 85.208954 0
82.043297 85.281715 0.77922469
70.158966 71.282196 -0.79501605
70.979797 72.252731 -0.60236776
81.966057 85.242592 0
82.06456 85.359062 0.78125691
70.183273 71.328888 -0.7992965
70.706306 71.948822 -0.57959348
81.930298 85.25235 0
82.062187 85.408669 0.78227246
70.161194 71.320641 -0.79758465
70.6101 71.854019 -0.57209843
81.921364 85.293907 0
82.046341 85.442406 0.78270805
70.119324 71.28875 -0.79330415
70.520775 71.766922 -0.56517941
81.885574 85.303581 0
82.053833 85.50399 0.78415918
70.084152 71.264664 -0.78988206
70.574493 71.850151 -0.57065725
81.833099 85.293274 0
82.024506 85.521812 0.78401417
70.076431 71.291168 -0.79116476
70.47271 71.76667 -0.56345022
81.874886 85.448242 0
81.992409 85.589264 0.78488529
70.064339 71.294563 -0.79073715
70.383957 71.679016 -0.55653119
82.045265 85.705963 0
82.036072 85.694908 0.78793305
70.045685 71.290024 -0.78945285
70.351555 71.658852 -0.55451286
82.138641 85.871986 0
82.24205 85.996681 0.79809201
70.030334 71.289421 -0.78859776
70.332413 71.654572 -0.55364883
82.118828 85.901901 0
82.298271 86.118813 0.80172032
70.021515 71.2967 -0.78859776
70.254021 71.578438 -0.54759496
82.055908 85.879616 0
82.231842 86.092804 0.79997867
69.976799 71.260361 -0.78388971
70.277725 71.625916 -0.55047733
81.969917 85.829086 0
82.208427 86.118828 0.80012369
69.971275 71.271545 -0.78431726
70.18972 71.537552 -0.5435583
81.89399 85.790459 0
82.161911 86.116722 0.79925311
69.93972 71.250961 -0.78132272
70.265846 71.649078 -0.55105448
81.857742 85.79998 0
82.148346 86.154732 0.79983366
69.908211 71.230301 -0.77832651
70.230408 71.624596 -0.54874814
81.814926 85.801392 0
82.170891 86.237015 0.80201089
69.915688 71.257332 -0.78046596
70.152557 71.54792 -0.54269427
81.75898 85.786598 0
82.176834 86.299225 0.80346203
69.881004 71.232605 -0.77704221
70.110794 71.515205 -0.53981078
81.729347 85.803993 0
82.172836 86.349403 0.80447811
69.875504 71.243706 -0.77747142
70.088676 71.506516 -0.53865761
81.709549 85.833488 0
82.158905 86.387489 0.80505872
69.840912 71.218872 -0.77404767
70.079597 71.513863 -0.53865761
81.676605 85.846771 0
82.105698 86.37709 0.80389756
69.835403 71.229912 -0.77447522
70.034782 71.476936 -0.53548723
81.66655 85.888382 0
82.075371 86.394897 0.80375201
69.81057 71.216965 -0.77233583
69.951126 71.391548 -0.52885622
81.659668 85.934029 0
82.087402 86.465302 0.80549371
69.779335 71.195953 -0.76933962
69.961639 71.422935 -0.53058654
81.691811 86.028389 0
82.128586 86.57222 0.80854148
69.748177 71.174896 -0.76634508
69.949432 71.426102 -0.53029853
81.717255 86.114746 0
82.202026 86.719849 0.81304091
69.758728 71.205894 -0.76891208
69.930763 71.421158 -0.52943337
81.693764 86.140198 0
82.268631 86.859535 0.8172493
69.699928 71.141159 -0.76163703
69.945633 71.44899 -0.53116256
81.631683 86.089874 0
82.228897 86.838089 0.81608874
69.700897 71.160095 -0.76292133
69.859306 71.359062 -0.52424467
81.436394 85.899422 0
82.100937 86.734062 0.81158924
69.676262 71.146866 -0.76078027
69.837547 71.34993 -0.5230915
81.345192 85.838974 0
82.05407 86.731506 0.81071872
69.667625 71.153717 -0.76078027
69.841507 71.373199 -0.52424467
81.279999 85.810959 0
82.087898 86.830688 0.81347597
69.652618 71.152512 -0.75992519
69.839005 71.388359 -0.52482069
81.247177 85.823647 0
82.092529 86.893311 0.81492764
69.637619 71.151283 -0.75907004
69.804451 71.362915 -0.52251434
81.227242 85.852654 0
82.100235 86.960037 0.81652373
69.62262 71.150009 -0.75821328
69.782761 71.353653 -0.52136117
81.19117 85.861176 0
88.182213 94.751343 1.0925648
69.610809 71.152763 -0.75778574
69.757912 71.340286 -0.51991999
81.190445 85.914696 0
88.148239 94.784622 1.0927098
69.573692 71.123154 -0.75393444
69.742668 71.339104 -0.51934397
81.224899 86.013336 0
88.098221 94.797409 1.0921292
69.571396 71.13797 -0.75478959
69.717873 71.325638 -0.51790166
85.588806 91.659195 0
81.918709 86.95713 0.81333095
69.569077 71.152802 -0.75564635
69.737625 71.369286 -0.52049714
64 64 0
81.945229 87.04847 0.81579816
69.51004 71.09465 -0.74879885
69.725533 71.372116 -0.520208
64 64 0
81.96199 87.127594 0.81782985
69.504608 71.105362 -0.74922639
69.700783 71.358582 -0.51876682
64 64 0
81.949951 87.16983 0.81855595
69.489746 71.103889 -0.7483713
69.688728 71.361382 -0.51847881
64 64 0
81.893333 87.15448 0.8172493
69.449806 71.069847 -0.7440908
69.657722 71.339561 -0.51646048
85.351402 91.698433 0
81.855835 87.16375 0.8168143
69.466301 71.108986 -0.74751455
69.611008 71.297188 -0.51300097
85.305229 91.707703 0
81.827835 87.185303 0.8168143
69.451462 71.107445 -0.7466594
69.586449 71.28344 -0.51155978
64 64 0
81.806122 87.215073 0.81710428
69.414795 71.077332 -0.7428081
69.599655 71.318947 -0.51357812
85.23188 91.750832 0
81.768585 87.224182 0.81666875
69.403114 71.079773 -0.74237895
69.578247 71.309258 -0.51242495
85.182541 91.755783 0
81.731056 87.233253 0.81623375
69.369675 71.053619 -0.7389552
69.572548 71.320107 -0.51271296
85.145844 91.777222 0
81.662056 87.200912 0.81434703
69.358047 71.056015 -0.73852766
69.535545 71.289764 -0.5101186
85.083939 91.76545 0
81.608864 87.189125 0.81318593
69.352615 71.066574 -0.7389552
69.539223 71.312935 -0.51127177
85.040939 91.77845 0
81.571411 87.197952 0.8127504
69.322418 71.044373 -0.73596066
69.514793 71.298996 -0.50983059
85.017677 91.817513 -0.97370827
84.99794 91.791397 0
81.52771 87.198441 0.81202483
69.301544 71.034401 -0.73424876
69.502861 71.301521 -0.50954258
84.977798 91.834595 -0.97341824
84.954956 91.804283 0
81.521561 87.248657 0.81304091
69.293037 71.040802 -0.73424876
69.51268 71.33297 -0.51127177
84.944153 91.859924 -0.97341824
84.902573 91.804619 0
81.502823 87.282257 0.81347597
69.29068 71.055397 -0.73510391
69.460373 71.281693 -0.50723624
84.888649 91.856102 -0.97240216
82.314758 88.423683 0
81.468445 87.295082 0.81318593
69.28215 71.061783 -0.73510391
69.442276 71.275856 -0.50637108
84.839409 91.860519 -0.97167659
82.275879 88.433289 0
81.443398 87.320328 0.81333095
69.392105 71.226982 -0.99875337
69.249054 71.035248 -0.73168015
69.439659 71.29071 -0.5069471
84.780869 91.852356 -0.97051543
82.230782 88.434494 0
81.42453 87.353889 0.81376648
69.322693 71.151955 -0.98749566
69.240547 71.04158 -0.73168015
69.433945 71.301437 -0.50723624
82.15152 88.389694 0
81.390091 87.366577 0.81347597
69.31707 71.16246 -0.98805797
69.213684 71.023178 -0.72911316
69.397369 71.270622 -0.50464189
82.118942 88.40744 0
81.349449 87.370888 0.81289536
69.361168 71.230988 -0.99706417
69.200264 71.013954 -0.72782886
69.405296 71.290504 -0.50579506
82.132088 88.456009 0
81.316765 87.356323 0.81202483
69.358475 71.245636 -0.998191
69.182632 71.007858 -0.72654617
69.387253 71.284546 -0.5049299
82.102524 88.477898 0
81.285439 87.373055 0.81187981
69.349716 71.252106 -0.998191
69.177208 71.018242 -0.72697377
69.393799 71.311859 -0.50637108
82.106911 88.545815 0
81.263351 87.402283 0.81216985
69.31987 71.229904 -0.99425024
69.147415 70.995544 -0.72397757
69.363495 71.2892 -0.50435275
84.570679 91.956352 -0.96935433
82.08342 88.576073 0
81.231987 87.418945 0.81202483
69.311127 71.236328 -0.99425024
69.132896 70.993492 -0.72312248
69.317955 71.245636 -0.50089324
84.533806 91.977005 -0.96920931
82.025993 88.560143 0
81.231346 87.477448 0.81333095
69.278366 71.209938 -0.98974717
69.112305 70.983116 -0.72141057
69.327538 71.277107 -0.50262356
81.993233 88.577713 0
81.21524 87.515022 0.8139115
69.263664 71.208115 -0.98862249
69.058449 70.927086 -0.71499068
69.33094 71.300247 -0.50377673
81.994209 88.641457 0
81.192947 87.544197 0.81420147
69.251945 71.21035 -0.98805797
69.056122 70.941505 -0.71584743
69.291656 71.264862 -0.50089324
82.001198 88.713669 0
81.188957 87.598557 0.81536263
69.201416 71.159142 -0.98017871
69.03566 70.930992 -0.71413553
69.261597 71.241966 -0.49887604
81.977432 88.74382 0
81.313156 87.829521 0.82261932
69.165932 71.128387 -0.97511327
69.048363 70.966164 -0.71713006
69.255875 71.252502 -0.49916404
84.305351 92.019051 0
81.485619 88.128143 0.83219826
69.133499 71.101677 -0.9706102
69.042961 70.976433 -0.71755928
69.268326 71.2882 -0.50118238
84.265381 92.035126 0
81.563004 88.296661 0.83727771
69.089249 71.058411 -0.96385556
68.998497 70.932541 -0.71242368
69.214134 71.231621 -0.4968577
84.207138 92.02581 0
81.56707 88.364235 0.8388744
69.071808 71.05217 -0.96216637
68.996101 70.946907 -0.71327877
69.163109 71.179123 -0.49282217
84.148956 92.016418 0
81.564926 88.423409 0.84018052
69.048477 71.037651 -0.95935249
68.99968 70.969627 -0.71499068
69.190613 71.235802 -0.49628168
84.099907 92.019585 0
81.565681 88.486832 0.84163159
69.037018 71.039619 -0.95879012
69.039055 71.042465 -0.72183812
69.18187 71.242065 -0.49628168
84.047867 92.018463 0
81.626801 88.634827 0.84598553
69.034721 71.072472 -0.96160406
64 64 -0
69.149353 71.233498 -0.4948405
104.30009 120.61111 0
81.630508 88.766258 0.8490333
69.008522 71.053696 -0.95822781
64 64 -0
69.089691 71.167999 -0.48993871
105.3707 122.26391 0
81.612602 88.804489 0.84961385
68.99118 71.047295 -0.95653862
64 64 -0
69.101959 71.203697 -0.49195701
105.2762 122.27988 0
81.555588 88.78759 0.84830773
68.97094 71.03672 -0.95428705
68.931252 70.980537 -0.71242368
69.114143 71.239441 -0.49397534
105.19073 122.30846 0
81.459663 88.715408 0.84511495
68.94487 71.017799 -0.95091087
68.908028 70.965508 -0.71028423
69.099426 71.237152 -0.49339822
105.09326 122.31987 0
81.393867 88.685509 0.8433733
68.907166 70.982185 -0.94528091
68.902557 70.975632 -0.71071184
69.037148 71.16713 -0.48820949
105.01379 122.35672 0
81.378967 88.727768 0.84409887
68.889984 70.975639 -0.94359386
68.917702 71.015182 -0.71413553
69.093803 71.266396 -0.49455136
104.98805 122.47015 0
81.42067 88.850876 0.84758216
68.855347 70.944069 -0.93852848
68.885681 70.987457 -0.71071184
69.03463 71.200478 -0.48965067
104.89949 122.49405 0
81.435287 88.935783 0.84975886
68.841133 70.941582 -0.93740159
68.880173 70.997566 -0.71113938
69.046638 71.236259 -0.491669
104.84961 122.5733 0
81.420013 88.978157 0.85048497
68.832741 70.947426 -0.93740159
68.851189 70.973946 -0.70814317
69.014259 71.208382 -0.48936266
109.81657 129.86478 0
81.345306 88.935188 0.84830773
68.83593 70.969963 -0.93965316
68.874954 71.026207 -0.71285123
69.032082 71.252678 -0.49195701
109.42839 129.47537 0
81.261841 88.87928 0.8456955
68.811455 70.943642 -0.9357124
68.859009 71.012276 -0.71113938
68.989403 71.200447 -0.48820949
70.64209 73.585518 -0.32569408
109.38586 129.49854 0
81.23201 88.868347 0.84496993
68.794403 70.93692 -0.93402541
68.859299 71.030815 -0.71242368
68.983635 71.210724 -0.48849753
70.624596 73.584991 -0.32540411
109.39842 129.68605 0
81.172401 88.84639 0.84351826
68.780243 70.934334 -0.93289852
68.827484 71.002861 -0.70899993
68.974922 71.216743 -0.48849753
70.580566 73.545921 -0.32380742
109.33971 129.77086 0
81.101074 88.807228 0.84148663
68.771858 70.940102 -0.93289852
68.836464 71.034065 -0.71156693
68.942749 71.188644 -0.48619118
70.58374 73.575272 -0.32453299
109.28969 129.86847 0
81.050476 88.797897 0.84047049
68.763466 70.945862 -0.93289852
68.836678 71.052612 -0.71285123
68.934059 71.194611 -0.48619118
70.554535 73.557518 -0.32366243
109.25421 129.98753 0
80.999931 88.78849 0.83945495
68.76368 70.964203 -0.93458772
68.810768 71.033035 -0.71028423
68.922447 71.196304 -0.48590314
70.516579 73.526825 -0.32235631
109.15681 130.01639 0
80.955292 88.787552 0.83872885
68.746674 70.957352 -0.93289852
68.790688 71.021881 -0.70857239
68.928322 71.22361 -0.48734435
70.487488 73.508926 -0.32148519
109.10635 130.11389 0
80.881401 88.743637 0.83655214
68.74398 70.971497 -0.93402541
68.773537 71.014923 -0.70728809
68.90213 71.203903 -0.48561513
70.481842 73.52536 -0.32177573
108.92102 130.01346 0
103.52643 122.08586 1.9621954
68.71843 70.951988 -0.93064702
68.753525 71.003693 -0.70557618
68.884705 71.196976 -0.48474997
70.432396 73.477287 -0.31988907
108.49924 129.56381 0
64 64 0
68.72142 70.974518 -0.93289852
68.724907 70.979668 -0.70258003
68.870216 71.194313 -0.48417395
70.409286 73.467842 -0.31930852
108.30328 129.44514 0
64 64 0
68.698769 70.95916 -0.93008465
68.719353 70.989639 -0.70300925
68.861519 71.200195 -0.48417395
70.365845 73.4282 -0.31771183
108.19797 129.45981 0
64 64 0
68.701714 70.981689 -0.93233621
68.702293 70.982559 -0.70172489
68.826813 71.16745 -0.4815796
70.339935 73.414337 -0.31698629
108.19152 129.62109 0
64 64 0
64 64 -0
68.708168 71.009537 -0.70386434
68.82679 71.18615 -0.48244366
70.325661 73.417679 -0.31684127
108.18765 129.78677 0
64 64 0
64 64 -0
68.688263 70.998161 -0.70215249
68.82962 71.209167 -0.48359683
70.314278 73.425316 -0.31684127
108.16026 129.91794 0
126.48284 157.26802 3.1352971
64 64 -0
68.656982 70.969666 -0.69872874
68.818039 71.210701 -0.48330879
70.288452 73.411331 -0.31611574
108.0054 129.85875 0
129.9472 162.69696 3.3151155
64 64 -0
68.637169 70.958206 -0.69701684
68.797844 71.199295 -0.48215562
70.236725 73.358376 -0.31408349
107.87672 129.83824 0
126.03249 157.08145 3.1239769
64 64 -0
68.665703 71.019379 -0.70258003
68.786285 71.20079 -0.48186761
70.179382 73.296654 -0.31176126
107.75105 129.82185 0
125.81065 156.99188 3.1184621
64 64 -0
68.637367 70.995071 -0.6995855
68.783287 71.215179 -0.48244366
70.116463 73.226158 -0.30914903
107.6456 129.83563 0
125.81885 157.24841 3.1245575
68.634087 71.008492 -0.93064702
68.645897 71.02636 -0.70215249
68.763153 71.203697 -0.48129049
70.105309 73.233543 -0.30914903
107.54878 129.86226 0
125.6402 157.22333 3.1212192
68.608833 70.98864 -0.92727077
68.620453 71.006256 -0.6995855
68.754448 71.209442 -0.48129049
70.091293 73.236572 -0.30900404
107.47491 129.92352 0
125.59618 157.40187 3.1247027
68.608765 71.006943 -0.92895997
68.623268 71.028992 -0.70129734
68.754265 71.228149 -0.48215562
70.028725 73.165787 -0.30639181
107.47244 130.09341 0
125.51183 157.51964 3.1261537
68.58078 70.982758 -0.9250192
68.592239 71.000229 -0.69787359
68.734177 71.216591 -0.48100245
69.997688 73.142639 -0.3053757
105.69104 127.55217 0
125.46149 157.68948 3.1293464
68.583466 71.005295 -0.92727077
68.572533 70.988586 -0.69616175
68.719795 71.213654 -0.48042643
70.006554 73.180328 -0.30639181
105.59997 127.58073 0
125.40799 157.855 3.1323943
68.563889 70.993805 -0.9250192
68.578117 71.015602 -0.6983012
68.694107 71.193352 -0.47869614
69.944336 73.10923 -0.30377901
105.46054 127.53506 0
125.2917 157.92477 3.1322494
68.558205 71.003571 -0.92558157
68.547226 70.98671 -0.69487745
68.702347 71.225044 -0.48042643
69.947502 73.138199 -0.30450514
105.24178 127.367 0
125.25471 158.11638 3.1361682
68.552505 71.013336 -0.92614388
68.522018 70.96637 -0.69231045
68.671082 71.196007 -0.47812009
69.851578 73.01461 -0.30015123
106.81165 129.95322 0
64 64 0
68.545502 71.011826 -0.92558157
68.534561 70.994934 -0.69487745
68.703308 71.255249 -0.48186761
69.86026 73.039948 -0.30087677
106.76895 129.9747 0
124.88051 157.91328 3.1257186
68.537033 71.017311 -0.92558157
68.537254 71.017654 -0.69658929
68.652405 71.195763 -0.47754297
69.823944 73.007744 -0.29957065
106.69768 130.03944 0
124.80367 158.04352 3.1276054
68.553329 71.061218 -0.93064702
68.52877 71.023132 -0.69658929
68.640907 71.197037 -0.47725493
69.807419 73.006035 -0.29928011
106.65453 130.14786 0
124.59424 157.96841 3.1226709
68.53656 71.053909 -0.92895997
68.486954 70.976784 -0.6914537
68.646194 71.224388 -0.47869614
69.790909 73.004311 -0.2989901
106.60554 130.2475 0
124.68584 158.36063 3.1332655
68.492355 71.003761 -0.92164081
68.497925 71.012451 -0.6944499
68.643059 71.238716 -0.47927326
69.743553 72.954437 -0.29710343
106.55075 130.33835 0
124.76537 158.7357 3.1432793
68.497589 71.030602 -0.92445689
68.486687 71.013565 -0.6940223
68.603638 71.196381 -0.47610176
69.69352 72.900078 -0.29507121
106.63042 130.63962 0
124.57245 158.68649 3.1392159
68.48362 71.027458 -0.92333001
68.47821 71.018982 -0.6940223
68.617203 71.236832 -0.4784081
69.685555 72.911324 -0.2952162
106.71783 130.95435 0
124.43843 158.72894 3.1381998
68.458763 71.007156 -0.91995382
68.455933 71.002716 -0.69188124
68.591797 71.216225 -0.47667891
69.644104 72.869972 -0.29362008
106.69838 131.10254 0
124.25418 158.69229 3.1345716
68.453011 71.016823 -0.92051613
68.461235 71.029778 -0.6940223
68.574753 71.208656 -0.47581375
69.633377 72.876785 -0.29362008
106.59496 131.11893 0
124.0896 158.68607 3.1319592
68.447243 71.026489 -0.9210785
68.411545 70.970093 -0.6876024
68.582634 71.240402 -0.47754297
69.586517 72.8265 -0.29173341
106.52774 131.19232 0
123.7278 158.3678 3.1190426
68.471298 71.08342 -0.92783308
68.438744 71.031853 -0.69316554
68.582169 71.259056 -0.4784081
69.573082 72.828857 -0.2915884
106.50487 131.33609 0
123.52496 158.29926 3.114398
68.460037 71.084526 -0.92727077
68.419304 71.019829 -0.6914537
68.540321 71.212059 -0.47494859
69.562408 72.835587 -0.2915884
106.55103 131.59001 0
64 64 0
68.435249 71.064079 -0.92389238
68.394447 70.999084 -0.6888867
68.528854 71.213165 -0.47466058
69.526848 72.802673 -0.29028174
106.56343 131.79124 0
64 64 0
68.432114 71.078056 -0.9250192
68.353287 70.952171 -0.68375111
68.514641 71.209854 -0.47408345
69.488632 72.765305 -0.28883061
106.51463 131.89557 0
123.73157 159.3909 3.1432793
68.428932 71.092018 -0.92614388
68.377518 71.009682 -0.6888867
68.508675 71.219704 -0.47437257
69.502808 72.8116 -0.29013672
106.47943 132.02194 0
123.33825 159.01782 3.1286209
68.396187 71.05854 -0.9210785
68.374466 71.023674 -0.68974185
68.497208 71.220741 -0.47408345
69.442711 72.738846 -0.28752449
106.35318 132.00252 0
123.00637 158.74098 3.1171558
68.384979 71.05954 -0.92051613
68.349731 71.002792 -0.68717486
68.491219 71.230576 -0.47437257
69.418442 72.723351 -0.28679895
107.86929 134.62683 0
84.534691 97.05957 1.0869048
68.384476 71.077797 -0.92220533
68.349373 71.021126 -0.68845749
68.47702 71.227196 -0.47379544
69.375053 72.67688 -0.28505728
107.81406 134.72844 0
84.522095 97.128532 1.0883559
68.370575 71.074432 -0.9210785
68.34359 71.030762 -0.6888867
68.476448 71.245804 -0.47466058
69.353638 72.66568 -0.28447673
106.33345 132.52312 0
84.50663 97.193092 1.089662
68.367355 71.088371 -0.92220533
68.335091 71.036003 -0.6888867
68.459541 71.237991 -0.47379544
69.334984 72.658867 -0.28404117
106.23151 132.5432 0
122.56958 159.06046 3.1183164
68.348145 71.076324 -0.91995382
68.315834 71.023735 -0.68717486
68.44268 71.230164 -0.47293139
69.348999 72.705154 -0.28534728
106.15138 132.5986 0
85.909073 99.655579 1.168759
68.336937 71.07724 -0.91939145
68.310028 71.033318 -0.6876024
68.45285 71.266388 -0.47494859
69.29232 72.636284 -0.28288004
106.03311 132.5918 0
85.879547 99.704178 1.1694845
68.320435 71.069466 -0.91770226
68.298851 71.034149 -0.68717486
68.45755 71.293831 -0.4763898
69.292725 72.660408 -0.28346059
105.83078 132.44714 0
85.817429 99.699562 1.168469
68.298668 71.052986 -0.91488838
68.295685 71.048096 -0.68802994
68.43528 71.27713 -0.47494859
69.290367 72.680115 -0.28389615
105.72095 132.45319 0
85.749939 99.685959 1.1671629
68.305969 71.084221 -0.91826463
68.273834 71.031349 -0.68589056
68.429169 71.286903 -0.47523662
69.298775 72.71759 -0.28491229
105.59496 132.43239 0
85.6987 99.698891 1.1667273
68.310577 71.111145 -0.9210785
64 64 -0
68.439133 71.323219 -0.47725493
69.250519 72.661758 -0.28288004
124.66524 164.07922 0
85.687881 99.778412 1.168469
68.368599 71.236412 -0.93627691
64 64 -0
68.42318 71.326828 -0.47696692
69.183784 72.586746 -0.28012282
124.48374 164.189 0
85.792198 100.09794 1.1776123
68.383438 71.280869 -0.94134235
64 64 -0
68.416992 71.336594 -0.47725493
69.151962 72.557381 -0.27896169
124.41901 164.35565 0
85.810211 100.22663 1.1809502
68.322319 71.19902 -0.93008465
64 64 -0
68.397469 71.324188 -0.47610176
69.152321 72.581421 -0.27954227
124.19858 164.26347 0
85.793175 100.29752 1.1824018
68.253586 71.103973 -0.91713995
64 64 -0
68.385963 71.325058 -0.47581375
69.096565 72.511848 -0.27707502
64 64 0
85.741287 100.31045 1.1819662
68.211121 71.052376 -0.9098208
68.223747 71.073524 -0.68674731
68.377106 71.330353 -0.47581375
69.128906 72.589394 -0.27939725
64 64 0
85.633453 100.22961 1.1784829
68.210396 71.070557 -0.91150999
68.215195 71.078621 -0.68674731
68.360306 71.322296 -0.47494859
69.094597 72.555405 -0.27809113
135.8526 184.66273 0
85.499268 100.10391 1.1735485
68.183693 71.045067 -0.90757143
68.201393 71.074875 -0.68589056
68.348816 71.32312 -0.47466058
69.039146 72.485596 -0.27562392
64 64 0
85.373367 99.991356 1.1690495
68.193298 71.080711 -0.91150999
68.187614 71.071114 -0.68503541
68.326782 71.306114 -0.47321939
69.076553 72.572159 -0.27823615
64 64 0
85.292786 99.954544 1.1670173
68.169243 71.059532 -0.90813375
68.181679 71.080589 -0.68546295
68.307434 71.293526 -0.47206622
68.978981 72.430618 -0.27344668
64 64 0
85.273117 100.02053 1.168324
68.142654 71.033905 -0.90419304
68.17572 71.090057 -0.68589056
68.29599 71.294273 -0.47177821
68.968788 72.43663 -0.27344668
136.76883 187.55594 0
85.29287 100.15366 1.1718068
68.16246 71.087112 -0.91038531
68.167152 71.095093 -0.68589056
68.284546 71.294983 -0.4714891
68.961227 72.447105 -0.27359167
64 64 0
85.296539 100.26002 1.174419
68.159027 71.100899 -0.91150999
68.153389 71.09127 -0.68503541
68.267899 71.286774 -0.47062504
