# .PCD v0.7 - Point Cloud Data file format
VERSION 0.7
FIELDS x y z
SIZE 4 4 4
TYPE F F F
COUNT 1 1 1
WIDTH 1801
HEIGHT 1
VIEWPOINT 0 0 0 1 0 0 0
POINTS 1801
DATA ascii
57.959942 85.81955 0
55.5131 94.658707 0.88843983
57.967072 85.691833 -0.62880498
57.950317 85.75206 0
55.469101 94.673462 0.8891654
57.963242 85.604446 -0.62648278
57.940845 85.684601 0
55.432045 94.663132 0.8891654
57.952587 85.542107 -0.62488663
57.928719 85.627136 0
55.387978 94.677765 0.88989097
57.947723 85.459755 -0.62270939
57.920956 85.554665 0
55.343864 94.692345 0.89061654
57.938797 85.392426 -0.62096775
57.910519 85.492233 0
55.30537 94.686859 0.89076155
57.927177 85.335114 -0.61951661
57.90593 85.40976 0
55.266869 94.681343 0.89090711
57.918549 85.267799 -0.61777496
57.895805 85.347328 0
55.22266 94.695747 0.89163262
57.907509 85.113251 -0.6137116
57.875984 85.222504 0
55.13554 94.719376 0.89293873
57.896473 85.055946 -0.61225992
57.86483 85.165108 0
55.098427 94.708649 0.89293873
57.88266 85.008636 -0.61109883
57.862545 85.077721 0
55.056969 94.712845 0.89337432
57.880615 84.921448 -0.60877717
57.853149 85.01535 0
55.012573 94.726944 0.89409989
57.86853 84.869148 -0.60747045
57.845367 84.947983 0
54.966667 94.745972 0.89497042
57.860966 84.801926 -0.60572934
57.831848 84.900589 0
54.92952 94.735031 0.89497042
57.853558 84.734711 -0.60398769
57.830269 84.813278 0
54.88205 94.758934 0.89598656
57.847786 84.662521 -0.60210103
57.821465 84.750923 0
54.843407 94.752869 0.89613158
57.836224 84.61026 -0.60079491
57.809814 84.69857 0
54.803276 94.751755 0.89642209
57.824783 84.557991 -0.5994882
57.796787 84.651199 0
54.758652 94.765503 0.89714766
57.820961 84.480865 -0.59745651
57.794388 84.568954 0
54.722988 94.749321 0.8970021
57.808273 84.433601 -0.59629542
57.787651 84.501663 0
54.672272 94.782867 0.89830875
57.803257 84.361473 -0.59440875
57.782581 84.429413 0
54.635086 94.771576 0.89830875
57.801567 84.322945 -0.59339321
57.782387 84.385826 0
54.611954 94.780807 0.89874381
57.799847 84.240906 -0.59121597
57.776054 84.318573 0
54.57172 94.779388 0.89903432
57.793732 84.17379 -0.58947426
57.763752 84.27124 0
54.526897 94.792801 0.89975989
57.787769 84.106689 -0.58773261
57.754623 84.213974 0
54.485092 94.796234 0.90019548
57.774254 84.064438 -0.58671707
57.745628 84.156708 0
54.440189 94.809532 0.90092099
57.76548 84.007278 -0.5852654
57.738312 84.094467 0
54.401424 94.80291 0.90106601
64 64 -0
57.769245 83.910461 -0.58265316
57.742012 83.997482 0
54.359554 94.806175 0.9015016
57.752979 83.878136 -0.5819276
57.733463 83.940239 0
54.320782 94.799454 0.90164655
57.750858 83.801201 -0.57989591
57.723469 83.887985 0
54.274193 94.817467 0.90251714
57.744209 83.739136 -0.57829922
57.715164 83.83078 0
54.23539 94.810661 0.90266269
57.739277 83.672134 -0.57655758
57.71489 83.748772 0
54.191864 94.818649 0.90324324
57.723419 83.639809 -0.57583201
57.703705 83.701492 0
54.159378 94.791916 0.90280771
57.721924 83.562943 -0.57380033
57.698986 83.634422 0
54.153938 94.681038 0.89990491
57.714233 83.505875 -0.57234865
57.691231 83.57724 0
57.371616 84.569069 0.60354543
57.709866 83.438927 -0.57060701
57.686813 83.510178 0
57.375565 84.472054 0.60093319
57.69923 83.391769 -0.56944585
57.679321 83.453041 0
57.323532 84.54805 0.60340041
57.701588 83.305115 -0.56712419
57.670349 83.400864 0
57.313213 84.495514 0.60209429
57.683121 83.282669 -0.56668866
57.671219 83.319 0
53.899197 94.833344 0.90614545
57.672817 83.235535 -0.5655275
57.660892 83.271782 0
53.848957 94.860611 0.90730661
57.669136 83.168655 -0.56378585
57.647404 83.234467 0
53.811676 94.84832 0.90730661
64 64 -0
57.640545 83.177383 0
53.771133 94.845863 0.90759712
64 64 -0
57.632183 83.125221 0
53.728951 94.848259 0.90803212
57.627705 83.061798 -0.56131864
64 64 0
53.685093 94.855537 0.90861273
57.6394 82.950623 -0.55827081
57.653877 82.907486 0
53.639545 94.867706 0.90933883
57.583313 83.04142 -0.56117362
57.609432 82.963921 0
53.600597 94.860077 0.90948385
57.518677 83.156715 -0.56480199
57.564838 83.020279 0
53.556652 94.867188 0.9100644
57.557377 82.966812 -0.55943197
57.518425 83.081482 0
53.519363 94.854546 0.9100644
57.532787 82.963928 -0.55957693
57.476891 83.127823 0
53.465317 94.891037 0.91151547
57.117668 84.101646 -0.59339321
57.450417 83.129768 0
53.419586 94.902863 0.91224104
57.088322 84.108047 -0.5938282
57.129539 83.988136 0
53.380558 94.894981 0.9123866
64 64 -0
64 64 -0
57.088417 84.029015 0
53.32798 94.926338 0.91369271
64 64 -0
64 64 0
53.302505 94.939529 0.91427326
57.032719 84.072357 -0.59339321
64 64 0
53.263428 94.931488 0.91441828
56.998215 84.093361 -0.59426373
64 64 0
53.215801 94.947929 0.91528887
64 64 -0
64 64 -0
64 64 0
53.176697 94.939796 0.91543442
64 64 -0
64 64 0
53.13932 94.926689 0.91543442
56.920238 84.082558 -0.59469932
56.905277 84.124992 0
53.096779 94.928238 0.91586941
56.892513 84.083778 -0.5949893
56.880966 84.116402 0
53.050751 94.939529 0.91659498
56.863029 84.089874 -0.59542489
56.849693 84.127411 0
53.009888 94.936081 0.9168855
56.835274 84.091019 -0.59571487
56.818386 84.138367 0
52.962048 94.952141 0.91775608
56.802246 84.106804 -0.59644043
56.792305 84.134567 0
52.922897 94.943687 0.91790164
56.781467 84.088318 -0.5961504
56.753902 84.165031 0
52.876732 94.954727 0.9186272
56.757198 84.079582 -0.5961504
56.729542 84.156258 0
52.834053 94.955917 0.9190622
56.736477 84.06105 -0.59586042
56.703423 84.152344 0
52.794884 94.947304 0.91920775
56.696266 84.096214 -0.59716654
56.67374 84.158195 0
52.771698 94.894669 0.91804665
56.657742 84.126434 -0.59832764
56.647606 84.154213 0
51.215218 99.045364 1.0418444
56.631645 84.122421 -0.59847265
56.621464 84.150215 0
51.183605 99.000595 1.0409732
57.492954 81.703964 -0.52677739
56.589939 84.160828 0
51.11264 99.063133 1.0432955
57.47517 81.686325 -0.52648681
56.563786 84.156738 0
51.023518 99.174294 1.0470688
57.468231 81.639465 -0.52532625
56.534012 84.162384 0
51.661331 97.321373 0.99235415
57.467403 81.511627 -0.52198792
56.478039 84.163773 0
51.531807 97.422913 0.9962725
57.453537 81.484253 -0.52140737
56.446381 84.174171 0
51.471382 97.461365 0.99786913
57.432415 81.476334 -0.52140737
56.414684 84.184517 0
51.407196 97.509438 0.99975586
56.389797 84.176674 -0.60224599
56.395805 84.160744 0
51.364883 97.499054 0.99990082
56.378304 84.133438 -0.60122991
56.36224 84.175873 0
51.350174 97.415726 0.99786913
56.339218 84.163078 -0.602391
56.339714 84.161766 0
51.522057 96.841774 0.98117912
64 64 -0
56.306087 84.176811 0
51.595333 96.530472 0.97232574
56.286797 84.154221 -0.60268158
56.277996 84.177216 0
51.561604 96.500916 0.97189075
56.27177 84.120621 -0.60195541
56.251755 84.172722 0
51.527931 96.471298 0.97145516
56.256809 84.087021 -0.60122991
56.216152 84.19249 0
51.470016 96.504684 0.97290629
56.21846 84.150223 -0.60326213
56.205826 84.182938 0
51.435406 96.535896 0.97406739
56.182854 84.169868 -0.60413265
56.170162 84.202614 0
51.42239 96.452866 0.97203571
56.181095 84.102287 -0.602391
56.143871 84.197983 0
51.373768 96.461853 0.97276127
56.137909 84.141251 -0.60384268
56.121365 84.183632 0
51.347782 96.412674 0.97174519
56.109791 84.141403 -0.60413265
56.091286 84.188644 0
51.306728 96.402222 0.97189075
56.083561 84.136681 -0.60427767
56.063091 84.188751 0
51.227665 96.488403 0.97493798
56.057323 84.13195 -0.60442322
56.034878 84.188835 0
51.171246 96.516464 0.97624463
56.013874 84.170654 -0.60587436
56.000912 84.203392 0
51.139618 96.481613 0.97566408
64 64 -0
55.964977 84.222725 0
51.119572 96.417747 0.97421241
55.94783 84.194733 -0.60718048
55.940548 84.213005 0
51.074635 96.416649 0.97464794
55.925365 84.180168 -0.60703546
55.912258 84.212921 0
51.050919 96.362411 0.97348684
55.914543 84.136635 -0.60601938
55.880085 84.222458 0
50.277954 98.174438 1.0284921
55.8708 84.175041 -0.60747045
55.847874 84.231941 0
50.236668 98.157829 1.0284921
57.435986 80.233955 -0.48904279
55.821484 84.226898 0
50.209045 98.107437 1.027476
57.400742 80.264542 -0.49020392
55.804878 84.197708 0
50.173706 98.076302 1.0270404
57.357578 80.314308 -0.49194556
55.770668 84.211891 0
50.130577 98.0644 1.0271859
57.324112 80.339951 -0.4929617
55.748219 84.197121 0
50.081566 98.066856 1.0277665
57.322113 80.288605 -0.49165559
55.719875 84.196754 0
50.071953 97.973083 1.0254443
57.363953 80.130981 -0.97208881
57.381523 80.08828 -0.48585001
55.679634 84.225243 0
35.784248 132.58719 2.071265
57.32275 80.17556 -0.97526026
57.346222 80.118698 -0.4870111
55.655201 84.215179 0
35.719238 132.50983 2.0699589
57.324989 80.114899 -0.97208881
57.302887 80.168259 -0.48875278
55.622814 84.224312 0
50.193501 97.331841 1.007593
57.295597 80.130707 -0.97352999
57.297318 80.126564 -0.48773667
55.60038 84.209373 0
50.133293 97.363113 1.0090442
57.268147 80.141693 -0.97468317
57.297836 80.070496 -0.48628557
55.573967 84.20401 0
48.940842 100.10896 1.09264
57.27261 80.076279 -0.97122365
57.268394 80.086349 -0.4870111
55.54353 84.208221 0
48.949379 99.96611 1.0888667
57.251183 80.072922 -0.97151273
55.492619 84.261101 -0.6137116
55.519119 84.19799 0
48.873741 100.02456 1.0911889
57.263901 79.98848 -0.96690011
55.472183 84.241219 -0.61342102
55.482597 84.216499 0
48.828209 100.01104 1.091334
57.262714 79.937454 -0.9643057
55.441658 84.245262 -0.61385661
55.448036 84.230179 0
48.808987 99.935242 1.0895923
57.257603 79.895958 -0.96228743
55.402996 84.268402 -0.61487269
55.429695 84.205452 0
35.504749 131.18076 2.0380299
57.26878 79.816422 -0.95796382
55.372414 84.272331 -0.61530769
55.3951 84.219025 0
50.152779 96.536957 0.98756468
57.286243 79.722633 -0.95277405
64 64 -0
55.362499 84.227753 0
50.154293 96.424614 0.98466188
57.360958 79.495789 -0.93951315
64 64 -0
55.323715 84.250801 0
50.108982 96.422195 0.98509747
57.327118 79.54882 -0.94297266
55.294815 84.284386 -0.61646885
55.317642 84.231201 0
50.103745 96.380363 0.98408133
57.341061 79.464745 -0.93836105
55.286755 84.235664 -0.61530769
55.272621 84.268494 0
35.470772 130.25638 2.0146637
57.312122 79.480423 -0.93980223
55.245823 84.26329 -0.61646885
55.260517 84.229271 0
35.431953 130.12643 2.0117607
57.311935 79.429619 -0.93720788
55.213078 84.271767 -0.6170494
55.227802 84.237801 0
35.399605 129.98221 2.0084231
57.318054 79.364601 -0.93374836
55.16787 84.308784 -0.61850053
55.192978 84.251053 0
47.624161 101.65494 1.1467748
57.303635 79.347031 -0.93317127
55.145412 84.293335 -0.61835551
55.16227 84.254707 0
47.568283 101.65894 1.1475003
57.318287 79.263107 -0.92855859
55.127151 84.268341 -0.61791992
55.125282 84.272614 0
47.52071 101.64381 1.1476452
57.289444 79.278717 -0.93000084
55.100571 84.262375 -0.61806554
55.094509 84.276176 0
47.439713 101.70476 1.1501125
57.273079 79.265846 -0.92971176
55.069817 84.265862 -0.61850053
55.070015 84.265404 0
35.315823 129.09491 1.986653
57.283916 79.191483 -0.92567623
55.070541 84.198036 -0.61675942
55.037117 84.273636 0
35.266602 128.99365 1.9846213
64 64 -0
54.99786 84.296089 0
48.266026 99.473579 1.0837873
56.162621 81.612587 -0.53838795
54.979687 84.270943 0
48.204163 99.497269 1.0850934
56.107449 81.679031 -0.54071021
54.944592 84.283791 0
35.281174 128.32913 1.9674957
56.154068 81.517715 -0.53606576
54.92009 84.272827 0
35.241699 128.20903 1.9648834
57.279186 78.957176 -0.91385651
56.141426 81.489258 -0.53548521
54.874271 84.309311 0
35.198212 128.09839 1.9625612
57.252617 78.967903 -0.91500968
64 64 -0
54.851875 84.293533 0
35.165634 127.96405 1.9595134
57.240921 78.945618 -0.91414559
64 64 -0
54.818783 84.301437 0
35.141903 127.81079 1.9558851
57.237831 78.904457 -0.91212732
64 64 -0
54.770599 84.342468 0
35.114197 127.66704 1.9525473
57.243401 78.844482 -0.90895581
64 64 -0
54.737404 84.35025 0
35.147079 127.39087 1.9451456
57.212574 78.864548 -0.91068614
56.09203 81.318558 -0.53171182
54.725796 84.310623 0
35.111523 127.26614 1.9423878
57.235554 78.766975 -0.90520829
57.265755 78.701042 -0.45159876
54.681755 84.341995 0
35.078384 127.13669 1.939485
57.23283 78.725899 -0.90319103
57.254501 78.678741 -0.45116377
54.663696 84.316544 0
35.071548 126.95061 1.934841
57.234173 78.629692 -0.89829034
57.212509 78.676537 -0.45159876
54.592781 84.341156 0
34.984947 126.73901 1.9304872
57.225212 78.602737 -0.89713717
57.183838 78.69191 -0.45232487
54.561638 84.343941 0
34.976967 126.55777 1.9259877
57.201027 78.608597 -0.89800125
57.172672 78.669525 -0.45188931
54.523888 84.360825 0
34.958405 126.40016 1.9222144
57.233707 78.492577 -0.89137137
57.194523 78.576508 -0.44927707
54.486084 84.377655 0
34.957771 126.20493 1.91728
57.222786 78.470329 -0.89050621
57.183529 78.554153 -0.44884151
54.441597 84.408577 0
34.986221 125.94861 1.9104588
57.196507 78.480858 -0.89165938
57.181419 78.512978 -0.4478254
54.423584 84.382874 0
34.893711 125.95113 1.9116199
57.211983 78.42527 -0.88848895
57.188133 78.475952 -0.44680986
54.402405 84.39592 0
34.969131 125.69373 1.9042182
57.192352 78.42173 -0.88877702
57.20171 78.401901 -0.44477761
54.373329 84.393715 0
34.947853 125.54582 1.9007349
57.179363 78.404137 -0.88819987
57.162067 78.440659 -0.44622928
54.333099 84.415009 0
34.90686 125.44023 1.8985581
57.184155 78.349167 -0.8853175
57.171383 78.376053 -0.44448763
54.297276 84.426811 0
34.866093 125.33461 1.8963809
57.217991 78.233528 -0.87868756
57.169666 78.334946 -0.44347149
54.272602 84.41507 0
34.870239 125.13518 1.8913015
57.162876 78.304657 -0.88358825
57.15683 78.317314 -0.44318151
54.241203 84.417397 0
34.886032 124.91238 1.8854959
57.217163 78.147125 -0.87436295
57.162006 78.262169 -0.44172984
54.212044 84.41497 0
34.846146 124.80688 1.8833193
57.206802 78.124924 -0.87349778
57.149277 78.244537 -0.44143984
54.187386 84.40313 0
34.831253 124.64985 1.8795459
57.194229 78.107399 -0.87292176
57.150135 78.198799 -0.44027871
54.146904 84.424072 0
34.796379 124.53499 1.8770787
57.217747 78.015358 -0.867733
57.135246 78.185844 -0.44013372
54.09729 84.463699 0
34.768528 124.4061 1.8741759
57.154419 78.10273 -0.43781149
54.070301 84.456398 0
34.727325 124.30529 1.8721442
56.15358 80.11499 -0.99889863
57.144211 78.080429 -0.43737593
54.038754 84.458427 0
34.727283 124.12036 1.8674997
56.165894 80.040436 -0.99486303
57.129482 78.067467 -0.43723091
53.986641 84.50248 0
34.729919 123.93085 1.8627102
56.16927 79.984512 -0.99198067
57.110207 78.06382 -0.43737593
53.980194 84.452972 0
34.684963 123.83943 1.8609686
56.149963 79.975037 -0.99198067
57.106964 78.027512 -0.43650538
53.953182 84.445534 0
34.647057 123.73402 1.8587919
56.158108 79.909859 -0.98852116
57.096916 78.00518 -0.43606982
53.926186 84.438049 0
34.600174 123.64723 1.8571953
56.164112 79.849358 -0.98534971
57.121452 77.912979 -0.43345758
53.878437 84.472511 0
36.027443 120.57904 1.7627143
56.190929 79.747192 -0.97958386
57.104645 77.904663 -0.43345758
53.837517 84.492912 0
35.986801 120.48933 1.7609726
56.167297 79.747017 -0.98016095
57.097107 77.877708 -0.432877
53.805805 84.494598 0
35.941711 120.40892 1.7595215
56.171375 79.691238 -0.97727752
55.936592 80.161819 -0.50442731
53.769432 84.505554 0
35.899086 120.32384 1.7579254
56.138527 79.709534 -0.97900778
55.921726 80.142761 -0.50413674
53.744663 84.493179 0
35.828728 120.29448 1.7580703
56.135796 79.667656 -0.97698951
55.89756 80.142288 -0.50442731
53.715244 84.490067 0
35.760727 120.26041 1.7580703
56.098259 79.695107 -0.97929585
55.892086 80.10463 -0.50355619
53.678783 84.500877 0
35.711464 120.1891 1.7569093
56.100285 79.643997 -0.9767015
55.884346 80.071625 -0.50283062
53.651676 84.493034 0
35.617828 120.2059 1.7585055
56.072041 79.652893 -0.97785461
55.876671 80.038635 -0.50210506
53.622223 84.489792 0
35.542889 120.18548 1.7589409
56.055473 79.638702 -0.9775666
64 64 -0
53.588043 84.495804 0
35.477371 120.14642 1.758796
64 64 -0
64 64 -0
53.575096 84.460022 0
35.421345 120.08877 1.7580703
57.199375 77.307205 -0.83285105
64 64 -0
57.091293 77.518692 0
35.379608 120.00329 1.7564738
57.270603 77.128654 -0.8221845
64 64 -0
57.089207 77.482552 0
35.36174 119.87155 1.753426
57.239044 77.170616 -0.82506794
57.116196 77.409927 -0.42097643
57.102451 77.436707 0
50.006214 91.260468 0.85578471
57.163948 77.27739 -0.8322739
57.085728 77.429314 -0.42184699
57.095753 77.409851 0
50.023239 91.146507 0.85273695
57.152653 77.259941 -0.83169788
57.064743 77.430176 -0.42213696
57.091492 77.37838 0
49.978519 91.152702 0.85346305
57.15567 77.214905 -0.82939154
57.07959 77.361801 -0.4202503
57.080124 77.360764 0
49.95528 91.117279 0.8528825
57.151627 77.183678 -0.82795036
57.056259 77.367271 -0.42068586
57.102375 77.278488 0
49.939297 91.068008 0.85186636
57.121365 77.202911 -0.82967955
57.095333 77.252876 -0.41734806
57.12722 77.191681 0
49.918606 91.027954 0.8511408
57.098228 77.208351 -0.83054471
57.038414 77.322823 -0.4198153
57.072716 77.257172 0
49.871521 91.038544 0.85201138
57.135094 77.099213 -0.82420284
57.039207 77.282173 -0.41879919
57.076031 77.211914 0
49.896759 90.91098 0.84852803
57.11927 77.090904 -0.82420284
57.052177 77.218552 -0.41705751
56.984997 77.346367 0
49.86908 90.884735 0.84823805
57.096222 77.096313 -0.82506794
57.053177 77.177963 -0.4160414
57.012569 77.254997 0
49.84388 90.853836 0.84780246
57.075569 77.097099 -0.82564402
57.049404 77.146591 -0.41531584
53.169971 84.484283 0
49.789585 90.878059 0.84910858
57.074287 77.06131 -0.82391483
55.650761 79.745956 -0.49775115
53.101334 84.553963 0
49.769287 90.837921 0.84838301
57.107086 76.961586 -0.81814897
55.648823 79.703735 -0.49673504
53.027637 84.632675 0
49.751507 90.793182 0.84751248
57.081692 76.971504 -0.81930214
55.615185 79.721138 -0.49760559
64 64 0
49.719143 90.775948 0.84751248
55.81686 79.298462 -0.96690011
55.610897 79.68351 -0.49673504
64 64 0
49.718662 90.699104 0.84562582
55.815502 79.256645 -0.96488178
55.599327 79.659615 -0.49629948
52.989819 84.523972 0
49.66185 90.727615 0.84707689
55.782364 79.274086 -0.96661204
55.577942 79.654045 -0.49644503
52.930508 84.574821 0
49.636955 90.696533 0.84664136
55.74918 79.291451 -0.96834129
55.578773 79.607269 -0.49528393
52.915543 84.543106 0
49.629379 90.63343 0.84519023
57.067455 76.811195 -0.8118071
55.582191 79.555931 -0.49397725
52.865952 84.575485 0
49.62936 90.556633 0.84330356
55.746788 79.207825 -0.9643057
55.5634 79.545753 -0.49397725
52.831165 84.580315 0
49.572498 90.584915 0.8447547
55.725948 79.202377 -0.96459377
55.534683 79.553802 -0.4945578
64 64 0
49.537895 90.572044 0.84490025
55.680321 79.242325 -0.96776521
55.495979 79.580055 -0.49571893
52.746559 84.617218 0
34.17157 118.6481 1.7387675
64 64 -0
55.507103 79.515068 -0.49397725
52.724152 84.599045 0
34.103058 118.61659 1.7389131
64 64 -0
55.473351 79.532135 -0.49484837
52.696766 84.589966 0
34.072102 118.51663 1.7368809
55.635101 79.193939 -0.96661204
55.462112 79.508163 -0.49441281
52.656837 84.603638 0
34.071411 118.36208 1.7331076
55.621758 79.174751 -0.96603495
55.430824 79.520576 -0.49513838
52.624401 84.603592 0
34.030861 118.28039 1.7316564
55.608433 79.155579 -0.96545887
55.437244 79.464752 -0.49368724
52.589432 84.608047 0
34.000542 118.18048 1.7296242
55.600174 79.127335 -0.9643057
55.390812 79.504379 -0.49528393
52.551907 84.616989 0
33.980507 118.06242 1.7270119
55.542534 79.166306 -0.96776521
55.408287 79.407043 -0.49267113
52.489212 84.641663 0
33.933189 117.91714 1.7241092
55.514114 79.174133 -0.96891838
55.382065 79.410263 -0.49310669
52.45919 84.636826 0
33.888348 117.8445 1.7229486
55.493259 79.168373 -0.96920639
55.348206 79.427025 -0.49397725
52.429176 84.631943 0
33.83094 117.79448 1.7225131
55.480015 79.149063 -0.9686293
55.319382 79.434677 -0.4945578
52.396599 84.631561 0
33.819458 117.66286 1.7194653
55.45155 79.156776 -0.96978247
55.298176 79.428719 -0.49470335
52.371681 84.617523 0
33.792934 117.55846 1.717288
55.425598 79.15995 -0.97064763
55.289772 79.400093 -0.4941228
52.321144 84.648773 0
64 64 0
55.399628 79.163078 -0.97151273
55.25066 79.42572 -0.49528393
52.298779 84.630104 0
64 64 0
55.388988 79.139183 -0.97064763
55.255161 79.374474 -0.49397725
52.250702 84.656662 0
64 64 0
55.370705 79.128769 -0.97064763
55.231434 79.372932 -0.49426782
52.212849 84.66507 0
64 64 0
55.357559 79.10936 -0.97007155
55.233509 79.326233 -0.49310669
52.180145 84.66436 0
64 64 0
55.272396 79.215561 -0.9775666
55.199486 79.342674 -0.49397725
52.147411 84.663612 0
64 64 0
55.179222 79.335037 -0.98592681
55.144672 79.395103 -0.49600947
52.122452 84.649277 0
64 64 0
55.13744 79.364693 -0.98852116
55.10791 79.415894 -0.49702504
52.110512 84.612366 0
64 64 0
55.116291 79.358452 -0.98880917
55.102295 79.382645 -0.49629948
52.093433 84.584465 0
64 64 0
55.095146 79.352173 -0.98909724
55.057636 79.416847 -0.49775115
52.063343 84.579079 0
64 64 0
55.094814 79.310097 -0.98707891
55.046856 79.392548 -0.49731559
53.367867 82.279121 0
64 64 0
55.076321 79.299324 -0.98707891
55.025646 79.386208 -0.4974606
53.31694 82.31572 0
64 64 0
55.065666 79.275146 -0.98621482
55.012306 79.366386 -0.4971706
53.349998 82.20845 0
33.577206 116.01427 1.6828918
55.034134 79.286652 -0.987656
54.999008 79.346542 -0.49688005
64 64 0
64 64 0
56.93523 76.012032 -0.77663708
54.983101 79.331177 -0.49673504
64 64 0
33.480568 115.89133 1.6812956
56.981163 75.901001 -0.77000606
54.961945 79.324745 -0.49688005
64 64 0
64 64 0
56.93256 75.950394 -0.77375358
54.940796 79.318283 -0.49702504
64 64 0
64 64 0
56.923397 75.932953 -0.77317756
54.866627 79.401192 -0.50007284
64 64 0
64 64 0
56.911625 75.919952 -0.77288955
54.853333 79.381218 -0.49978283
64 64 0
64 64 0
54.960632 79.15905 -0.98362046
54.821445 79.392471 -0.50050837
64 64 0
64 64 0
54.97683 79.090408 -0.97987294
54.802856 79.381363 -0.50050837
64 64 0
64 64 0
54.939991 79.110535 -0.9818902
54.784275 79.370239 -0.50050837
64 64 0
48.916077 89.157387 0.81921178
64 64 -0
54.879089 79.170509 -0.98650289
54.765709 79.359093 -0.50050837
64 64 0
48.805363 89.272751 0.82356572
54.901947 79.111816 -0.98304337
54.74839 79.366875 -0.50094396
64 64 0
48.830307 89.196777 0.82138848
56.883366 75.788437 -0.76741171
54.729828 79.355682 -0.50094396
64 64 0
48.7757 89.218468 0.8226946
56.925381 75.686897 -0.76135784
54.716667 79.335571 -0.50065339
64 64 0
48.756004 89.182266 0.82211405
56.927364 75.651817 -0.75962865
54.690052 79.337677 -0.50108892
64 64 0
48.728283 89.159393 0.82196903
56.886398 75.687439 -0.76251101
54.660721 79.34417 -0.50166953
64 64 0
48.711403 89.118729 0.82124346
54.705723 79.228767 -0.99428594
54.628651 79.355049 -0.50239503
64 64 0
48.68647 89.091377 0.82095349
54.657623 79.266068 -0.99745744
54.582973 79.388054 -0.50384676
64 64 0
48.637184 89.103867 0.82196903
54.561668 79.381088 -0.50399172
64 64 0
48.606861 89.085289 0.82196903
54.545815 79.36525 -0.50384676
64 64 0
48.584732 89.053391 0.8215335
54.529991 79.34938 -0.50370115
64 64 0
48.603584 88.955139 0.81892127
64 64 -0
54.489578 79.373283 -0.50486231
64 64 0
48.600777 88.892334 0.81747013
64 64 -0
54.468273 79.366196 -0.50500727
64 64 0
48.581669 88.856041 0.81688958
64 64 -0
54.452454 79.350258 -0.50486231
64 64 0
48.521454 88.885941 0.81848627
54.442154 79.325493 -0.50442731
64 64 0
47.955154 89.727051 0.84678692
54.415386 79.327141 -0.50486231
64 64 0
48.067364 89.478516 0.83923966
56.812393 75.46315 -0.37787181
64 64 0
48.359573 88.944138 0.8222596
56.804077 75.445663 -0.3775818
64 64 0
48.293488 88.982414 0.82414627
54.315548 79.362633 -0.50718451
64 64 0
48.205116 89.055733 0.82719404
54.291443 79.359695 -0.50747454
64 64 0
48.272038 88.882874 0.82211405
54.250637 79.383072 -0.50863564
64 64 0
48.35881 88.679512 0.816019
54.229263 79.375679 -0.50878119
64 64 0
48.368031 88.599182 0.81398678
54.21349 79.359467 -0.50863564
64 64 0
48.338318 88.580276 0.81398678
54.186543 79.360771 -0.50907117
64 64 0
48.303028 88.570099 0.81427735
54.153976 79.370781 -0.50979674
64 64 0
48.278961 88.542358 0.81398678
56.801735 75.207489 -0.74233222
54.146645 79.341385 -0.50921619
64 64 0
48.235279 88.545197 0.81471235
56.7994 75.181381 -0.74117905
54.119671 79.342575 -0.50965178
64 64 0
48.160614 88.596039 0.8170346
56.851517 75.085739 -0.73512518
54.118855 79.323502 -0.50921619
64 64 0
48.100693 88.656349 0.8193568
56.840931 75.072754 -0.73483717
56.780769 75.165802 -0.37134123
64 64 0
48.04834 88.672035 0.8205179
54.036621 79.369347 -0.51153845
64 64 0
48.04398 88.613495 0.81921178
54.006729 79.374725 -0.512119
64 64 0
48.022751 88.581123 0.81877625
53.973976 79.384407 -0.51284456
64 64 0
48.041294 88.487793 0.81630903
53.961075 79.363586 -0.51255453
64 64 0
48.017399 88.459793 0.816019
53.931126 79.368835 -0.51313508
64 64 0
48.030579 88.375259 0.81384176
53.895447 79.382713 -0.51400566
64 64 0
48.01255 88.33857 0.81326121
53.86829 79.383514 -0.51444119
64 64 0
47.888824 88.462456 0.81805068
53.825413 79.367645 -0.51473123
64 64 0
47.910088 88.302116 0.81398678
53.798225 79.368332 -0.51516676
64 64 0
47.872108 88.295654 0.81442237
56.823372 74.782845 -0.72186428
53.825733 79.286774 -0.51284456
64 64 0
47.837013 88.28479 0.81471235
64 64 -0
56.773022 74.830093 -0.72561181
53.784195 79.309052 -0.51400566
64 64 0
47.819218 88.247955 0.8141318
64 64 -0
53.699234 79.396042 -0.517344
64 64 0
47.81015 88.198158 0.81311625
53.666164 79.405159 -0.51806957
64 64 0
47.838825 88.092262 0.81021345
53.644661 79.396973 -0.51821458
64 64 0
47.835827 88.033913 0.80890733
53.614441 79.40168 -0.51879513
64 64 0
47.800995 88.022972 0.80919731
53.581287 79.410645 -0.5195207
64 64 0
47.713764 88.089485 0.81210011
53.562675 79.398048 -0.5195207
64 64 0
47.433918 88.43972 0.82458127
53.541161 79.389717 -0.51966566
64 64 0
47.281719 88.600204 0.83067685
53.525497 79.37278 -0.5195207
64 64 0
47.249073 88.58429 0.83082241
53.512787 79.351532 -0.51923066
64 64 0
47.310257 88.431 0.82632297
53.479561 79.360291 -0.51995623
64 64 0
47.439312 88.179306 0.81848627
53.50219 79.287598 -0.51792455
53.146217 79.805984 0
47.495419 88.035049 0.81427735
56.731148 74.558014 -0.71436924
56.710529 74.587967 -0.35900506
53.135983 79.779999 0
47.522385 87.933754 0.81151956
56.74826 74.519547 -0.7120629
56.707092 74.579269 -0.35885951
53.091003 79.824852 0
47.537418 87.881012 0.81006843
56.756145 74.480988 -0.71004456
56.714989 74.540535 -0.35784397
53.083725 79.794533 0
47.473118 87.912407 0.81181014
56.758217 74.450966 -0.70860338
56.72298 74.501816 -0.35682783
53.070583 79.772766 0
47.269608 88.144432 0.82037294
56.748543 74.437965 -0.70831537
56.683613 74.531425 -0.35813394
53.051533 79.759552 0
47.083313 88.350388 0.82806462
56.747761 74.412216 -0.7071622
56.673862 74.518318 -0.35798895
53.032501 79.746307 0
32.913338 108.63188 1.5190378
56.711491 74.437378 -0.70946854
56.684959 74.475372 -0.35682783
52.992619 79.762924 0
32.910011 108.52185 1.5165706
56.701859 74.424316 -0.7091794
56.678265 74.458015 -0.35653785
52.973579 79.749611 0
32.87114 108.46297 1.5158451
56.680351 74.428192 -0.71004456
53.166603 79.434174 -0.52663237
52.951569 79.740532 0
32.835342 108.39981 1.5149745
56.670731 74.415115 -0.70975655
53.141987 79.429565 -0.5269224
52.93256 79.727173 0
32.808647 108.32387 1.5136678
56.687965 74.363991 -0.70687419
53.126347 79.412193 -0.52677739
52.895554 79.739311 0
46.820343 88.35025 0.83227354
56.657532 74.380478 -0.70860338
53.092728 79.42025 -0.52750295
52.891571 79.704643 0
46.820938 88.287048 0.83082241
56.656963 74.354721 -0.70745021
53.071102 79.411293 -0.52764791
52.893681 79.661484 0
46.818657 88.228127 0.82951629
56.662437 74.320557 -0.70572102
53.040443 79.415024 -0.52822852
52.805405 79.745605 0
46.738205 88.27935 0.83198351
56.655983 74.303246 -0.70514387
53.009758 79.418694 -0.52880907
52.78336 79.73632 0
32.812897 107.75377 1.5006061
56.676613 74.248077 -0.7019735
52.988117 79.40963 -0.52895403
52.782516 79.697342 0
32.760048 107.71605 1.5006061
56.664238 74.239227 -0.7019735
52.981602 79.379425 -0.52837408
64 64 0
32.743568 107.62758 1.4988644
56.67601 74.196739 -0.69966716
52.972122 79.353439 -0.52793849
52.6353 79.822372 0
32.730286 107.53491 1.4969777
56.69997 74.137512 -0.69620764
56.609764 74.262779 -0.35319948
52.719601 79.665031 0
32.717182 107.44228 1.4950911
56.6847 74.132874 -0.69649565
56.630833 74.207489 -0.35160282
64 64 0
32.710335 107.34125 1.4929144
56.675491 74.119843 -0.69620764
52.797714 79.477539 -0.53359854
64 64 0
32.69455 107.25289 1.4911727
56.681503 74.085854 -0.69447732
52.772911 79.472412 -0.53388906
64 64 0
32.685036 107.15616 1.489141
52.760345 79.450417 -0.53359854
64 64 0
32.669601 107.06786 1.4873993
52.753933 79.420029 -0.53301793
64 64 0
32.66658 106.96278 1.4850771
52.713837 79.435799 -0.53403407
64 64 0
32.645355 106.88295 1.483626
52.689053 79.430527 -0.53432405
64 64 0
32.642723 106.77797 1.4813038
52.670506 79.436264 -0.53475964
64 64 0
32.699913 106.6459 1.4773849
52.664185 79.405823 -0.53417909
64 64 0
32.731556 106.49504 1.4734665
52.623978 79.421387 -0.53519517
64 64 0
32.745018 106.36941 1.4704187
52.599178 79.415985 -0.53548521
64 64 0
32.721649 106.29401 1.4691126
56.633755 73.935364 -0.68928862
52.583649 79.398026 -0.53534019
64 64 0
32.682949 106.23949 1.4685321
56.661869 73.87249 -0.68554109
56.613708 73.937286 -0.34579781
64 64 0
32.635033 106.19745 1.4683871
56.589283 73.945023 -0.34637836
64 64 0
32.584068 106.15952 1.4683871
52.403511 79.523064 -0.54114521
51.693069 80.47406 0
32.551819 106.09654 1.4675159
52.387875 79.504883 -0.54100019
51.604538 80.550819 0
32.547695 105.99612 1.4653393
52.375381 79.482536 -0.54071021
51.540802 80.594101 0
32.512573 105.93732 1.4646137
52.366062 79.456017 -0.54027468
51.511364 80.591507 0
32.493183 105.85771 1.4631621
52.338001 79.454399 -0.54071021
51.57597 80.464241 0
32.448883 105.81133 1.462872
52.306793 79.456871 -0.54129076
51.515263 80.503174 0
32.414059 105.75245 1.4621465
52.263016 79.475845 -0.54245132
51.545654 80.421722 0
32.413879 105.64799 1.4598243
52.256897 79.445122 -0.54187131
51.551025 80.373512 0
32.379303 105.58913 1.4590987
52.219345 79.455711 -0.54274189
51.512314 80.383308 0
32.297573 105.59221 1.4605498
52.200676 79.441467 -0.54274189
51.539932 80.306168 0
32.313602 105.46716 1.457502
52.204155 79.398315 -0.54172575
51.529739 80.278694 0
32.32357 105.35045 1.4547442
56.643177 73.579605 -0.67314535
56.58197 73.659309 -0.34013778
51.491051 80.288391 0
32.409729 105.13493 1.4485036
56.647385 73.550217 -0.67170417
56.573471 73.646225 -0.33999276
51.512653 80.219658 0
32.312492 105.1585 1.4506809
52.024574 79.515907 -0.54738635
51.410385 80.311676 0
32.332634 105.02968 1.4474881
64 64 -0
51.986763 79.526077 -0.54825693
51.454388 80.214127 0
32.28627 104.98726 1.4473425
51.968208 79.491959 -0.54782134
51.571877 80.002266 0
32.33316 104.77376 1.4418275
51.930336 79.502022 -0.54869246
51.539761 80.003662 0
32.312645 104.69856 1.4405214
51.905224 79.495613 -0.54898244
51.530045 79.976288 0
32.311447 104.5988 1.4383447
51.873695 79.49736 -0.54956305
51.526783 79.940712 0
32.207977 104.63007 1.440812
51.84856 79.490883 -0.54985356
64 64 0
32.287205 104.42805 1.4350064
51.826641 79.48027 -0.54999858
64 64 0
32.276928 104.34068 1.4332647
56.615818 73.366791 -0.9942342
51.801517 79.473701 -0.55028856
64 64 0
32.321495 104.18399 1.4290564
56.639526 73.313553 -0.98952615
51.795719 79.442642 -0.54970801
64 64 0
32.321301 104.08452 1.4268792
56.61871 73.316727 -0.99081045
51.760933 79.44825 -0.55043358
64 64 0
32.321289 103.98512 1.4247024
56.600494 73.316566 -0.66305596
56.564373 73.362045 -0.3338972
64 64 0
32.302094 103.91019 1.4233958
56.61824 73.271202 -0.6604616
56.562778 73.340851 -0.33346164
64 64 0
32.279793 103.83932 1.4222347
51.588306 79.550003 -0.55565858
64 64 0
32.273819 103.74817 1.420348
51.553295 79.555275 -0.55638415
64 64 0
32.268021 103.65706 1.4184613
51.514992 79.56456 -0.55725527
64 64 0
32.242882 103.59032 1.4174458
51.499458 79.545403 -0.55710971
64 64 0
32.230892 103.50737 1.4158491
51.487202 79.522202 -0.55681974
64 64 0
32.232094 103.40828 1.4136724
51.468456 79.507065 -0.55681974
64 64 0
32.197563 103.3537 1.4130919
51.423557 79.524223 -0.55798084
64 64 0
32.195839 103.2587 1.4110596
51.385159 79.533211 -0.55885136
48.739689 82.790695 0
32.187744 103.17183 1.409318
51.359829 79.526024 -0.55914193
48.759724 82.719757 0
32.163391 103.10516 1.4083024
56.568798 73.105316 -0.97968411
51.334511 79.518784 -0.55943197
48.687748 82.761818 0
32.158878 103.01433 1.4064157
56.561062 73.092346 -0.9792549
51.305893 79.515541 -0.5598675
48.731007 82.662735 0
32.151253 102.92756 1.4046741
56.563103 73.067467 -0.97754306
51.300339 79.484116 -0.55928695
48.675453 82.684525 0
32.1306 102.8569 1.403513
56.57209 73.034225 -0.65181226
51.284935 79.464752 -0.55914193
48.626442 82.698151 0
32.136482 102.75414 1.4011908
56.550186 73.049721 -0.65325457
56.517101 73.089905 -0.32881716
48.651543 82.644653 0
32.142799 102.69878 1.3998846
56.559017 73.016762 -0.65152425
56.512733 73.072853 -0.32852718
48.629025 82.626099 0
32.148987 102.59612 1.3975624
56.515026 73.047783 -0.3279466
48.579987 82.639595 0
32.142128 102.50955 1.3958207
56.494144 73.050735 -0.32838216
48.491024 82.70108 0
32.135414 102.42305 1.3940796
51.054871 79.571205 -0.5655275
48.481747 82.666313 0
32.105633 102.36452 1.3933535
51.042709 79.547577 -0.56523752
48.475876 82.627548 0
32.122505 102.25011 1.3905963
51.007278 79.551849 -0.56596309
48.436684 82.628761 0
32.102966 102.17966 1.3894351
50.961803 79.568008 -0.56712419
48.347359 82.689735 0
32.093563 102.09726 1.3878385
50.889549 79.615913 -0.56944585
48.408455 82.571152 0
32.087639 102.01094 1.3860973
50.84726 79.627892 -0.57046199
48.35585 82.58815 0
32.091934 101.9127 1.3839201
50.851849 79.584183 -0.56944585
48.336769 82.565247 0
32.049496 101.87015 1.3837751
56.49427 72.87458 -0.32460827
48.297546 82.56617 0
32.017181 101.81564 1.3831946
56.55563 72.780487 -0.95956922
56.493622 72.853622 -0.32417327
48.281849 82.539253 0
32.005127 101.73733 1.3817428
56.574947 72.736282 -0.95571792
56.503132 72.820786 -0.32330215
48.249344 82.53215 0
31.986465 101.66698 1.3805823
56.574375 72.715591 -0.95443529
56.555851 72.737335 -0.63970453
56.489098 72.815681 -0.3234477
48.294476 82.433861 0
31.984787 101.57684 1.3786956
56.555367 72.716545 -0.6388405
56.495338 72.786835 -0.3227216
48.194473 82.50589 0
31.976536 101.49466 1.3770989
56.467815 72.797508 -0.3234477
48.205971 82.44725 0
31.965046 101.41647 1.3756478
50.581741 79.634102 -0.57539648
48.122681 82.499237 0
31.960476 101.33041 1.3739061
50.562859 79.617874 -0.57539648
48.137669 82.436653 0
31.942505 101.26015 1.372745
50.530422 79.617371 -0.57597703
48.061012 82.480537 0
31.928051 101.18597 1.371439
50.497963 79.616806 -0.57655758
64 64 0
31.917141 101.10788 1.3699872
50.455276 79.627975 -0.57757366
64 64 0
31.909756 101.02589 1.3683912
50.439819 79.607666 -0.5774281
64 64 0
31.885498 100.96355 1.36752
50.41333 79.619087 -0.57815427
64 64 0
31.897274 100.90494 1.366069
50.367142 79.633995 -0.57931536
64 64 0
31.890278 100.82303 1.3644723
50.327747 79.640976 -0.58018589
49.887611 80.144485 0
31.883423 100.74118 1.3628761
50.291737 79.643982 -0.58091146
49.837246 80.162651 0
31.897274 100.6359 1.3604089
50.269417 79.63131 -0.58105648
49.786816 80.180717 0
31.863319 100.58537 1.3599733
56.541775 72.470009 -0.94074035
50.253971 79.610809 -0.58091146
49.856701 80.061974 0
31.894688 100.46071 1.3567805
56.54174 72.44944 -0.93945599
56.520306 72.473724 -0.62990314
50.231682 79.598083 -0.58105648
49.833862 80.048775 0
31.87817 100.39072 1.3556194
56.506634 72.468567 -0.63019228
50.274826 79.511383 -0.57844424
49.817928 80.027748 0
31.868652 100.31297 1.3541683
56.482674 72.474983 -0.63134545
56.425198 72.539787 -0.31880325
49.753674 80.061218 0
31.842052 100.25467 1.3534422
56.510254 72.42337 -0.62817395
56.442509 72.499557 -0.31764212
49.744656 80.032318 0
31.843159 100.1653 1.3515555
56.442623 72.478775 -0.31720656
49.69759 80.046165 0
31.809845 100.11479 1.3511205
56.435841 72.465767 -0.31706157
49.747559 79.951263 0
31.821632 100.01386 1.3487983
56.460285 72.417915 -0.31561047
64 64 0
31.81282 99.936234 1.3473467
56.460537 72.397194 -0.31517491
64 64 0
31.807606 99.854797 1.3457505
56.450397 72.388077 -0.31517491
64 64 0
31.799076 99.777237 1.3442988
56.422863 72.398239 -0.31590044
64 64 0
31.769783 99.722885 1.3437188
56.42004 72.360657 -0.31517491
64 64 0
31.725437 99.598686 1.3419771
56.444889 72.313042 -0.31372377
64 64 0
31.710407 99.5289 1.340816
56.410362 72.330788 -0.31473935
64 64 0
31.709499 99.443756 1.3390744
56.414318 72.306259 -0.3141588
64 64 0
31.684216 99.385529 1.3383487
56.497292 72.195496 -0.92619026
56.425335 72.274094 -0.31328821
64 64 0
31.659027 99.327293 1.3376232
56.480461 72.193985 -0.92704535
56.504772 72.167488 -0.61779654
56.425888 72.253448 -0.31285268
64 64 0
31.598797 99.307327 1.3383487
56.496346 72.166763 -0.92447841
56.468342 72.197243 -0.62039089
56.424416 72.245049 -0.31270766
64 64 0
31.528252 99.341316 1.3403804
56.476048 72.169022 -0.92576271
56.465458 72.180519 -0.61981374
56.403893 72.24736 -0.31314322
64 64 0
31.443325 99.347931 1.3421222
56.476631 72.148605 -0.92447841
56.480133 72.144814 -0.61779654
56.393936 72.238174 -0.31314322
64 64 0
31.358334 99.354385 1.3438638
56.459812 72.147049 -0.92533517
56.369865 72.244232 -0.31372377
64 64 0
31.266228 99.368301 1.3458955
56.446484 72.141693 -0.92576271
49.386574 79.751343 -0.60006875
64 64 0
31.181099 99.374451 1.3476372
56.461128 72.106239 -0.92276651
49.364002 79.737495 -0.6002143
64 64 0
31.088837 99.388031 1.3496689
56.447842 72.100876 -0.92319405
49.337917 79.727394 -0.60050434
64 64 0
30.978767 99.420471 1.3524266
56.469604 72.057991 -0.91934276
64 64 -0
49.301186 79.728645 -0.60122991
64 64 0
30.911163 99.407112 1.3534422
56.463383 72.045143 -0.91891521
64 64 -0
49.253769 79.741219 -0.602391
64 64 0
30.829323 99.408829 1.3550389
56.453667 72.036026 -0.91891521
49.213406 79.746124 -0.60326213
64 64 0
30.747425 99.4104 1.3566356
56.461555 72.008217 -0.91677582
49.180141 79.743378 -0.60384268
64 64 0
30.665489 99.411804 1.3582317
56.455402 71.995369 -0.91634822
49.154003 79.733017 -0.60413265
64 64 0
30.558533 99.439529 1.3608439
56.456337 71.97506 -0.91506392
49.12072 79.730164 -0.60471326
64 64 0
30.469299 99.448189 1.3627311
56.457306 71.954758 -0.91377962
49.094578 79.719711 -0.60500324
64 64 0
30.42292 99.411415 1.3628761
56.451233 71.941917 -0.91335207
49.06485 79.712997 -0.60543877
64 64 0
30.190414 99.570442 1.3705678
56.484142 71.888184 -0.90821648
49.045876 79.694939 -0.60543877
64 64 0
29.832001 99.860641 1.3833395
56.467518 71.886528 -0.90907323
49.023338 79.680611 -0.60558379
64 64 0
29.5877 100.02978 1.3914667
56.457993 71.877426 -0.90907323
56.380272 71.958603 -0.61404788
56.39682 71.941322 -0.30704764
64 64 0
29.508244 100.02571 1.3929185
56.476921 71.838669 -0.90564948
56.420799 71.897148 -0.61001235
56.36924 71.950874 -0.3077732
64 64 0
29.554699 99.890274 1.3892901
56.42831 71.870262 -0.91035587
56.41843 71.880531 -0.60943633
56.352425 71.949142 -0.30806378
48.415348 80.199203 0
29.51857 99.841141 1.3889996
56.47583 71.801979 -0.90350842
56.408913 71.871368 -0.60943633
56.36808 71.913704 -0.30704764
48.392174 80.184105 0
29.69173 99.575012 1.3802917
56.544907 71.711685 -0.89409393
56.406609 71.854744 -0.60885918
56.372974 71.889534 -0.30646709
48.350918 80.187691 0
29.540413 99.645615 1.3846457
56.553455 71.684235 -0.89195454
56.382721 71.86042 -0.61001235
56.395992 71.846725 -0.30516097
48.353111 80.146339 0
29.457581 99.645012 1.3862423
56.52272 71.697319 -0.89452147
56.391247 71.832664 -0.60857117
56.397385 71.826347 -0.30472541
48.32999 80.131149 0
29.284191 99.737427 1.3914667
56.543118 71.667053 -0.89152694
56.462254 71.750191 -0.60251731
56.421642 71.791946 -0.30356431
48.309357 80.132874 0
29.211872 99.768616 1.393499
56.519524 71.672737 -0.89323884
56.46373 71.729965 -0.60165215
56.448505 71.745583 -0.30211318
56.272251 71.926361 0
29.03809 99.860497 1.3987235
56.567673 71.60495 -0.88639134
56.468861 71.706055 -0.60049897
56.45005 71.725296 -0.30167761
56.491863 71.682518 0
28.845863 99.970612 1.4046741
56.497414 71.658302 -0.89366639
56.513844 71.641533 -0.59617543
56.42981 71.72731 -0.30211318
56.369678 71.788689 0
28.667866 100.06546 1.4100441
56.488167 71.649231 -0.89366639
56.508236 71.628792 -0.59588742
56.435043 71.703323 -0.30153263
56.444145 71.694061 0
28.558777 100.08947 1.4126563
56.471733 71.647461 -0.89452147
56.473633 71.645531 -0.59790462
56.43668 71.683067 -0.30109707
56.405655 71.714584 0
28.40583 100.15771 1.4170102
56.480522 71.620087 -0.89238209
56.438961 71.662209 -0.59992296
56.449299 71.651733 -0.30022651
56.403645 71.697998 0
28.358521 100.11838 1.4171553
56.464092 71.618309 -0.89323884
56.476997 71.605263 -0.59617543
56.425438 71.657387 -0.30080706
56.401676 71.681404 0
28.278351 100.11224 1.4186069
56.494663 71.569092 -0.88853079
56.51516 71.548416 -0.59242791
56.445465 71.618706 -0.29964596
56.465683 71.598312 0
28.183517 100.12071 1.4206386
56.492752 71.552742 -0.88767564
56.502403 71.54303 -0.59271592
56.4436 71.602188 -0.29935539
56.401478 71.644569 0
28.147236 100.07002 1.420348
56.465519 71.561844 -0.88981509
56.493294 71.533966 -0.59271592
56.445412 71.582024 -0.29892039
56.39592 71.631699 0
28.169697 99.960419 1.4177358
56.460011 71.549103 -0.88938755
56.458603 71.550514 -0.59473425
56.421566 71.587593 -0.29950094
56.394051 71.615143 0
28.1483 99.89505 1.4168652
56.450893 71.539986 -0.88938755
56.434845 71.556023 -0.59588742
56.427113 71.563744 -0.29892039
56.395908 71.59491 0
28.060829 99.895767 1.4186069
56.459984 71.512733 -0.88724649
56.414738 71.557816 -0.59675145
56.381172 71.591263 -0.3003715
56.412548 71.559998 0
44.700802 83.22937 0.76086879
56.429058 71.525337 -0.88981509
56.372597 71.581459 -0.5993458
56.36832 71.585709 -0.30051652
56.344353 71.609535 0
44.659157 83.22435 0.76159436
56.419971 71.51619 -0.88981509
56.367111 71.568604 -0.59905779
56.37022 71.565514 -0.30008152
56.33886 71.596619 0
64 64 0
56.330601 71.586449 -0.89922953
56.376354 71.541191 -0.59761661
56.361084 71.55629 -0.30008152
56.329685 71.587357 0
64 64 0
56.357975 71.541122 -0.89495069
56.28257 71.615532 -0.6042465
56.370468 71.528793 -0.29935539
56.342758 71.556137 0
64 64 0
64 64 -0
56.324978 71.555397 -0.60021096
56.37619 71.50499 -0.29877484
56.300255 71.579742 0
44.614609 83.083252 0.75970769
56.405716 71.45787 -0.88724649
56.230961 71.629486 -0.60684198
56.341167 71.521263 -0.29979095
56.320797 71.541267 0
44.6101 83.041611 0.75898212
56.440708 71.405586 -0.8821125
56.306744 71.536827 -0.60021096
56.354351 71.490189 -0.29892039
56.267086 71.575676 0
44.601955 83.003624 0.75840157
56.424427 71.403618 -0.88296759
56.434521 71.393753 -0.58954442
56.363903 71.462769 -0.29819429
44.659245 82.901756 0
44.597603 82.961998 0.75767547
56.426521 71.383705 -0.88168329
56.358917 71.449615 -0.59473425
56.328838 71.478935 -0.2992104
44.632683 82.882019 0
44.593307 82.920403 0.7569499
56.373436 71.417503 -0.88681889
56.364754 71.425949 -0.59358108
56.327251 71.462425 -0.29892039
64 64 0
44.589081 82.87883 0.75622433
56.39764 71.376114 -0.88296759
56.366928 71.405907 -0.59271592
56.344353 71.427811 -0.29790428
64 64 0
44.581203 82.840881 0.75564378
56.367374 71.39653 -0.8859638
56.392174 71.372498 -0.59040958
56.298809 71.462975 -0.29950094
64 64 0
44.592209 82.807457 0.7547732
56.362129 71.383736 -0.88553625
56.360962 71.384865 -0.59213877
56.334637 71.410316 -0.29775926
44.620369 82.734818 0
44.573246 82.780373 0.75462765
44.696274 82.616364 -0.74897432
44.616478 82.693321 0
44.573006 82.735245 0.75375712
44.677536 82.589424 -0.74882936
44.627655 82.637413 0
44.557865 82.704559 0.75346708
64 64 -0
64 64 -0
44.620171 82.599579 0
44.554039 82.663048 0.75274098
64 64 -0
64 64 -0
44.608994 82.565346 0
44.554016 82.617981 0.75187045
64 64 -0
64 64 -0
44.605392 82.523926 0
44.546566 82.580116 0.7512899
44.636826 82.449219 -0.74694264
44.601864 82.482529 0
44.5467 82.535095 0.75041932
44.765762 82.237892 -0.7402665
44.598808 82.396202 0
44.532131 82.459419 0.74925822
44.849449 82.114647 -0.7362026
44.584145 82.365601 0
44.528717 82.41803 0.74853265
44.869141 82.052269 -0.7346065
44.592255 82.313545 0
44.521591 82.380226 0.7479521
44.854919 82.022011 -0.73431593
44.562553 82.297226 0
44.514534 82.342422 0.74737155
44.844528 81.98819 -0.7338804
44.563232 82.252342 0
44.503754 82.308197 0.74693596
44.826595 81.961479 -0.73373538
44.552589 82.218163 0
44.515778 82.252647 0.74562985
56.388367 71.113258 -0.86841756
44.816284 81.927666 -0.73330039
44.553402 82.173332 0
44.505131 82.218445 0.74519432
56.402302 71.083061 -0.86585057
44.749039 81.946983 -0.7350415
44.554295 82.128532 0
44.505932 82.173622 0.74432373
56.363674 71.101845 -0.86927432
56.299156 71.16185 -0.58608603
56.253704 71.204117 -0.29543704
44.555279 82.083748 0
44.510628 82.125275 0.74330765
56.343609 71.103271 -0.58204937
56.305962 71.138199 -0.29311481
44.541069 82.053169 0
44.50779 82.084045 0.74258208
56.319847 71.10807 -0.58320254
56.327854 71.100662 -0.29195371
44.538364 82.011971 0
44.493587 82.053406 0.74229151
44.58234 81.927757 -0.73808932
44.539566 81.967247 0
44.487061 82.015724 0.74171096
44.556858 81.907814 -0.73823488
64 64 0
44.484413 81.974533 0.74098539
64 64 -0
64 64 0
64 64 0
64 64 -0
64 64 -0
44.501427 81.871964 0
64 64 0
64 64 -0
44.498306 81.853157 0
44.457031 81.890945 0.73996985
64 64 -0
44.495964 81.812035 0
44.454624 81.849785 0.73924375
44.551975 81.717834 -0.73475152
44.489845 81.774437 0
44.444584 81.815666 0.73880875
44.549805 81.676849 -0.73402596
44.495346 81.726341 0
44.449997 81.767555 0.73779261
44.536171 81.646347 -0.73373538
44.477798 81.699265 0
44.451637 81.722984 0.73692203
44.530277 81.608871 -0.73315483
44.491165 81.644241 0
44.434101 81.695854 0.73677647
44.528305 81.567932 -0.73242927
44.493053 81.599731 0
44.432022 81.6548 0.7360509
44.518684 81.533951 -0.73199373
44.464058 81.583122 0
44.426155 81.617233 0.73547035
44.512978 81.496513 -0.73141319
44.466072 81.538635 0
44.416473 81.58316 0.73503536
56.327618 70.871956 -0.85857552
44.518936 81.448692 -0.73039758
44.464272 81.497658 0
44.410725 81.545616 0.73445481
56.323158 70.859253 -0.85814631
44.493996 81.428604 -0.7305426
44.450901 81.46711 0
44.408928 81.504608 0.73372871
56.364697 70.805565 -0.85258317
44.461311 81.415398 -0.73097819
44.437588 81.436539 0
44.399418 81.470566 0.73329371
56.371826 70.782684 -0.85087132
56.326561 70.822937 -0.57224798
64 64 -0
44.435982 81.395599 0
44.413269 81.415794 0.7319876
56.326054 70.806801 -0.57167196
56.183319 70.933411 -0.29180869
44.442238 81.347771 0
44.392242 81.392113 0.7319876
56.348827 70.770103 -0.56936562
56.303379 70.810318 -0.28701922
44.432972 81.313782 0
44.390713 81.351181 0.73126149
44.537109 81.179756 -0.72502756
44.415962 81.28669 0
44.373653 81.324036 0.73111647
44.504658 81.166534 -0.72546315
44.414635 81.245804 0
44.372234 81.283142 0.73039091
64 64 -0
44.413361 81.204956 0
44.370884 81.242264 0.72966534
64 64 -0
64 64 -0
64 64 -0
44.404335 81.170982 0
44.3657 81.204834 0.72908479
44.469952 81.071808 -0.72444701
44.407104 81.126747 0
44.356667 81.170837 0.72864926
44.46109 81.037949 -0.72401148
44.402115 81.089371 0
44.347687 81.136841 0.72821367
44.456203 81.000687 -0.72343093
44.393265 81.055428 0
44.350513 81.092621 0.72734314
44.44352 80.970245 -0.7231409
44.404106 81.004448 0
44.357353 81.045021 0.726327
44.426952 80.943207 -0.72299594
44.379646 80.984161 0
44.356415 81.004272 0.72560143
44.426155 80.902565 -0.72227037
44.386719 80.93663 0
44.351616 80.966934 0.72502089
44.417564 80.868729 -0.72183478
44.378101 80.902725 0
44.331131 80.943184 0.72502089
44.416901 80.828117 -0.72110921
44.373482 80.865433 0
44.322487 80.909256 0.72458589
44.420265 80.784149 -0.72023815
44.372871 80.824768 0
44.325748 80.865166 0.72371477
44.419739 80.743591 -0.71951258
44.35651 80.797661 0
44.313278 80.834625 0.72342479
56.32785 70.544624 -0.84060174
44.403473 80.716553 -0.71936756
44.356026 80.757027 0
44.312729 80.793961 0.72269869
56.269196 70.586594 -0.84659243
44.436897 80.667633 -0.71777087
44.365707 80.728279 0
44.314445 80.771957 0.72226363
56.335575 70.514069 -0.83846068
56.231148 70.602821 -0.56821245
44.440521 80.623795 -0.71690035
44.349487 80.701164 0
44.306076 80.73806 0.7218281
56.296379 70.531364 -0.84188437
56.294189 70.533226 -0.56302375
64 64 -0
44.345203 80.66394 0
44.313618 80.69072 0.72081196
56.282356 70.527245 -0.56331176
