# .PCD v0.7 - Point Cloud Data file format
VERSION 0.7
FIELDS x y z
SIZE 4 4 4
TYPE F F F
COUNT 1 1 1
WIDTH 1607
HEIGHT 1
VIEWPOINT 0 0 0 1 0 0 0
POINTS 1607
DATA ascii
47.371124 101.43018 1.1438719
60.061821 72.835716 -0.80636603
59.960896 73.062149 -0.55293322
64 64 -0
58.380939 76.606949 0
47.385147 101.27715 1.1398081
60.086777 72.751274 -0.79909098
59.964725 73.024223 -0.55091602
59.762386 73.476715 -0.28992203
58.380585 76.566887 0
47.359211 101.21436 1.1385019
60.061501 72.77932 -0.80208552
59.964417 72.995728 -0.5494737
59.812622 73.334091 -0.28571311
58.352627 76.58857 0
47.352539 101.10888 1.1358896
60.10778 72.648155 -0.79053164
59.966286 72.962547 -0.54774451
59.782154 73.371666 -0.28701922
58.350231 76.553268 0
47.365303 100.96078 1.1319708
60.118458 72.596664 -0.7862528
59.978874 72.9058 -0.54457301
59.811462 73.276588 -0.284262
58.3265 76.565407 0
47.361282 100.85068 1.1292136
60.114429 72.577934 -0.78496844
59.989456 72.853828 -0.54169065
59.791679 73.290451 -0.28484255
64 64 0
47.318909 100.82581 1.1290685
60.114685 72.549866 -0.78282905
59.995884 72.811295 -0.53938431
59.825603 73.186012 -0.28179479
64 64 0
47.317429 100.711 1.1261657
60.129913 72.489105 -0.77769345
59.983097 72.811157 -0.53967232
59.831753 73.143127 -0.28063366
64 64 0
51.575741 91.252853 0.83648241
60.115395 72.493752 -0.77854854
60.00687 72.731049 -0.53506076
59.829353 73.119179 -0.28005311
64 64 0
51.624954 91.058235 0.83096743
60.090145 72.521721 -0.78154474
60.007114 72.70269 -0.53361845
59.822678 73.104675 -0.27976254
58.220306 76.597122 0
51.561932 91.109383 0.83299911
60.101311 72.47036 -0.77726585
59.974968 72.744858 -0.53650194
59.844265 73.028824 -0.27758586
58.185505 76.632683 0
46.590477 101.82426 1.1628842
60.078171 72.493607 -0.77983284
59.990429 72.683632 -0.53304243
59.846436 72.995483 -0.27671474
58.183334 76.597305 0
46.56004 101.77016 1.1618681
60.072224 72.479553 -0.77897775
60.014725 72.603683 -0.52842975
59.850853 72.957458 -0.2756992
58.157181 76.613876 0
46.492577 101.79621 1.1633192
60.049004 72.502724 -0.78154474
60.013054 72.580093 -0.52727658
59.846603 72.938293 -0.27526364
58.150719 76.587921 0
46.427204 101.81746 1.1646259
60.027889 72.52121 -0.78368413
60.020172 72.537758 -0.52497023
59.888504 72.820221 -0.27178028
58.148701 76.552551 0
46.370544 101.81975 1.1653515
60.017593 72.516403 -0.78368413
60.038342 72.472031 -0.52122271
59.858032 72.857635 -0.27308697
58.131336 76.550179 0
46.320461 101.80782 1.1656414
60.011665 72.502296 -0.78282905
60.021515 72.481293 -0.52208787
59.856159 72.833801 -0.27250642
58.065331 76.651466 0
46.274792 101.78643 1.1656414
59.992649 72.516052 -0.78454089
60.00246 72.495201 -0.52324104
59.869831 72.777054 -0.27090973
58.06778 76.606613 0
46.215866 101.79321 1.1665126
64 64 -0
60.029736 72.410843 -0.51834035
59.87476 72.739159 -0.26989362
58.030334 76.646492 0
46.190178 101.7294 1.1652064
59.965496 72.520248 -0.78582358
60.026218 72.392014 -0.51747519
59.893112 72.673111 -0.26800695
58.035107 76.596939 0
51.613358 90.158684 0.80832678
59.959606 72.506104 -0.78496844
60.022743 72.373184 -0.51661003
59.898239 72.6353 -0.26699138
57.999794 76.632034 0
51.639729 90.021652 0.80455339
59.943439 72.52684 -0.78710788
60.053234 72.296051 -0.51199847
59.881863 72.656281 -0.26771694
57.996628 76.619011 0
51.677589 89.90155 0.80107009
60.121929 72.126335 -0.99735612
59.937561 72.512672 -0.7862528
60.047672 72.281937 -0.51142132
59.882595 72.627846 -0.26699138
57.952244 76.672813 0
51.762684 89.642776 0.79352337
60.114304 72.117065 -0.99679381
59.920631 72.521637 -0.78753543
60.055538 72.239822 -0.50911498
59.890121 72.585365 -0.26583028
57.930202 76.679565 0
51.893265 89.290489 0.7830739
60.108894 72.10321 -0.99566913
59.932556 72.470428 -0.78325659
60.056778 72.211739 -0.5076738
59.879753 72.580399 -0.26583028
57.908123 76.686302 0
51.9212 89.154045 0.77930057
60.096905 72.103073 -0.99623144
59.949062 72.410004 -0.77812099
60.076038 72.146393 -0.50392628
59.898705 72.514549 -0.26394358
57.890541 76.683617 0
51.938171 89.041115 0.77625275
60.102592 72.066315 -0.99229074
59.988037 72.303406 -0.7687065
60.072952 72.127663 -0.50306112
59.883904 72.518936 -0.26423359
57.879745 76.666862 0
51.939583 88.960999 0.77422053
60.086197 72.075325 -0.99397993
60.029503 72.192307 -0.75886452
60.058617 72.132233 -0.50363827
59.905338 72.448494 -0.26220191
57.85083 76.687553 0
51.950222 88.862244 0.77160829
60.074223 72.075157 -0.99454224
60.046547 72.132095 -0.75372893
60.09177 72.039062 -0.49816042
59.901951 72.429512 -0.26176637
57.85371 76.642662 0
51.942909 88.800934 0.77015716
60.07338 72.052139 -0.99229074
60.06823 72.062698 -0.74773651
60.066185 72.066887 -0.50017875
59.905434 72.396538 -0.26089582
57.831589 76.649269 0
51.928898 88.753647 0.76914108
60.068115 72.038269 -0.99116606
60.069771 72.034882 -0.74559712
60.079166 72.015671 -0.49729639
59.906715 72.368225 -0.26016968
51.993763 88.545303 0
51.940094 88.655022 0.76652884
60.074074 72.001572 -0.98722529
60.075886 71.997879 -0.74260259
60.067207 72.015564 -0.4975844
59.905754 72.344635 -0.2595897
51.980156 88.498085 0
51.940071 88.579781 0.76464218
60.089088 71.946678 -0.98103517
60.084362 71.956276 -0.73917884
60.098637 71.927277 -0.4923957
59.89109 72.348999 -0.25987968
51.989632 88.40416 0
51.949387 88.485931 0.7621749
60.068241 71.964729 -0.98384905
60.0793 71.942322 -0.73832208
60.082199 71.936455 -0.49325973
59.906311 72.292763 -0.25828302
51.9855 88.33828 0
51.949715 88.410774 0.76028824
60.074409 71.928085 -0.97990835
60.083374 71.909981 -0.73575509
60.097855 71.880737 -0.49008936
59.923958 72.231941 -0.25654191
51.986122 88.263107 0
51.950203 88.335655 0.75840157
60.100998 71.850517 -0.97090214
60.064682 71.923637 -0.73746699
60.086037 71.880646 -0.49037737
59.932507 72.189774 -0.25538078
51.968388 88.225273 0
51.94162 88.279175 0.75709492
60.134563 71.759384 -0.96020901
60.080296 71.868324 -0.73275894
60.111118 71.80645 -0.48605269
59.927254 72.175537 -0.25509024
51.973942 88.140831 0
51.95631 88.176224 0.75433767
60.14542 71.690964 -0.95289201
60.061295 71.858826 -0.73275894
60.082993 71.815529 -0.48720586
59.912159 72.156387 -0.25480023
51.997257 87.948845 0
51.9701 88.003029 0.74983877
60.129292 71.699913 -0.95457906
60.065632 71.826546 -0.73019195
60.099102 71.759964 -0.48403549
59.918648 72.118935 -0.25378412
52.008068 87.85527 0
51.971447 87.928116 0.7479521
60.126846 71.681633 -0.95289201
60.102406 71.730103 -0.7216326
60.089729 71.755241 -0.48403549
59.936916 72.058319 -0.25204244
52.00034 87.798935 0
51.970619 87.85788 0.7462104
60.117569 71.676941 -0.95289201
60.148678 71.615425 -0.71136135
60.11071 71.690506 -0.48028797
59.901382 72.104416 -0.2536391
52.016228 87.696167 0
51.98167 87.764496 0.74374318
60.115192 71.658646 -0.95120281
60.206829 71.477989 -0.69895071
60.110779 71.667351 -0.4791348
59.919804 72.043839 -0.25189742
52.011143 87.635254 0
51.971771 87.712875 0.74258208
60.133595 71.599594 -0.94444823
60.207111 71.455093 -0.69723886
60.096832 71.671852 -0.47971082
59.957218 71.946266 -0.24899465
52.017998 87.551163 0
51.978477 87.628845 0.74040484
60.124413 71.594917 -0.94444823
60.216766 71.41394 -0.69381678
60.101665 71.639496 -0.47798163
59.914547 72.006195 -0.25102687
52.025032 87.46714 0
51.992451 87.530991 0.73779261
60.140701 71.540482 -0.93825811
60.196117 71.432213 -0.69595617
60.125439 71.570305 -0.47394496
59.947498 71.917969 -0.24841408
52.025143 87.397049 0
51.999546 87.447067 0.73561537
60.15469 71.501968 -0.93375504
60.198654 71.416199 -0.69467187
60.109062 71.590988 -0.47538728
59.942715 71.91552 -0.24841408
52.06562 87.283272 0
52.001968 87.407448 0.73459983
60.161896 71.465675 -0.92981428
60.208477 71.375076 -0.69124812
60.116451 71.554077 -0.47336894
59.933155 71.910614 -0.24841408
52.047012 87.25032 0
52.009338 87.323601 0.73242259
60.171509 71.424904 -0.92531121
60.20192 71.365929 -0.69082057
60.109695 71.544785 -0.47308093
59.923599 71.905693 -0.24841408
52.080944 87.115585 0
52.019272 87.235191 0.73010033
60.171879 71.402214 -0.92305964
60.195377 71.356781 -0.69039303
60.083954 71.572227 -0.47509813
59.925983 71.877686 -0.24768853
52.060188 87.087311 0
52.017456 87.169937 0.72850424
60.16761 71.388573 -0.92193496
60.20068 71.324821 -0.68782443
60.120056 71.480255 -0.46962142
59.971497 71.766663 -0.24435075
52.068253 87.003555 0
52.020576 87.095474 0.72661757
60.172764 71.356873 -0.91855657
60.215519 71.274689 -0.68354553
60.113403 71.470978 -0.46933341
59.945332 71.794052 -0.24536631
52.076492 86.919876 0
52.028656 87.011826 0.72444034
60.142723 71.392792 -0.92362201
60.194862 71.292862 -0.68568498
60.118744 71.438751 -0.46760309
59.996017 71.673965 -0.24173795
52.075294 86.854683 0
52.027298 86.946671 0.72284424
60.140854 71.374626 -0.92193496
60.18605 71.288261 -0.68568498
60.124142 71.406563 -0.4658739
59.974693 71.692154 -0.24246407
52.079056 86.780312 0
52.021263 86.890747 0.72153813
60.160286 71.315964 -0.91518039
60.189175 71.260918 -0.68354553
60.105579 71.420197 -0.46702707
59.955738 71.705696 -0.24304463
52.0854 86.70137 0
52.022594 86.821045 0.71979642
60.198792 71.221382 -0.90392268
60.194759 71.229042 -0.68097693
60.12553 71.360558 -0.46356755
59.958542 71.677795 -0.24231851
52.08707 86.631691 0
52.03376 86.732971 0.71747422
60.201927 71.194321 -0.9011088
60.188419 71.219902 -0.68054938
60.126301 71.33757 -0.46241438
59.966244 71.640747 -0.24130295
52.086468 86.566643 0
52.04512 86.644966 0.71515197
60.195614 71.185234 -0.90054643
60.191708 71.192612 -0.67840993
60.117439 71.332886 -0.46241438
59.964314 71.622086 -0.24086739
52.098175 86.47863 0
52.046947 86.575386 0.71341032
60.208382 71.140244 -0.89548099
60.180614 71.192535 -0.67883748
60.103722 71.337334 -0.46299154
59.972168 71.585068 -0.23985128
52.09787 86.413681 0
52.056229 86.492096 0.71123362
60.20454 71.126678 -0.89435416
60.193645 71.147133 -0.67498618
60.148361 71.232162 -0.45664853
59.953236 71.598549 -0.24043183
52.114841 86.316582 0
52.036392 86.463882 0.71079808
60.198322 71.117607 -0.89379179
60.182594 71.147057 -0.67541379
60.15181 71.204697 -0.45520735
59.970982 71.543243 -0.23883572
52.107494 86.265488 0
52.041084 86.389824 0.70891136
60.206524 71.08165 -0.88985109
60.193356 71.106232 -0.67199004
60.135777 71.213722 -0.45607251
59.964333 71.533775 -0.23869017
52.105179 86.205215 0
52.04594 86.315804 0.70702469
60.214798 71.045738 -0.88591254
60.192055 71.088074 -0.67070735
60.141754 71.181702 -0.45434219
59.989662 71.464806 -0.23665848
52.095596 86.158745 0
52.04604 86.250984 0.70542806
60.194237 71.063522 -0.88872641
60.200542 71.051819 -0.6677112
60.137981 71.167931 -0.45376617
59.963387 71.491989 -0.23767461
52.088581 86.107681 0
52.043808 86.190781 0.70397693
60.212284 71.009735 -0.88253415
60.209114 71.015602 -0.66471499
60.13916 71.145058 -0.452613
59.964218 71.468811 -0.23709404
52.091568 86.038322 0
52.034302 86.14431 0.70296079
60.215919 70.982819 -0.87972027
60.190853 71.029068 -0.66642684
60.145313 71.113106 -0.45088381
59.97253 71.431946 -0.23607793
52.087265 85.982742 0
52.042213 86.065872 0.70092911
60.197777 70.996101 -0.88197178
60.189713 71.010941 -0.66514421
60.141666 71.099342 -0.45030665
59.97596 71.404243 -0.23535237
52.08308 85.92717 0
52.057743 85.973785 0.69846189
60.199055 70.973656 -0.87972027
60.200897 70.970268 -0.66172045
60.14547 71.071968 -0.44886547
59.964531 71.403938 -0.23549737
59.678593 71.928558 0
52.061047 85.904587 0.69672024
60.200382 70.951218 -0.87746871
60.187561 70.974678 -0.66257554
60.146851 71.049149 -0.4477123
59.9855 71.344337 -0.23375569
59.686493 71.891357 0
52.096901 85.776146 0.69309187
60.201057 70.940018 -0.87634403
60.210457 70.922844 -0.65786916
60.13763 71.055893 -0.44828832
59.983559 71.337357 -0.2336107
59.67173 71.907005 0
52.12117 85.700584 0.69091523
60.192677 70.935417 -0.87634403
60.226807 70.873245 -0.65358865
60.146523 71.019485 -0.44627112
59.979691 71.323395 -0.2333207
59.672195 71.883522 0
52.127468 85.626999 0.68902856
60.206364 70.890739 -0.87127644
60.206116 70.891182 -0.65572971
60.148026 70.996704 -0.44511795
60.010948 71.245689 -0.23099847
59.677731 71.850937 0
52.113884 85.589859 0.6883024
60.195576 70.89061 -0.87184095
60.215164 70.855125 -0.65273356
60.149574 70.973923 -0.44396478
59.972054 71.295456 -0.23274013
59.673286 71.836586 0
52.125473 85.507248 0.68612576
60.19957 70.863762 -0.86902487
60.211864 70.84156 -0.65187681
60.138649 70.973793 -0.44425279
59.973309 71.2724 -0.23215958
59.734406 71.703873 0
52.102013 85.488342 0.68598074
60.208538 70.828079 -0.86508632
60.228519 70.792099 -0.64759797
60.135242 70.960083 -0.44367677
59.979668 71.240257 -0.23128846
59.727634 71.694145 0
52.09877 85.433052 0.68467408
60.21265 70.8013 -0.86227244
60.225304 70.778572 -0.64674282
60.152008 70.910202 -0.44079328
59.97345 71.230858 -0.23114346
59.720871 71.684433 0
52.088043 85.391418 0.6838035
60.209396 70.787834 -0.86114562
60.214619 70.778488 -0.64717036
60.148701 70.896523 -0.44021726
60.000183 71.162476 -0.22911179
59.72681 71.652 0
52.072342 85.358864 0.68322295
60.208649 70.769943 -0.85945642
60.221485 70.747025 -0.64460176
60.145428 70.882828 -0.4396401
59.986458 71.166695 -0.2294018
59.715027 71.651367 0
52.04908 85.339905 0.68307793
60.202957 70.760933 -0.85889405
60.218361 70.733505 -0.64374667
60.16497 70.828568 -0.43646973
60.000702 71.121063 -0.22809568
59.721073 71.618965 0
52.015667 85.33905 0.68351352
60.212238 70.725357 -0.85495549
60.215271 70.719978 -0.64288992
60.151649 70.832932 -0.43704575
59.994648 71.111702 -0.22795068
59.739967 71.563904 0
51.977142 85.347191 0.68423909
60.22411 70.685379 -0.85045242
60.209675 70.710938 -0.64246231
60.148479 70.819283 -0.43646973
59.983505 71.111382 -0.22809568
59.738514 71.545143 0
51.948803 85.337166 0.68438405
60.203514 70.702911 -0.8532663
60.221813 70.670609 -0.63903862
60.158092 70.783112 -0.4344514
59.987717 71.083916 -0.22737011
59.716576 71.56263 0
51.915344 85.336159 0.68481964
60.205456 70.680649 -0.85101473
60.218819 70.65712 -0.63818347
60.165222 70.75148 -0.43272221
60.002258 71.038399 -0.226064
59.699726 71.57103 0
51.881882 85.335083 0.68525463
60.225056 70.62748 -0.84482247
60.220943 70.634705 -0.63647163
60.146828 70.764824 -0.43387538
59.993759 71.033562 -0.226064
59.724068 71.507042 0
51.832954 85.361084 0.68656129
60.201923 70.649399 -0.84820086
60.243488 70.57663 -0.63133603
60.146355 70.746681 -0.43301022
60.021343 70.965546 -0.22403233
59.707253 71.515434 0
51.809738 85.341835 0.68641573
60.211575 70.61393 -0.84426016
60.235542 70.57209 -0.63133603
60.174198 70.679192 -0.42897469
60.010349 70.96524 -0.22417733
59.708527 71.492172 0
51.778786 85.336121 0.6867063
60.213711 70.591721 -0.84200859
60.225052 70.571983 -0.63176358
60.155823 70.692505 -0.43012786
59.996765 70.969421 -0.22446732
59.702065 71.482475 0
51.7556 85.316833 0.68656129
60.208282 70.582748 -0.84144622
60.240173 70.527382 -0.62791228
60.155487 70.6744 -0.4292627
59.98056 70.978088 -0.22490288
59.757973 71.364517 0
51.716885 85.324539 0.68728685
60.228294 70.529747 -0.83525395
60.222015 70.540619 -0.62962413
60.162956 70.642868 -0.42753237
60.016319 70.896729 -0.22243565
59.764702 71.332336 0
51.683338 85.323166 0.68772185
60.210217 70.542778 -0.83750552
60.224411 70.51828 -0.62791228
60.144562 70.656128 -0.42868555
59.992363 70.918884 -0.22330621
59.755848 71.327217 0
51.647163 85.326256 0.6883024
60.212524 70.520615 -0.83525395
60.221687 70.504837 -0.62705714
60.154701 70.620171 -0.42666835
60.010105 70.86911 -0.2218551
59.741764 71.331093 0
51.600521 85.347267 0.68946356
60.21999 70.489693 -0.83187777
60.221588 70.486954 -0.62577283
60.15712 70.597641 -0.42551517
60.020119 70.83284 -0.22083898
59.738152 71.31694 0
51.572113 85.336777 0.68960911
60.209591 70.48951 -0.83244008
60.239639 70.438057 -0.621494
60.167416 70.561714 -0.42349684
59.996136 70.854965 -0.2217101
59.739815 71.293808 0
51.538483 85.33519 0.69004411
60.235138 70.427925 -0.82512313
60.231865 70.43351 -0.621494
60.167336 70.543686 -0.42263168
60.00362 70.823204 -0.22083898
59.712589 71.320099 0
51.494328 85.351517 0.69106019
60.223541 70.438797 -0.82681233
60.246162 70.40023 -0.61849779
60.163383 70.541367 -0.42263168
60.004749 70.811836 -0.22054899
59.747669 71.250153 0
51.468285 85.366364 0.69178575
60.226067 70.41671 -0.82456076
60.23843 70.395691 -0.61849779
60.168591 70.514435 -0.4211905
60.025505 70.757721 -0.21895231
59.765293 71.20015 0
51.437202 85.360168 0.69207633
60.228645 70.394638 -0.82230926
60.235928 70.382286 -0.61764103
60.163349 70.505356 -0.42090249
60.001499 70.779778 -0.21982342
59.780392 71.154686 0
51.419327 85.331543 0.69164073
60.226097 70.381317 -0.82118237
60.236053 70.364487 -0.6163584
60.173923 70.469536 -0.41888416
59.990665 70.779411 -0.21996842
59.771751 71.149582 0
51.380337 85.338684 0.6923663
60.236526 70.346169 -0.81724381
60.2467 70.329018 -0.61336219
60.171383 70.456024 -0.41830814
60.003685 70.7388 -0.21880731
59.773735 71.126556 0
51.346607 85.336838 0.69280189
60.223671 70.350349 -0.81836849
60.257427 70.293587 -0.61036605
60.160942 70.455833 -0.41859615
60.016796 70.698235 -0.2176462
59.650738 71.313805 0
51.307556 85.343864 0.69352746
60.236824 70.31086 -0.81386542
60.223522 70.33316 -0.61464649
60.171692 70.420082 -0.41657785
60.016693 70.680023 -0.21721064
59.55127 71.460533 0
51.273788 85.341904 0.69396299
60.229416 70.288689 -0.81217837
60.24255 70.266785 -0.60908335
60.185444 70.362022 -0.41340744
60.04866 70.590157 -0.2145984
59.335194 71.780098 0
51.214241 85.324448 0.69439799
60.24015 70.253632 -0.80823767
60.227051 70.275421 -0.61036605
60.191086 70.335251 -0.41196626
60.02195 70.616562 -0.21561451
59.264118 71.877037 0
51.177773 85.326797 0.69497854
60.245716 70.227333 -0.8054238
60.245975 70.226898 -0.60608715
60.183434 70.330643 -0.41196626
60.01664 70.6073 -0.21546952
59.251919 71.875763 0
51.146641 85.320198 0.69526911
60.248711 70.205391 -0.80317223
60.254383 70.196007 -0.60352021
60.173111 70.330444 -0.41225427
60.000603 70.615814 -0.21590452
59.218174 71.910103 0
51.112831 85.317986 0.6957041
60.251751 70.183472 -0.80092072
60.236256 70.209038 -0.60523206
60.178871 70.303703 -0.41081309
60.022236 70.562103 -0.2143084
59.243694 71.846466 0
51.084381 85.306854 0.69584966
60.241646 70.183281 -0.80148304
60.244759 70.178154 -0.60266346
60.171257 70.29908 -0.41081309
59.995422 70.588364 -0.21532395
59.212585 71.876289 0
51.045151 85.313431 0.69657522
60.250038 70.152702 -0.79810679
60.242638 70.164848 -0.60180831
60.177105 70.272369 -0.40937191
59.990166 70.579086 -0.21517897
59.224747 71.834946 0
51.008587 85.315514 0.69715577
60.242607 70.14817 -0.79810679
60.235191 70.160309 -0.60180831
60.166836 70.272156 -0.40965992
59.987633 70.565376 -0.21488896
59.19899 71.855827 0
50.961159 85.335274 0.69831687
60.256424 70.108963 -0.79360372
60.23848 70.138245 -0.60009646
60.180882 70.232231 -0.40735358
60.001427 70.525078 -0.21372785
59.178623 71.867767 0
50.940826 85.310631 0.69802636
60.217831 70.155235 -0.9965933
60.251701 70.100105 -0.79304141
60.239132 70.120567 -0.59881216
60.18961 70.201164 -0.40562329
60.02076 70.475952 -0.21227618
59.174576 71.853058 0
50.882439 85.347977 0.69976801
60.207756 70.154945 -0.99728745
60.247009 70.091232 -0.79247689
60.242512 70.098534 -0.59710026
60.182117 70.196556 -0.40562329
60.010204 70.475578 -0.21242173
59.189659 71.80735 0
50.864834 85.318832 0.69933248
60.197685 70.154625 -0.99797893
60.253002 70.065086 -0.78966302
60.251331 70.067787 -0.59453326
60.196373 70.156746 -0.40331805
60.007851 70.461899 -0.21213117
59.133728 71.876801 0
50.833614 85.31179 0.69962299
60.221958 70.098839 -0.98967296
60.26976 70.021675 -0.78459758
60.273746 70.015244 -0.58982527
60.183495 70.160934 -0.40389407
60.002777 70.45266 -0.21198617
59.159843 71.8134 0
50.794193 85.317955 0.70034856
60.217239 70.090012 -0.98898149
60.262486 70.017166 -0.78459758
60.228561 70.071785 -0.59581596
60.181507 70.147537 -0.40331805
60.008694 70.425758 -0.21126062
59.106464 71.878288 0
56.260574 76.459991 0.40964913
60.209881 70.085434 -0.98898149
60.271332 69.986771 -0.78122133
60.245651 70.028008 -0.59196466
60.18502 70.125351 -0.40216488
59.995441 70.429741 -0.21155061
59.110703 71.850281 0
56.245525 76.45063 0.40964913
60.242401 70.017014 -0.97859842
60.269489 69.973633 -0.7800945
60.271004 69.971207 -0.58682907
60.183109 70.111954 -0.40158772
60.006935 70.394058 -0.21053505
59.09296 71.857605 0
56.205715 76.480919 0.41095525
60.227142 70.02523 -0.98067552
60.275757 69.947586 -0.77728063
60.274693 69.949295 -0.58511722
60.197689 70.072266 -0.39928138
59.999214 70.389229 -0.21053505
59.061371 71.886955 0
56.198906 76.45829 0.41052026
60.22084 70.027191 -0.98136705
60.261368 69.962555 -0.77953213
60.254726 69.973145 -0.58768582
60.188519 70.078743 -0.39985853
59.992596 70.391205 -0.21068005
59.064892 71.870758 0
56.202423 76.435966 0.40993968
60.210892 70.026871 -0.98205853
60.254166 69.958038 -0.77953213
60.272106 69.929504 -0.58383453
60.200455 70.043472 -0.3978402
60.01807 70.333565 -0.20893838
59.035999 71.895622 0
56.220596 76.373741 0.408198
60.235722 69.971352 -0.97375262
60.260517 69.932014 -0.77671826
60.25399 69.942368 -0.58554637
60.18763 70.047638 -0.39841735
60.018738 70.315559 -0.20850283
59.023682 71.894035 0
56.202881 76.368721 0.40834302
60.217785 69.983765 -0.97652125
60.266933 69.906006 -0.77390224
60.282471 69.881424 -0.57998323
60.199677 70.012413 -0.39639902
60.033321 70.275597 -0.2073417
58.983562 71.936401 0
56.199047 76.341721 0.40776244
60.2589 69.902908 -0.96406364
60.276119 69.87574 -0.77052599
60.264374 69.894272 -0.58169508
60.200726 69.994705 -0.39553386
60.036869 70.253242 -0.20676115
58.971191 71.934723 0
56.195271 76.314728 0.40718189
60.232929 69.928032 -0.96890944
60.26902 69.871239 -0.77052599
60.262768 69.881081 -0.58083832
60.193485 69.990105 -0.39553386
60.018166 70.265991 -0.2073417
58.975563 71.906677 0
56.185963 76.296524 0.40689188
60.239246 69.902321 -0.96544933
60.256462 69.875305 -0.77165288
60.269455 69.854912 -0.57869893
60.194592 69.972412 -0.39466873
60.027348 70.234886 -0.20647115
58.957623 71.91378 0
56.176704 76.278297 0.40660134
60.259136 69.855484 -0.95852637
60.273998 69.832222 -0.76658529
60.281734 69.820114 -0.57570273
60.187378 69.967812 -0.39466873
60.019817 70.230087 -0.20647115
58.950863 71.903297 0
56.198242 76.211906 0.40471467
60.235821 69.87632 -0.96268064
60.286133 69.797775 -0.76264668
60.26363 69.832909 -0.57741463
60.18853 69.950142 -0.39380467
60.034718 70.190262 -0.20531003
58.92728 71.919098 0
56.203106 76.171852 0.4036991
60.239571 69.854881 -0.959912
60.281876 69.789009 -0.76208436
60.2649 69.815445 -0.57613194
60.189735 69.932472 -0.39293951
60.046906 70.154854 -0.20429392
58.943027 71.87355 0
56.196831 76.1493 0.40326354
60.24065 69.837669 -0.95783484
60.283138 69.77169 -0.76039517
60.249542 69.82386 -0.57741463
60.193771 69.910469 -0.39178634
60.028214 70.167549 -0.20487447
58.916615 71.893684 0
56.201859 76.109276 0.40224743
60.279865 69.761467 -0.94606876
60.276169 69.767197 -0.76039517
60.281494 69.758949 -0.57142389
60.206276 69.875435 -0.38976803
60.040489 70.132195 -0.20385891
58.901428 71.896294 0
56.206955 76.06929 0.40123188
60.245644 69.79908 -0.95298904
60.269203 69.762695 -0.76039517
60.263378 69.77169 -0.57313573
60.201988 69.866508 -0.38947999
60.038738 70.118675 -0.20356835
58.872101 71.9207 0
56.212151 76.029327 0.40021574
60.268684 69.74826 -0.94537729
60.28714 69.719826 -0.75532973
60.295536 69.706894 -0.56714505
60.206169 69.844559 -0.38832682
60.042664 70.096451 -0.20298781
58.865364 71.910133 0
56.19762 76.019905 0.40021574
60.261742 69.743744 -0.94537729
60.271923 69.728096 -0.75701678
60.288643 69.702408 -0.56714505
60.230141 69.792297 -0.38515645
60.055138 70.061188 -0.20197225
58.852974 71.908279 0
64 64 0
60.271259 69.714005 -0.94122297
60.281662 69.698059 -0.75364053
60.267731 69.719414 -0.56928444
60.211838 69.805061 -0.38630962
60.047817 70.056412 -0.20197225
58.829201 71.923851 0
64 64 0
60.247871 69.734695 -0.94537729
60.305389 69.646782 -0.74744827
60.263641 69.710594 -0.56885529
60.199169 69.809135 -0.38688564
60.066116 70.012482 -0.20066558
58.81963 71.917595 0
64 64 0
60.232685 69.742744 -0.94745445
60.284622 69.663574 -0.75026429
60.267998 69.688919 -0.56714505
60.212017 69.774254 -0.38486734
60.027496 70.055527 -0.20226224
58.804352 71.920044 0
56.145325 75.973358 0.3999252
60.2616 69.683685 -0.93845433
60.277782 69.659081 -0.75026429
60.261124 69.684402 -0.56714505
60.213562 69.756721 -0.38400328
60.065876 69.981255 -0.19994001
58.814812 71.883316 0
56.113724 75.989914 0.40079632
60.254738 69.679161 -0.93845433
60.290535 69.624878 -0.74632359
60.262741 69.667023 -0.56586075
64 64 -0
60.015732 70.041573 -0.20211725
58.80529 71.877045 0
56.11927 75.950005 0.39978018
60.258945 69.65789 -0.93568569
60.278141 69.62886 -0.74744827
60.278549 69.628242 -0.562437
60.205372 69.738914 -0.38342613
60.062897 69.954391 -0.19935946
58.761326 71.922859 0
56.110565 75.931816 0.39949021
60.274281 69.619926 -0.93015105
60.282574 69.607422 -0.74519676
60.277431 69.615173 -0.56158024
60.204151 69.725708 -0.38285011
60.035603 69.97995 -0.20037557
58.734493 71.942566 0
56.055958 75.982903 0.40152186
60.284771 69.596764 -0.92668825
60.279186 69.605171 -0.74519676
60.291073 69.587265 -0.55901325
60.217865 69.697548 -0.38111982
60.052113 69.947243 -0.19935946
58.749851 71.909019 0
56.042976 75.986755 0.40181187
60.261326 69.61734 -0.93084258
60.297752 69.562599 -0.74013132
60.284325 69.582779 -0.55901325
60.225311 69.671448 -0.37967861
60.021896 69.977081 -0.20052058
58.702808 71.959 0
56.014091 75.998779 0.402538
60.310242 69.529343 -0.91699934
60.313602 69.524307 -0.73562825
60.291828 69.556938 -0.5568738
60.21846 69.666878 -0.37967861
60.029095 69.950661 -0.19979501
58.713425 71.922279 0
55.990955 76.002075 0.402973
60.261707 69.58744 -0.92738241
60.304096 69.524086 -0.73619276
60.282261 69.556717 -0.5573014
60.22887 69.63652 -0.37794942
60.016125 69.954506 -0.20008557
58.695168 71.928864 0
55.985119 75.979439 0.402538
60.249374 69.59124 -0.92876542
60.294594 69.523834 -0.73675507
60.286991 69.535164 -0.5555895
60.216305 69.640541 -0.37852544
60.011833 69.945358 -0.19994001
58.656601 71.965668 0
55.959072 75.987015 0.40311855
60.281818 69.528427 -0.91907644
60.302101 69.498268 -0.7339412
60.297493 69.505119 -0.5530225
60.212376 69.631676 -0.37823743
60.039455 69.888786 -0.19819833
59.933735 70.045982 0
55.935898 75.990211 0.40355355
60.306 69.478165 -0.91146201
60.312511 69.468506 -0.73056281
60.296589 69.492126 -0.55216575
60.222919 69.601372 -0.37650824
60.014908 69.909859 -0.19906946
59.856602 70.144623 0
55.918503 75.984779 0.4036991
60.279709 69.5028 -0.91630781
60.311592 69.455635 -0.72943813
60.275581 69.508904 -0.5543052
60.219063 69.592506 -0.37621912
60.001953 69.913635 -0.19935946
59.887077 70.083557 0
55.898212 75.983612 0.40398911
60.287136 69.477539 -0.9128477
60.322117 69.425934 -0.72605973
60.280437 69.487419 -0.55259496
60.223915 69.570808 -0.37506595
60.032715 69.852882 -0.19747278
59.792122 70.207832 0
55.874989 75.986717 0.40442467
60.297447 69.448135 -0.90869337
60.312698 69.425697 -0.72662425
60.29113 69.457436 -0.55002636
60.225903 69.553413 -0.37420189
60.031479 69.8395 -0.19718277
59.781689 70.207062 0
55.854675 75.985481 0.40471467
60.290871 69.443657 -0.90869337
60.309017 69.417023 -0.72605973
60.304779 69.423248 -0.54703015
60.216286 69.553123 -0.3744899
60.041992 69.808922 -0.19631167
59.824024 70.128822 0
55.843121 75.971344 0.40456966
60.292778 69.426758 -0.90661889
60.336861 69.362228 -0.7193073
60.280846 69.444221 -0.54959881
60.221249 69.531464 -0.37333673
60.01738 69.829895 -0.19718277
59.872398 70.042122 0
55.80814 75.991516 0.40558577
60.286221 69.422272 -0.90661889
60.339001 69.345215 -0.71761811
60.277168 69.435493 -0.54917121
60.226261 69.509819 -0.37218356
60.030899 69.795059 -0.19616666
59.818039 70.105843 0
55.787788 75.990181 0.40587577
60.296719 69.39296 -0.90246457
60.335419 69.336601 -0.71705574
60.276424 69.422516 -0.54831445
60.225456 69.496735 -0.37160754
60.0592 69.738846 -0.19442499
59.893166 69.980637 0
49.360443 85.319077 0.72226363
60.284512 69.396751 -0.90385026
60.328976 69.332169 -0.71705574
60.281521 69.4011 -0.54660261
60.230553 69.475128 -0.37045437
60.040482 69.751205 -0.19500555
59.812157 70.082848 0
49.328804 85.309921 0.72255367
60.275146 69.396385 -0.90454173
60.325428 69.323532 -0.71649122
60.277908 69.39238 -0.54617506
60.226887 69.466301 -0.37016526
60.021729 69.763527 -0.1955861
59.822544 70.052094 0
49.303066 85.292183 0.72255367
60.29147 69.358871 -0.89900446
60.330566 69.302376 -0.71423972
60.286003 69.366776 -0.54403561
60.196735 69.495766 -0.37247157
60.100525 69.634789 -0.19137721
59.850777 69.995682 0
49.259602 85.300056 0.72342479
60.273556 69.37088 -0.9017731
60.324162 69.297935 -0.71423972
60.273674 69.370712 -0.54489076
64 64 -0
64 64 -0
59.787167 70.071899 0
49.222023 85.299309 0.72400534
60.287128 69.337532 -0.8969273
60.340969 69.260132 -0.70973879
60.284771 69.340919 -0.54232377
60.224815 69.427116 -0.36843604
60.12252 69.574173 -0.18963608
59.883858 69.917267 0
49.184429 85.298508 0.72458589
60.30938 69.291893 -0.89000702
60.322998 69.272369 -0.71198815
60.287132 69.323792 -0.54103947
60.215305 69.426788 -0.36872405
60.02364 69.701614 -0.194135
59.751663 70.091591 0
49.134933 85.314667 0.72574645
60.288612 69.307991 -0.89346713
60.319538 69.263756 -0.71142578
60.292473 69.302475 -0.53932756
60.217644 69.409485 -0.36785892
60.007816 69.709579 -0.19457056
59.90834 69.851852 0
49.091316 85.322258 0.72661757
60.316765 69.254196 -0.88516122
60.313183 69.259308 -0.71142578
60.303745 69.272774 -0.53676057
60.220009 69.39222 -0.36699486
60.009872 69.691986 -0.194135
59.742935 70.072777 0
49.065563 85.30423 0.72661757
60.301762 69.262062 -0.88723838
60.333126 69.217438 -0.7063604
60.288528 69.280891 -0.53804326
60.216469 69.383423 -0.36670685
60.029888 69.648895 -0.19282888
59.864288 69.884521 0
49.048798 85.273407 0.72618198
60.254948 69.315002 -0.8969273
60.332672 69.204697 -0.70523572
60.28215 69.276405 -0.53804326
60.221886 69.361931 -0.36555368
60.023067 69.644096 -0.19282888
59.899147 69.819962 0
49.008141 85.276566 0.72690755
60.303261 69.226295 -0.88308674
60.308575 69.218781 -0.7080496
60.275555 69.265465 -0.53761572
60.227119 69.333946 -0.36411139
60.042858 69.594444 -0.19137721
59.969749 69.6978 0
48.936588 85.296028 0.72850424
60.294048 69.225914 -0.88377821
60.322853 69.185303 -0.70410883
60.284042 69.240028 -0.53547627
60.223667 69.325165 -0.36382335
60.009048 69.627808 -0.19268332
59.88459 69.803307 0
48.904861 85.286285 0.72879422
60.293556 69.213249 -0.88239259
60.31953 69.176712 -0.70354652
60.295555 69.210434 -0.53290927
60.229225 69.303734 -0.36267018
60.00827 69.614517 -0.19239332
59.838379 69.853477 0
48.873123 85.276505 0.72908479
60.313469 69.171997 -0.87616378
60.310333 69.176399 -0.70410883
60.295231 69.197586 -0.53205252
60.255836 69.252853 -0.35949981
59.995461 69.618141 -0.19268332
59.931004 69.708572 0
48.835361 85.275139 0.72966534
60.313053 69.159378 -0.87478077
60.298164 69.180214 -0.70523572
60.291935 69.188934 -0.53162497
60.255516 69.239899 -0.35892266
59.958454 69.655594 -0.194135
59.915024 69.716362 0
48.797577 85.273712 0.73024589
60.312672 69.146759 -0.87339514
60.306717 69.155067 -0.70241964
60.297626 69.167755 -0.52991313
60.270279 69.205925 -0.35690436
60.00005 69.583107 -0.19181275
59.883869 69.74527 0
53.145172 79.151115 0.5205301
60.312302 69.134155 -0.87201214
60.309376 69.138229 -0.70073259
60.297382 69.15493 -0.52905637
60.276051 69.184631 -0.35575229
60.002407 69.565605 -0.19137721
59.858719 69.765656 0
48.703773 85.295998 0.73227757
60.311974 69.121544 -0.87062645
60.326927 69.100777 -0.69622952
60.300148 69.137962 -0.52777368
60.27282 69.175919 -0.35546318
59.950127 69.624039 -0.19355443
59.857834 69.752205 0
48.68412 85.269073 0.7319876
60.314587 69.104889 -0.86855197
60.320766 69.096336 -0.69622952
60.284935 69.145966 -0.52905637
60.263531 69.175613 -0.35575229
59.955502 69.60228 -0.19297388
59.878315 69.709206 0
48.652355 85.258972 0.73227757
60.317253 69.088234 -0.86647481
60.320576 69.083649 -0.69510269
60.296776 69.116524 -0.52648938
60.245159 69.187843 -0.35690436
59.915215 69.643707 -0.19457056
59.834797 69.754814 0
48.632767 85.232002 0.7319876
60.290485 69.112198 -0.87131798
60.31144 69.083321 -0.69566721
60.290596 69.112045 -0.52648938
60.248001 69.170753 -0.3560403
59.893143 69.65979 -0.19529611
59.85841 69.707657 0
48.582718 85.247055 0.73314816
60.322681 69.05497 -0.86232054
60.3083 69.074738 -0.69510269
60.28442 69.107559 -0.52648938
64 64 -0
59.864914 69.684235 -0.19631167
59.845398 69.71106 0
48.547882 85.24102 0.73358369
60.31953 69.046471 -0.86162901
60.305161 69.06617 -0.69454032
60.296398 69.078186 -0.52392238
64 64 -0
59.876419 69.654045 -0.19544111
59.863026 69.672409 0
48.494671 85.260117 0.73488981
60.337128 69.009621 -0.85609174
60.32304 69.028885 -0.69003725
60.308453 69.048836 -0.52135378
60.253708 69.123711 -0.35373396
59.875729 69.640663 -0.19515055
59.828529 69.705215 0
48.475121 85.232986 0.73459983
60.322174 69.017334 -0.8581689
60.313965 69.028534 -0.69059962
60.299324 69.048508 -0.52178133
60.244461 69.123352 -0.35402197
59.865837 69.639877 -0.19529611
59.867798 69.637199 0
48.427979 85.243538 0.73561537
60.342854 68.976501 -0.8519401
60.328945 68.995422 -0.68666106
60.296265 69.039902 -0.52135378
60.250526 69.102135 -0.3528688
59.822094 69.685127 -0.19703779
59.864067 69.628014 0
48.40847 85.216339 0.7353254
60.316006 69.000359 -0.85678589
60.331959 68.978706 -0.68497187
60.308441 69.010628 -0.51878679
60.244366 69.097595 -0.3528688
59.765919 69.747009 -0.19935946
59.854187 69.627197 0
48.355106 85.235138 0.73663151
60.280163 69.036255 -0.86370617
60.331978 68.966103 -0.68384713
60.293236 69.018555 -0.52007109
60.247433 69.080566 -0.35200366
59.72501 69.787872 -0.20095614
59.801003 69.68499 0
48.32946 85.216217 0.73663151
60.315876 68.975311 -0.85401726
60.304821 68.990242 -0.68778574
60.299397 68.997566 -0.51835924
60.244373 69.071877 -0.35171562
59.711842 69.791046 -0.20124613
59.90255 69.533501 0
48.297646 85.205627 0.73692203
60.303894 68.978905 -0.85540026
60.326054 68.949059 -0.6827203
60.305603 68.976608 -0.51664734
60.228992 69.079803 -0.35258079
59.711037 69.777527 -0.20095614
59.902065 69.520195 0
48.225574 85.249222 0.73909873
60.339813 68.918091 -0.84571129
60.314003 68.952774 -0.68384713
60.290405 68.984482 -0.51793003
60.250652 69.037895 -0.34998643
59.713371 69.759827 -0.20052058
59.771107 69.682243 0
48.199913 85.230141 0.73909873
60.330853 68.92392 -0.8470943
60.332268 68.92202 -0.67990643
60.293522 68.974014 -0.51707494
60.244518 69.039772 -0.35027444
59.796825 69.640572 -0.19645722
59.82365 69.604568 0
53.906647 77.545067 0.47176549
60.336914 68.903404 -0.84432566
60.326324 68.917587 -0.67990643
60.296738 68.957191 -0.51579058
60.275585 68.985504 -0.34681493
59.842884 69.564713 -0.19398999
59.748356 69.691254 0
53.887169 77.537041 0.47191104
60.340008 68.88694 -0.84225118
60.329525 68.900932 -0.67821723
60.303059 68.936272 -0.51407874
60.25095 69.005852 -0.34854525
59.948315 69.409943 -0.18876497
59.704041 69.736099 0
53.880165 77.512329 0.47147548
60.316036 68.906578 -0.84640282
60.317497 68.904633 -0.67934406
60.312508 68.911278 -0.51193929
60.24802 68.997169 -0.34825614
58.132088 71.815323 -0.27294141
59.656487 69.785011 0
53.888809 77.466843 0.47031435
60.322182 68.886086 -0.84363419
60.326851 68.879883 -0.67653018
60.29731 68.919128 -0.51322365
60.279305 68.943054 -0.34479773
58.107025 71.828987 -0.27366695
59.696445 69.717392 0
53.888168 77.433861 0.46958879
60.328369 68.865623 -0.84086549
60.311783 68.887596 -0.67821723
60.306831 68.894165 -0.5110842
60.248421 68.971573 -0.34710297
58.160168 71.738907 -0.27076474
59.676998 69.728813 0
53.884464 77.405037 0.46900824
60.322491 68.861183 -0.84086549
60.318146 68.866928 -0.67596567
60.300919 68.889694 -0.5110842
60.25177 68.954666 -0.34623891
58.132011 71.756706 -0.27163529
59.685791 69.70282 0
53.8526 77.413521 0.4697338
60.334808 68.832756 -0.83671385
60.324551 68.846275 -0.67371416
60.288815 68.893394 -0.51193929
60.258289 68.933647 -0.34508574
58.062973 71.828285 -0.27439308
59.697769 69.672722 0
53.556923 77.76976 0.48265052
60.304676 68.860275 -0.84225118
60.331001 68.825653 -0.6714626
60.301544 68.864395 -0.50937235
60.236679 68.949707 -0.34652692
58.05352 71.821106 -0.27439308
59.694065 69.663383 0
53.417633 77.918457 0.48831055
60.323139 68.823883 -0.83671385
60.322083 68.825272 -0.67202711
60.29567 68.859924 -0.50937235
60.262054 68.904022 -0.34364456
58.025177 71.838707 -0.27526364
59.661983 69.691292 0
59.575222 69.805115 0.20385222
60.311226 68.8274 -0.83809686
60.316254 68.820824 -0.67202711
60.30851 68.830956 -0.50680369
60.249855 68.907715 -0.34422058
58.018864 71.827354 -0.27511865
59.683548 69.648827 0
59.577679 69.787376 0.20341668
60.323696 68.799049 -0.83394521
60.310432 68.816368 -0.67202711
60.299553 68.830566 -0.50723124
60.265949 68.874435 -0.34220228
58.069458 71.741737 -0.27236083
59.727371 69.577499 0
59.599129 69.744904 0.20211056
60.333179 68.774712 -0.83048511
60.341759 68.763542 -0.66527247
60.309353 68.805733 -0.50509185
60.256905 68.874031 -0.34249139
58.02845 71.775787 -0.27381253
59.758678 69.522789 0
59.579529 69.756065 0.20269111
60.301826 68.803513 -0.99944657
60.351898 68.738472 -0.82494777
60.323605 68.775223 -0.66752404
60.306679 68.797211 -0.5046643
60.23209 68.894089 -0.34422058
58.012726 71.776794 -0.27410251
59.920292 69.29908 0
59.601109 69.713661 0.20138499
60.336987 68.745964 -0.82702225
60.339577 68.742615 -0.66358328
60.304016 68.788681 -0.5042367
60.245136 68.864975 -0.34249139
59.552784 69.762016 -0.20327836
64 64 0
59.606907 69.691887 0.20080444
60.32653 68.747643 -0.989667
60.318974 68.757408 -0.82979095
60.333847 68.73819 -0.66358328
60.291958 68.792328 -0.50509185
60.239262 68.860435 -0.34249139
59.437702 69.896378 -0.20821282
59.913864 69.280983 0
59.568237 69.727669 0.20225555
60.287468 68.786171 -0.99863237
60.310143 68.756935 -0.83048511
60.334347 68.725731 -0.6624586
60.320774 68.743233 -0.5003854
60.242905 68.84362 -0.34162623
59.449699 69.866211 -0.2073417
59.929817 69.247246 0
59.599541 69.673035 0.20051388
60.3363 68.711449 -0.98396456
60.322884 68.728699 -0.82633078
60.325523 68.725304 -0.66302097
60.292992 68.767136 -0.50337994
60.240227 68.834991 -0.34133822
59.426655 69.881233 -0.20806782
59.891525 69.283417 0
59.599064 69.659515 0.20022388
60.291103 68.757698 -0.99455833
60.314091 68.728203 -0.82702225
60.322937 68.716858 -0.6624586
60.280914 68.77076 -0.5042367
60.240753 68.822281 -0.3407611
59.41317 69.883896 -0.20835783
59.939541 69.208672 0
59.592232 69.654198 0.20022388
60.300587 68.733727 -0.99048114
60.326916 68.700035 -0.82287061
60.304726 68.728424 -0.66471016
60.300446 68.733902 -0.50081301
60.250854 68.797363 -0.33931988
59.390064 69.898819 -0.20908338
59.795441 69.380096 0
59.582203 69.652954 0.20036888
60.343636 68.667007 -0.97744483
60.324329 68.69165 -0.82217914
60.314693 68.703949 -0.66189408
60.285225 68.741562 -0.50209731
60.229111 68.813187 -0.3407611
59.453445 69.803253 -0.2058906
64 64 0
59.568962 69.655807 0.20065944
60.377426 68.618126 -0.96766526
60.355564 68.645996 -0.8145647
60.32753 68.681732 -0.65908021
60.323555 68.686798 -0.49653414
60.254936 68.774277 -0.33816671
59.44994 69.800499 -0.2058906
59.878857 69.253708 0
59.597626 69.612228 0.19920777
60.329075 68.668137 -0.97907323
60.303425 68.700752 -0.82494777
60.31559 68.685287 -0.66020709
60.30521 68.698486 -0.49824435
60.258766 68.757545 -0.33730158
59.446144 69.790916 -0.20574559
59.885384 69.232361 0
59.610115 69.582405 0.1983372
60.323437 68.663696 -0.97907323
60.328819 68.656876 -0.81802481
60.328812 68.656876 -0.6568287
60.324951 68.661774 -0.49482226
60.256222 68.748962 -0.33701354
59.455235 69.765007 -0.20502004
59.914513 69.182419 0
59.580849 69.605667 0.19935332
60.330067 68.643738 -0.97581333
60.344963 68.624886 -0.8131817
60.332634 68.640488 -0.65514165
60.306587 68.673447 -0.49653414
60.260109 68.732254 -0.33614841
59.422504 69.792114 -0.20618059
59.872749 69.222397 0
59.606308 69.55954 0.19790165
60.345936 68.61219 -0.97011095
60.308224 68.65979 -0.82010198
60.330193 68.632057 -0.65457714
60.316895 68.648842 -0.49439305
60.241547 68.74395 -0.33730158
59.418732 69.782509 -0.2060356
59.966633 69.09095 0
59.612503 69.537933 0.19732109
60.309628 68.646469 -0.97825903
60.330677 68.619965 -0.81387317
60.337242 68.611702 -0.65232563
60.327244 68.62429 -0.49225363
60.242245 68.731316 -0.33672553
59.40205 69.789185 -0.20647115
60.025227 69.004555 0
59.63813 69.491943 0.19586997
60.350204 68.584 -0.96603376
60.337601 68.599831 -0.81110454
60.334831 68.603302 -0.65176326
60.308865 68.635918 -0.49396551
60.23975 68.722725 -0.33643752
59.401539 69.775482 -0.20618059
59.853848 69.207405 0
53.824524 76.779999 0.45623654
60.341576 68.583458 -0.96685106
60.35083 68.571861 -0.80695027
60.326107 68.602844 -0.65232563
60.319279 68.611397 -0.49182609
60.234047 68.718178 -0.33643752
59.365376 69.806496 -0.20748727
59.899509 69.137306 0
53.80909 76.767693 0.45623654
60.339138 68.575165 -0.96603376
60.326496 68.590965 -0.81110454
60.330063 68.586502 -0.65063858
60.304081 68.618973 -0.49311039
60.244514 68.69342 -0.33499524
59.403828 69.744072 -0.20545503
59.799004 69.250198 0
53.809898 76.735085 0.45551097
60.330509 68.574608 -0.96685106
60.336643 68.566956 -0.80764443
60.321346 68.586029 -0.65120089
60.295296 68.618507 -0.49353796
60.235603 68.692924 -0.33528435
59.370876 69.770943 -0.20661615
59.913162 69.094894 0
53.791271 76.726814 0.45565596
60.337376 68.554756 -0.96359122
60.331131 68.562531 -0.80764443
60.33173 68.561783 -0.64838701
60.309029 68.590012 -0.49096933
60.259106 68.652092 -0.33269
59.370411 69.757256 -0.20632616
59.910267 69.085907 0
53.746593 76.750916 0.45696208
60.310169 68.577255 -0.96929359
60.341362 68.538567 -0.80418426
60.338978 68.541519 -0.64613551
60.322811 68.561577 -0.48840234
60.259987 68.639511 -0.33211285
59.343895 69.775925 -0.20719671
59.949852 69.024231 0
59.608215 69.448029 0.19543442
60.335705 68.534355 -0.96114552
60.351658 68.514618 -0.80072147
60.330299 68.541046 -0.64669782
60.304394 68.573105 -0.49011421
60.241379 68.651077 -0.33326602
59.353249 69.750092 -0.20647115
59.881634 69.096245 0
54.009769 76.362335 0.44390038
60.370678 68.479996 -0.95055175
60.314613 68.549202 -0.80764443
60.337612 68.520813 -0.64444631
60.324726 68.53672 -0.48669046
60.252037 68.626442 -0.33182484
59.35939 69.728317 -0.2058906
59.980312 68.961861 0
54.017742 76.321991 0.44288427
60.337223 68.510139 -0.95788568
60.362892 68.478531 -0.79587835
60.338554 68.508499 -0.64332163
60.306301 68.548218 -0.48840234
60.246452 68.62191 -0.33182484
59.34264 69.73481 -0.20632616
59.89558 69.053955 0
53.9963 76.317993 0.44317481
60.356743 68.475044 -0.95136595
60.366989 68.462456 -0.79380119
60.355572 68.476486 -0.63938087
60.317009 68.523849 -0.48626292
60.253933 68.601326 -0.33067167
59.332436 69.733208 -0.20647115
59.817173 69.137802 0
53.935497 76.362312 0.44520649
60.316956 68.512764 -0.96033138
60.345741 68.477493 -0.7972613
60.334103 68.49176 -0.64219475
60.321289 68.507454 -0.48497862
60.24511 68.6008 -0.33095968
59.305801 69.751709 -0.2073417
59.876789 69.052094 0
53.910706 76.362221 0.44564205
60.370979 68.435616 -0.94484621
60.353043 68.457542 -0.79449266
60.328674 68.487328 -0.64219475
60.315845 68.503006 -0.48497862
60.255928 68.576241 -0.3295185
59.288982 69.758102 -0.20777726
59.890472 69.022926 0
53.892487 76.354042 0.44578704
60.353085 68.446518 -0.94810611
60.363564 68.433739 -0.79103255
60.342587 68.45932 -0.63881856
60.30389 68.5065 -0.48583537
60.247124 68.575714 -0.32980654
59.272137 69.764465 -0.20821282
59.851391 69.058212 0
53.894043 76.321732 0.44506148
60.394794 68.384842 -0.93588394
60.370956 68.413841 -0.78826386
60.343662 68.447037 -0.63769168
60.304974 68.494095 -0.48497862
60.254738 68.555191 -0.32865337
59.304779 69.710579 -0.20647115
59.888252 69.000931 0
53.872566 76.317535 0.44535148
60.354927 68.422432 -0.94484621
60.34967 68.42881 -0.79172403
60.325363 68.458298 -0.63994324
60.328934 68.453972 -0.48112732
60.278847 68.51474 -0.32605898
59.297886 69.704903 -0.20647115
59.875599 69.003983 0
53.857693 76.30529 0.44535148
60.362667 68.396782 -0.94077218
60.344845 68.41832 -0.79103255
60.330246 68.435974 -0.63769168
60.314327 68.455215 -0.48198241
60.260773 68.519951 -0.32692415
59.264362 69.724403 -0.20748727
59.969376 68.872185 0
50.705128 80.07074 0.58250147
60.398376 68.342918 -0.9301784
60.339508 68.413902 -0.79103255
60.363815 68.384598 -0.63093704
60.318768 68.438911 -0.48069975
60.245403 68.527374 -0.32778931
59.260773 69.714668 -0.2073417
59.850529 69.003525 0
50.768654 79.954659 0.5788731
60.310974 68.437386 -0.95136595
60.340588 68.401764 -0.78964955
60.352016 68.388023 -0.63206393
60.313408 68.434464 -0.48069975
60.253166 68.506927 -0.32663614
59.230614 69.736916 -0.20835783
59.884415 68.950478 0
51.244377 79.343254 0.55724859
60.318275 68.41774 -0.94810611
60.325645 68.408897 -0.79172403
60.343468 68.387512 -0.63262624
60.311337 68.426064 -0.4802722
60.244415 68.506363 -0.32692415
59.243641 69.707199 -0.20748727
59.928425 68.885521 0
51.332314 79.200081 0.55260414
60.354137 68.363976 -0.93751234
60.352482 68.365952 -0.78480375
60.338169 68.383087 -0.63262624
60.31258 68.413712 -0.47941545
60.265503 68.470062 -0.3246178
59.24342 69.693466 -0.20719671
59.8391 68.980453 0
53.139759 76.999336 0.47307214
60.399647 68.298927 -0.92447287
60.353661 68.353844 -0.78341806
60.342667 68.366966 -0.63093704
60.297359 68.421066 -0.48069975
60.250137 68.477448 -0.32548296
59.179821 69.75544 -0.20966394
57.680965 71.54512 0
53.127407 76.982208 0.47292659
60.365852 68.328644 -0.9318068
60.380657 68.311012 -0.77649778
60.314518 68.389793 -0.6348778
60.315132 68.389061 -0.47770357
60.248066 68.468941 -0.32519385
59.182899 69.737671 -0.20922838
57.631691 71.58532 0
53.238701 76.817825 0.46741158
60.386078 68.294014 -0.92529017
60.368984 68.314323 -0.77788347
60.345215 68.342567 -0.62868553
60.313133 68.380684 -0.47727603
60.265976 68.436714 -0.32317662
59.182655 69.7239 -0.20893838
57.649345 71.545761 0
64 64 0
60.390457 68.278305 -0.92284453
60.383194 68.286911 -0.77372915
60.336681 68.342041 -0.62925005
60.307842 68.376221 -0.47727603
60.257286 68.43615 -0.32346463
59.132179 69.769707 -0.21082506
57.667084 71.506256 0
64 64 0
60.388481 68.270164 -0.92203033
60.378014 68.282539 -0.77372915
60.351135 68.314323 -0.62587166
60.31913 68.352165 -0.47513658
60.245239 68.439529 -0.32404178
59.168839 69.712242 -0.20893838
57.614323 71.550255 0
64 64 0
60.34177 68.314812 -0.9326241
60.385822 68.262848 -0.77096051
60.342628 68.313797 -0.62643617
60.310558 68.351624 -0.47556415
60.243233 68.43103 -0.32375267
59.168667 69.698463 -0.20864782
57.595104 71.554451 0
64 64 0
60.365364 68.276497 -0.92529017
60.370922 68.269958 -0.77303767
60.363747 68.278397 -0.6219331
60.321922 68.327606 -0.47342473
60.237885 68.426491 -0.32375267
60.376682 68.263176 -0.15625539
57.602844 71.526863 0
64 64 0
60.360203 68.272095 -0.92529017
60.352749 68.280846 -0.77580631
60.375069 68.254646 -0.61911702
60.333344 68.303619 -0.47128528
60.256012 68.394386 -0.32173544
60.331089 68.306267 -0.15799707
57.65451 71.447823 0
53.533623 76.284576 0.4507215
60.37431 68.24514 -0.92039883
60.386684 68.230652 -0.76750034
60.353416 68.2696 -0.6219331
60.311478 68.318703 -0.47342473
60.237267 68.405594 -0.32288861
60.342762 68.282074 -0.15727152
57.594807 71.499519 0
53.478287 76.319344 0.45246318
60.369183 68.240753 -0.92039883
60.381577 68.22628 -0.76750034
60.348263 68.26519 -0.6219331
60.292904 68.329849 -0.47513658
60.238682 68.393181 -0.32231146
60.351109 68.261864 -0.15669096
57.568825 71.511536 0
53.372162 76.413193 0.45638153
60.367279 68.232613 -0.91958463
60.337257 68.267593 -0.77580631
60.353043 68.249199 -0.62024391
60.321121 68.2864 -0.4708561
60.246853 68.372932 -0.32115829
60.329044 68.277168 -0.15741652
57.597046 71.460312 0
