# .PCD v0.7 - Point Cloud Data file format
VERSION 0.7
FIELDS x y z
SIZE 4 4 4
TYPE F F F
COUNT 1 1 1
WIDTH 1777
HEIGHT 1
VIEWPOINT 0 0 0 1 0 0 0
POINTS 1777
DATA ascii
70.71637 58.228497 0
70.945107 58.03194 0.25573993
64 64 -0
64 64 -0
64 64 -0
70.563049 58.374023 -0.72057027
70.486168 58.439926 -0.47611284
70.569771 58.368259 -0.24166824
70.723343 58.236618 0
70.936531 58.053867 0.25515938
64 64 -0
64 64 -0
64 64 -0
70.565941 58.385292 -0.72014272
70.500755 58.441036 -0.47668999
70.580536 58.372814 -0.24181379
70.706573 58.265038 0
70.947655 58.058876 0.25530437
64 64 -0
64 64 -0
64 64 -0
70.568817 58.396557 -0.71971518
70.515327 58.442188 -0.47726601
70.57151 58.39426 -0.24123324
70.697655 58.286655 0
70.942963 58.0774 0.25486884
64 64 -0
64 64 -0
64 64 -0
70.56385 58.414486 -0.71843088
70.494476 58.473522 -0.47524881
70.582237 58.398842 -0.24137823
70.696617 58.301506 0
70.942207 58.092522 0.25457883
64 64 -0
64 64 -0
64 64 -0
70.574524 58.419086 -0.71886003
70.505089 58.478027 -0.47553682
70.585037 58.410156 -0.24123324
70.699539 58.312965 0
70.949341 58.100914 0.25457883
64 64 -0
64 64 -0
64 64 -0
70.549911 58.453579 -0.71543634
70.499908 58.495926 -0.47467166
70.591789 58.418118 -0.24123324
70.682579 58.34124 0
70.948524 58.116039 0.25428826
64 64 -0
64 64 -0
64 64 -0
70.572304 58.448242 -0.71714818
70.490746 58.517136 -0.47351849
70.586617 58.43615 -0.24079768
70.701324 58.339252 0
70.94371 58.134502 0.2538527
64 64 -0
64 64 -0
64 64 -0
70.547592 58.482655 -0.71372443
70.47364 58.544975 -0.4717893
70.589363 58.44746 -0.24065268
70.700211 58.354057 0
70.946823 58.146244 0.25370771
64 64 -0
64 64 -0
64 64 -0
70.542465 58.500484 -0.71244013
70.476273 58.556126 -0.47150126
70.584129 58.465462 -0.24021712
70.707024 58.362156 0
70.95787 58.151299 0.2538527
64 64 -0
64 64 -0
64 64 -0
70.545174 58.511692 -0.71201259
70.490761 58.557316 -0.47207731
70.578865 58.48344 -0.23978156
70.713837 58.370262 0
70.95697 58.166382 0.25356272
64 64 -0
64 64 -0
70.536049 58.53278 -0.71030068
70.48941 58.571793 -0.47150126
70.585526 58.491394 -0.23978156
70.720634 58.37838 0
70.96402 58.174793 0.25356272
64 64 -0
64 64 -0
70.530815 58.550552 -0.70901638
70.491974 58.582962 -0.47121215
70.588188 58.502682 -0.23963657
70.719421 58.393181 0
70.951103 58.19986 0.25283715
64 64 -0
64 64 -0
70.52951 58.56501 -0.70816129
70.510452 58.580879 -0.47207731
70.602821 58.50399 -0.23992713
70.682198 58.437923 0
70.930145 58.231537 0.25182104
64 64 -0
64 64 -0
70.540024 58.569626 -0.70858884
70.497101 58.60527 -0.47063613
70.601456 58.51862 -0.23963657
70.700912 58.436035 0
70.957092 58.22332 0.25254658
64 64 -0
64 64 -0
70.546577 58.577534 -0.70858884
70.499634 58.616421 -0.47034812
70.596062 58.536549 -0.23920101
70.695618 58.454086 0
70.944061 58.248302 0.25182104
64 64 -0
64 64 -0
70.541252 58.595261 -0.70730454
70.510117 58.620987 -0.47063613
70.598656 58.547829 -0.23905601
70.698288 58.465508 0
70.967033 58.243454 0.25240159
64 64 -0
64 64 -0
70.539139 58.61692 -0.70602024
70.49189 58.655811 -0.4686178
70.584457 58.579609 -0.23818545
70.700279 58.484268 0
70.961403 58.269302 0.25182104
64 64 -0
64 64 -0
70.545639 58.624825 -0.70602024
70.494354 58.666939 -0.46832979
70.595016 58.584274 -0.23833045
70.71096 58.489067 0
70.968323 58.277718 0.25182104
64 64 -0
64 64 -0
70.532272 58.649002 -0.70388079
70.500793 58.674789 -0.46832979
70.593521 58.598827 -0.23804045
70.693459 58.516964 0
70.967201 58.292725 0.25153103
64 64 -0
64 64 -0
70.53476 58.660145 -0.70345324
70.499214 58.68919 -0.46775374
70.604065 58.603512 -0.23818545
70.72023 58.508591 0
70.970055 58.304443 0.25138548
64 64 -0
64 64 -0
70.545189 58.664803 -0.70388079
70.489594 58.710121 -0.46660057
70.598495 58.621349 -0.23774989
70.698616 58.539738 0
70.948746 58.335846 0.25036991
64 64 -0
64 64 -0
70.551628 58.672714 -0.70388079
70.512032 58.70491 -0.46775374
70.61306 58.622765 -0.23804045
70.701172 58.551117 0
70.967674 58.334419 0.2508049
64 64 -0
64 64 -0
70.55806 58.680634 -0.70388079
70.514397 58.716049 -0.46746463
70.607437 58.640583 -0.23760489
70.695618 58.569057 0
70.970482 58.346115 0.25065991
64 64 -0
64 64 -0
70.560493 58.691788 -0.70345324
70.50872 58.733677 -0.46660057
70.61795 58.645306 -0.23774989
70.698135 58.580421 0
70.949036 58.377411 0.24964435
64 64 -0
64 64 -0
70.558922 58.706161 -0.70259809
70.511047 58.744804 -0.46631145
70.608238 58.666359 -0.23716934
70.69252 58.598331 0
70.947731 58.392349 0.2493538
64 64 -0
64 64 -0
70.577301 58.704441 -0.70388079
70.505318 58.762398 -0.46544743
70.602531 58.684128 -0.23673378
70.699043 58.606422 0
70.962608 58.394222 0.24964435
64 64 -0
64 64 -0
70.579697 58.715607 -0.70345324
70.507591 58.773514 -0.46515828
70.613007 58.688847 -0.23687933
70.713684 58.607994 0
70.957214 58.412407 0.24920879
64 64 -0
64 64 -0
70.56604 58.739609 -0.70131379
70.501801 58.791073 -0.46429425
70.607254 58.706593 -0.23644377
70.699883 58.632378 0
70.955841 58.427322 0.24891824
64 64 -0
64 64 -0
70.552345 58.763569 -0.6991744
70.508095 58.798931 -0.46429425
70.61364 58.714581 -0.23644377
70.710426 58.637234 0
70.96257 58.43573 0.24891824
64 64 -0
64 64 -0
70.574722 58.758686 -0.70088625
70.518417 58.803577 -0.46458226
70.603767 58.735535 -0.23586322
70.704689 58.655083 0
70.965225 58.447384 0.24877325
64 64 -0
64 64 -0
70.56498 58.779419 -0.6991744
70.512535 58.821121 -0.4637171
70.601982 58.749992 -0.23557267
70.698936 58.672897 0
70.955666 58.468742 0.24819268
64 64 -0
64 64 -0
70.563232 58.793739 -0.69831765
70.51474 58.832207 -0.46342909
70.604256 58.7612 -0.23542766
70.680893 58.700409 0
70.962341 58.47715 0.24819268
64 64 -0
64 64 -0
70.557434 58.811237 -0.69703329
70.525032 58.836876 -0.4637171
70.61058 58.769184 -0.23542766
70.699539 58.698792 0
70.956795 58.495232 0.24775769
64 64 -0
64 64 -0
70.572655 58.805645 -0.69831765
70.515991 58.85043 -0.46285304
70.613739 58.773178 -0.23542766
70.694565 58.709301 0
70.968262 58.492996 0.24804768
64 64 -0
64 64 -0
70.558769 58.829479 -0.6961782
70.510017 58.86792 -0.46198791
70.607819 58.790817 -0.23499265
70.709137 58.710945 0
70.962669 58.511078 0.24761212
64 64 -0
64 64 -0
70.552902 58.846931 -0.6948939
70.504005 58.885384 -0.46112275
70.593666 58.814877 -0.23426655
70.703239 58.72871 0
70.981552 58.509853 0.24804768
64 64 -0
64 64 -0
70.563179 58.851677 -0.69532311
70.506119 58.896435 -0.46083474
70.624474 58.803596 -0.23513766
70.693222 58.749664 0
70.988182 58.518291 0.24804768
64 64 -0
64 64 -0
70.565338 58.862785 -0.6948939
70.50412 58.910683 -0.46025759
70.589806 58.843636 -0.23368599
70.711868 58.748131 0
70.994797 58.526741 0.24804768
64 64 -0
64 64 -0
70.547264 58.889668 -0.6923269
70.506195 58.921726 -0.45996958
70.612419 58.838814 -0.23426655
70.718208 58.756241 0
70.972725 58.557583 0.24703157
64 64 -0
64 64 -0
70.537231 58.910198 -0.69061506
70.500076 58.939129 -0.45910442
70.606361 58.856373 -0.23383154
70.728645 58.761169 0
70.979301 58.56601 0.24703157
64 64 -0
64 64 -0
70.543373 58.918102 -0.69061506
70.498024 58.953327 -0.4585284
70.608459 58.867558 -0.23368599
70.689743 58.804428 0
70.973557 58.584003 0.24659657
64 64 -0
64 64 -0
70.541389 58.932308 -0.6897583
70.508202 58.958015 -0.45881641
70.602341 58.885086 -0.23325099
70.696014 58.812515 0
70.97187 58.598804 0.24630602
64 64 -0
64 64 -0
70.551582 58.937065 -0.69018745
70.506111 58.972202 -0.45824039
70.612625 58.889893 -0.23339598
70.698166 58.823788 0
70.970177 58.613583 0.24601601
64 64 -0
64 64 -0
70.533287 58.963799 -0.68761885
70.487595 58.999023 -0.45651007
70.614685 58.901054 -0.23325099
70.700294 58.83506 0
70.964333 58.631531 0.24558045
64 64 -0
64 64 -0
70.539368 58.971699 -0.68761885
70.489532 59.010017 -0.45622206
70.608475 58.918556 -0.23281543
70.690025 58.85585 0
70.97493 58.636784 0.24572545
64 64 -0
64 64 -0
70.541367 58.982723 -0.68719131
70.483238 59.027309 -0.4553569
70.598114 58.939198 -0.23223487
70.696236 58.863937 0
70.985519 58.642056 0.24587046
64 64 -0
64 64 -0
70.547424 58.990631 -0.68719131
70.481033 59.041428 -0.45478088
70.604225 58.947174 -0.23223487
70.690033 58.881523 0
70.983742 58.656811 0.24558045
64 64 -0
64 64 -0
70.533073 59.014118 -0.68505186
70.47879 59.055546 -0.45420372
70.593803 58.96777 -0.23165432
70.704498 58.883289 0
70.986069 58.668404 0.24543545
64 64 -0
64 64 -0
70.518669 59.03756 -0.68291247
70.476532 59.069637 -0.45362771
70.624695 58.956848 -0.23252542
70.685822 58.910316 0
70.98423 58.683147 0.24514489
64 64 -0
64 64 -0
70.528748 59.042339 -0.68334001
70.482483 59.077465 -0.45362771
70.622498 58.971146 -0.23223487
70.716843 58.899506 0
70.974091 58.704163 0.24456434
64 64 -0
64 64 -0
70.493813 59.081226 -0.67906117
70.484314 59.088425 -0.4533397
70.607864 58.994839 -0.23150931
70.681503 58.93906 0
70.976349 58.715729 0.24441934
64 64 -0
64 64 -0
70.529526 59.060383 -0.68248326
70.474899 59.101707 -0.45247453
70.610886 58.998833 -0.23150931
70.688721 58.939949 0
70.979538 58.719944 0.24441934
64 64 -0
64 64 -0
70.531395 59.071365 -0.68205571
70.489059 59.10331 -0.45305055
70.621063 59.003696 -0.23165432
70.698982 58.944901 0
70.981766 58.73151 0.24427433
64 64 -0
64 64 -0
70.533249 59.082344 -0.68162811
70.482582 59.120476 -0.45218652
70.614639 59.02108 -0.23121876
70.688446 58.965523 0
70.967369 58.755573 0.24354878
64 64 -0
64 64 -0
70.510437 59.111824 -0.67863196
70.48848 59.128315 -0.45218652
70.591568 59.050911 -0.2302032
70.682037 58.982986 0
70.98201 58.757759 0.24383877
64 64 -0
64 64 -0
70.512238 59.122768 -0.67820442
70.481934 59.145462 -0.45132136
70.593376 59.062 -0.23005764
70.704758 58.97858 0
70.959213 58.78801 0.24282266
64 64 -0
64 64 -0
64 64 -0
70.530464 59.121422 -0.67948872
70.467079 59.168777 -0.44988018
70.607674 59.063744 -0.2303482
70.689972 59.002258 0
70.978004 58.78709 0.24325822
64 64 -0
64 64 -0
64 64 -0
70.532242 59.132378 -0.67906117
70.485359 59.167316 -0.45074531
70.609467 59.074837 -0.2302032
70.691841 59.013454 0
70.980133 58.798626 0.24311322
64 64 -0
64 64 -0
64 64 -0
70.521637 59.152527 -0.67734927
70.478729 59.184418 -0.44988018
70.598732 59.095226 -0.22962263
70.697861 59.021542 0
70.978065 58.813271 0.24282266
64 64 -0
64 64 -0
64 64 -0
70.515114 59.169586 -0.67606497
70.480392 59.195328 -0.44959217
70.608826 59.100113 -0.22976764
70.695503 59.035847 0
70.963455 58.837181 0.24209711
64 64 -0
64 64 -0
70.52095 59.177464 -0.67606497
70.494507 59.197014 -0.45016819
70.593849 59.123547 -0.22904208
70.684753 59.05632 0
70.969688 58.845596 0.24209711
64 64 -0
64 64 -0
70.530899 59.182301 -0.67649251
70.483658 59.217152 -0.44901502
70.591362 59.137695 -0.22875153
70.65303 59.092205 0
70.955002 58.869446 0.24137154
64 64 -0
64 64 -0
70.516037 59.205406 -0.67435312
70.489426 59.224987 -0.44901502
70.601433 59.142574 -0.22889708
70.671539 59.090992 0
70.982124 58.862457 0.24209711
64 64 -0
64 64 -0
70.542519 59.198097 -0.67649251
70.478516 59.245075 -0.44786185
70.598907 59.156708 -0.22860652
70.673271 59.102131 0
70.975769 58.880112 0.2416621
64 64 -0
64 64 -0
70.531746 59.218136 -0.67478067
70.492607 59.246788 -0.448439
70.592171 59.173901 -0.22817096
70.670776 59.116356 0
70.969368 58.897758 0.24122655
64 64 -0
64 64 -0
70.520935 59.238144 -0.67306876
70.477448 59.269901 -0.44699669
70.589615 59.187992 -0.22788097
70.689285 59.115208 0
70.983917 58.900059 0.24151655
64 64 -0
64 64 -0
70.518394 59.252068 -0.67221367
70.4748 59.283817 -0.44642067
70.587013 59.202084 -0.22759041
70.66153 59.147808 0
70.977478 58.917671 0.24108155
64 64 -0
64 64 -0
70.507507 59.272018 -0.67050183
70.480499 59.291641 -0.44642067
70.592804 59.210045 -0.22759041
70.688431 59.140568 0
70.975197 58.93222 0.24079099
64 64 -0
64 64 -0
70.531136 59.260876 -0.67264122
70.474976 59.301628 -0.44584462
70.578888 59.226227 -0.22701041
70.691368 59.144608 0
70.969856 58.942535 0.24050099
64 64 -0
64 64 -0
70.524376 59.277805 -0.67135692
70.489021 59.303398 -0.44642067
70.572021 59.243324 -0.22657485
70.684593 59.161846 0
70.959122 58.963146 0.23992044
64 64 -0
70.534241 59.282692 -0.67178446
70.490501 59.314266 -0.44613266
70.577766 59.251266 -0.22657485
70.694649 59.166882 0
70.960991 58.974598 0.23977543
64 64 -0
70.527443 59.29958 -0.67050183
70.491966 59.32513 -0.44584462
70.600365 59.24707 -0.2271554
70.658241 59.205395 0
70.971275 58.97998 0.23992044
64 64 -0
70.524773 59.313469 -0.66964507
70.485001 59.342037 -0.44497949
70.580772 59.273247 -0.2262843
70.672493 59.207367 0
70.947784 59.009632 0.23890431
64 64 -0
70.538788 59.315369 -0.67050183
70.503242 59.340836 -0.44584462
70.56958 59.293308 -0.22570373
70.665581 59.224529 0
70.962265 59.011971 0.23919487
64 64 -0
70.527733 59.335213 -0.66878992
70.479401 59.369751 -0.44382632
70.571037 59.304268 -0.22555873
70.684052 59.223503 0
70.980957 59.011333 0.23962988
64 64 -0
70.512466 59.358002 -0.66665053
70.480782 59.380585 -0.44353831
70.568253 59.318237 -0.22526874
70.660149 59.252735 0
70.965828 59.034851 0.23890431
64 64 -0
70.501328 59.377773 -0.66493863
70.482132 59.391422 -0.44324917
70.552727 59.341232 -0.22454317
70.67437 59.254749 0
70.959114 59.052307 0.23846875
64 64 -0
70.502708 59.388611 -0.66450942
70.487694 59.399261 -0.44324917
70.55835 59.349152 -0.22454317
70.667358 59.271851 0
70.960846 59.063725 0.23832376
64 64 -0
70.51667 59.390537 -0.66536617
70.501701 59.401123 -0.44382632
70.559715 59.360092 -0.22439761
70.664574 59.285919 0
70.949837 59.084141 0.2377432
64 64 -0
70.519386 59.412212 -0.66450942
70.500107 59.425781 -0.44296116
70.583664 59.366982 -0.22483318
70.654655 59.317024 0
70.931961 59.12188 0.23672764
64 64 -0
70.503914 59.434837 -0.66237003
70.488693 59.445526 -0.44180799
70.567993 59.389866 -0.22410762
70.660309 59.325066 0
70.942101 59.127274 0.23687264
64 64 -0
70.526253 59.430923 -0.66408187
70.494186 59.453369 -0.44180799
70.577805 59.394829 -0.22425261
70.657433 59.339085 0
70.930954 59.147591 0.23629208
64 64 -0
70.51915 59.44762 -0.66279924
70.495438 59.46418 -0.44151998
70.566322 59.41468 -0.22367206
70.645988 59.359051 0
70.928284 59.161922 0.23600152
64 64 -0
70.533066 59.449638 -0.66365433
70.500916 59.472031 -0.44151998
70.563339 59.428551 -0.22338206
70.668671 59.355186 0
70.93412 59.1703 0.23600152
64 64 -0
70.538559 59.457535 -0.66365433
70.497894 59.485786 -0.44094393
70.564575 59.439461 -0.2232365
70.665726 59.36919 0
70.927162 59.187569 0.23556653
64 64 -0
70.507553 59.484901 -0.66023058
70.496361 59.492672 -0.44065481
70.554535 59.452305 -0.22280151
70.651413 59.385086 0
70.912987 59.203602 0.23498596
64 64 -0
70.508789 59.495686 -0.65980303
70.489052 59.509346 -0.43979079
70.568565 59.454319 -0.2230915
70.648438 59.399048 0
70.92305 59.209007 0.23513097
64 64 -0
70.493103 59.518135 -0.65766358
70.502975 59.511318 -0.4403668
70.544106 59.482929 -0.22207539
70.636856 59.418911 0
70.898888 59.238041 0.23411486
64 64 -0
70.519653 59.511429 -0.65980303
70.495613 59.527981 -0.43950164
70.553856 59.487885 -0.22222094
70.655251 59.418076 0
70.90036 59.249325 0.23396985
64 64 -0
70.512375 59.52803 -0.65851873
70.501007 59.535835 -0.43950164
70.559303 59.495804 -0.22222094
70.652191 59.432018 0
70.901817 59.260605 0.23382485
64 64 -0
70.522003 59.533005 -0.65894628
70.514946 59.537842 -0.44007879
70.556152 59.509613 -0.22193038
70.636238 59.454762 0
70.920403 59.260136 0.23426041
64 64 -0
70.518921 59.546677 -0.65809119
70.507507 59.554474 -0.43921363
70.574455 59.508739 -0.22236595
70.646019 59.45985 0
70.921822 59.271442 0.23411486
64 64 -0
70.515808 59.560345 -0.65723443
70.500046 59.571079 -0.43834847
70.554115 59.534241 -0.22149539
70.629997 59.482536 0
70.914658 59.288578 0.23367985
64 64 -0
70.504196 59.57975 -0.65552419
70.509689 59.576023 -0.43863761
70.546608 59.55093 -0.22105983
70.656975 59.475925 0
70.937538 59.285252 0.23426041
64 64 -0
70.518028 59.58186 -0.65637928
70.497902 59.595501 -0.43748444
70.551979 59.558842 -0.22105983
70.6409 59.498573 0
70.921707 59.308228 0.23353429
64 64 -0
70.514862 59.595482 -0.65552419
70.50322 59.603355 -0.43748444
70.55304 59.569672 -0.22091483
70.642021 59.509514 0
70.935989 59.310768 0.23382485
64 64 -0
70.507401 59.611973 -0.65423989
70.508522 59.611217 -0.43748444
70.558388 59.577591 -0.22091483
70.664703 59.505901 0
70.928726 59.327869 0.23338929
64 64 -0
70.52121 59.614113 -0.65509498
70.518112 59.616199 -0.43777245
70.559402 59.588428 -0.22076927
70.635582 59.537197 0
70.925751 59.342041 0.2330993
64 64 -0
70.526505 59.621994 -0.65509498
70.514801 59.629848 -0.4371953
70.569054 59.593452 -0.22091483
70.619354 59.559711 0
70.92704 59.353317 0.23295374
64 64 -0
70.58213 59.596207 -0.87719834
70.531792 59.629887 -0.65509498
70.524391 59.634838 -0.43748444
70.59597 59.586948 -0.22164039
70.63768 59.55904 0
70.924019 59.367462 0.23266374
64 64 -0
70.536728 59.638012 -0.8704437
70.524269 59.64632 -0.65381229
70.529663 59.642723 -0.43748444
70.584007 59.606461 -0.22105983
70.630066 59.575722 0
70.925293 59.378716 0.23251873
64 64 -0
70.563141 59.631836 -0.87325764
70.516701 59.662746 -0.65252799
70.51339 59.664948 -0.43604323
70.576324 59.623058 -0.22062427
70.65274 59.572201 0
70.939522 59.381332 0.23280874
64 64 -0
70.574249 59.630173 -0.87438446
70.519318 59.666683 -0.65252799
70.511688 59.671753 -0.43575412
70.557335 59.641415 -0.21989872
70.638077 59.587746 0
70.942307 59.385525 0.23280874
64 64 -0
70.566811 59.646545 -0.87269527
70.541664 59.663216 -0.65423989
70.508301 59.685337 -0.4351781
70.562592 59.649342 -0.21989872
70.647736 59.592896 0
70.93055 59.405403 0.23222817
64 64 -0
70.567833 59.657284 -0.8721329
70.491234 59.707932 -0.64867669
70.526459 59.684639 -0.43604323
70.593849 59.640083 -0.22076927
70.653061 59.600933 0
70.944778 59.408043 0.23251873
64 64 -0
70.564583 59.670822 -0.87100607
70.509262 59.707306 -0.64995939
70.523026 59.698231 -0.43546611
70.581757 59.659496 -0.22018871
70.658371 59.608974 0
70.954651 59.413582 0.23266374
64 64 -0
70.5401 59.698299 -0.86706752
70.505867 59.720814 -0.64910424
70.523895 59.708954 -0.4351781
70.586998 59.66745 -0.22018871
70.668015 59.614166 0
70.942825 59.433411 0.23208317
64 64 -0
70.583534 59.681118 -0.8721329
70.511032 59.728676 -0.64910424
70.53772 59.711174 -0.43575412
70.583549 59.68111 -0.21989872
70.63414 59.647919 0
70.943993 59.444649 0.23193818
64 64 -0
70.605759 59.677948 -0.87438446
70.511902 59.739357 -0.64867669
70.534248 59.724735 -0.4351781
70.558311 59.708988 -0.21888259
70.639397 59.655937 0
70.932098 59.464424 0.23135762
64 64 -0
70.576927 59.708149 -0.86988139
70.508438 59.752846 -0.64781994
70.53508 59.735458 -0.43489009
70.580902 59.705555 -0.21946315
70.666435 59.649742 0
70.946274 59.467129 0.23164763
64 64 -0
70.590622 59.71056 -0.87100607
70.509262 59.763512 -0.64739239
70.535881 59.746185 -0.43460095
70.590439 59.710678 -0.21960816
70.658607 59.666309 0
70.943039 59.48119 0.23135762
64 64 -0
70.604332 59.71299 -0.8721329
70.527298 59.762989 -0.64867669
70.523659 59.765354 -0.43344778
70.578201 59.72995 -0.21902816
70.646378 59.685696 0
70.957207 59.483929 0.23164763
64 64 -0
70.618027 59.715454 -0.87325764
70.532417 59.770878 -0.64867669
70.515755 59.781666 -0.43258375
70.552811 59.757675 -0.21801203
70.651588 59.693729 0
70.953941 59.497982 0.23135762
64 64 -0
70.61467 59.728962 -0.8721329
70.520271 59.789917 -0.64696485
70.507812 59.797962 -0.43171859
70.55793 59.765598 -0.21801203
70.661156 59.698948 0
70.933174 59.523308 0.2304865
64 64 -0
70.615555 59.739708 -0.87157059
70.503777 59.811691 -0.6448254
70.512878 59.805828 -0.43171859
70.549934 59.781967 -0.21757647
70.666344 59.707001 0
70.942955 59.528866 0.23063207
64 64 -0
70.607872 59.755943 -0.86988139
70.504494 59.822338 -0.64439619
70.517944 59.813702 -0.43171859
70.555023 59.789886 -0.21757647
70.680275 59.709438 0
70.957092 59.531647 0.23092206
64 64 -0
70.604424 59.769417 -0.86875457
70.496582 59.838501 -0.64311355
70.509926 59.829952 -0.43085343
70.564476 59.79501 -0.21772148
70.685455 59.717514 0
70.936234 59.55687 0.2300515
64 64 -0
70.592422 59.788334 -0.86650515
70.514572 59.83807 -0.64439619
70.514961 59.837822 -0.43085343
70.56955 59.802944 -0.21772148
70.659935 59.745201 0
70.945976 59.562462 0.23019651
64 64 -0
70.601784 59.793575 -0.86706752
70.515274 59.848698 -0.64396864
70.528717 59.840134 -0.43143058
70.561485 59.819256 -0.21728648
70.673843 59.747665 0
70.942558 59.576447 0.22990595
64 64 -0
70.61972 59.793388 -0.86875457
70.515953 59.859325 -0.6435411
70.516273 59.859123 -0.43027741
70.562134 59.829979 -0.21714093
70.687767 59.750141 0
70.952301 59.582043 0.2300515
64 64 -0
70.613686 59.802826 -0.86762983
70.518456 59.863262 -0.6435411
70.540611 59.849201 -0.43171859
70.560265 59.836727 -0.21699592
70.703506 59.745827 0
70.96373 59.580681 0.23034151
64 64 -0
64 64 -0
70.510429 59.879383 -0.6422568
70.528137 59.868176 -0.43056542
70.556519 59.850212 -0.21670592
70.699852 59.759491 0
70.947113 59.602993 0.22961594
64 64 -0
64 64 -0
70.524094 59.881767 -0.64311355
70.524384 59.881584 -0.4299894
70.535149 59.874786 -0.21583481
70.709373 59.764812 0
70.952423 59.611389 0.22961594
64 64 -0
64 64 -0
70.511688 59.900593 -0.64140165
70.529358 59.889469 -0.4299894
70.518143 59.896526 -0.21510924
70.710083 59.775692 0
70.953331 59.622559 0.22947095
64 64 -0
70.60376 59.85376 -0.86368912
70.507935 59.913929 -0.64054489
70.525551 59.90287 -0.42941225
70.540703 59.893353 -0.21568981
70.715179 59.783806 0
70.963013 59.628204 0.22961594
64 64 -0
70.600159 59.86713 -0.86256444
70.517212 59.919075 -0.6409725
70.526115 59.913498 -0.42912424
70.550064 59.898502 -0.21583481
70.693794 59.808502 0
70.963882 59.639374 0.22947095
64 64 -0
70.600845 59.8778 -0.86200207
70.509087 59.935101 -0.6396898
70.526665 59.924126 -0.42883623
70.546204 59.911919 -0.2155448
70.716515 59.805565 0
70.969147 59.647793 0.22947095
64 64 -0
70.601494 59.888474 -0.86143756
70.509636 59.945683 -0.63926226
70.531586 59.932014 -0.42883623
70.559952 59.914345 -0.21583481
70.703903 59.824688 0
70.974403 59.656219 0.22947095
64 64 -0
70.606461 59.89645 -0.86143756
70.514534 59.953548 -0.63926226
70.545273 59.934456 -0.42941225
70.542816 59.935982 -0.21510924
70.704529 59.835537 0
70.9664 59.672878 0.22903539
64 64 -0
70.620056 59.899078 -0.86256444
70.515038 59.964134 -0.63883305
70.545792 59.945087 -0.42912424
70.560982 59.935677 -0.2155448
70.713974 59.8409 0
70.984879 59.673084 0.22947095
64 64 -0
70.612038 59.915096 -0.86087525
70.524292 59.969307 -0.63926226
70.54187 59.958443 -0.42854708
70.565887 59.943607 -0.2155448
70.701302 59.859951 0
70.981255 59.686996 0.2291804
64 64 -0
70.629951 59.915089 -0.86256444
70.533524 59.974503 -0.6396898
70.537949 59.971771 -0.42797107
70.548668 59.965172 -0.21481925
70.701851 59.870789 0
70.98204 59.698158 0.22903539
64 64 -0
70.639206 59.920444 -0.86312675
70.512131 59.998531 -0.6371212
70.525185 59.990509 -0.42681789
70.549095 59.975815 -0.2146737
70.729004 59.865265 0
70.982811 59.709316 0.22889039
64 64 -0
70.622475 59.941746 -0.86031288
70.51696 60.006401 -0.6371212
70.530022 59.998398 -0.42681789
70.536232 59.994595 -0.21409313
70.711815 59.886997 0
70.987984 59.717754 0.22889039
64 64 -0
70.627373 59.949749 -0.86031288
70.513031 60.01963 -0.63626605
70.539261 60.003593 -0.4271059
70.536636 60.005203 -0.21394813
70.72123 59.892387 0
70.979851 59.734337 0.22845483
64 64 -0
70.64093 59.952477 -0.86143756
70.51783 60.0275 -0.63626605
70.535263 60.016876 -0.42652988
70.545891 60.010399 -0.21409313
70.721733 59.903229 0
70.97168 59.750889 0.22801927
64 64 -0
70.632797 59.968414 -0.85975057
70.505081 60.046047 -0.63455421
70.535637 60.027473 -0.42624074
70.537399 60.026402 -0.21365814
70.713348 59.919456 0
70.967934 59.764709 0.22772928
64 64 -0
70.646347 59.971169 -0.86087525
70.492287 60.064556 -0.6328423
70.540436 60.03537 -0.42624074
70.53775 60.036995 -0.21351314
70.709366 59.932972 0
70.977486 59.770439 0.22787428
64 64 -0
70.646866 59.981827 -0.86031288
70.510223 60.06443 -0.63412666
70.54966 60.040592 -0.42652988
70.546982 60.042213 -0.21365814
70.72319 59.935692 0
70.987038 59.776188 0.22801927
64 64 -0
70.614487 60.006855 -0.85580981
70.521385 60.063065 -0.63498175
70.534332 60.055244 -0.42537671
70.553818 60.043488 -0.21380313
70.716721 59.945137 0
70.980698 59.785778 0.22772928
64 64 -0
70.619308 60.014851 -0.85580981
70.534943 60.065647 -0.63583851
70.525795 60.071152 -0.42451155
70.536331 60.064808 -0.21307757
70.721619 59.953259 0
70.981339 59.796894 0.22758427
64 64 -0
70.606697 60.033314 -0.85355824
70.530876 60.078835 -0.63498175
70.534973 60.076378 -0.42479956
70.536629 60.075382 -0.21293257
70.722046 59.964058 0
70.981941 59.808014 0.22743872
64 64 -0
70.56826 60.077953 -0.84736598
70.505074 60.115685 -0.631558
70.522232 60.105438 -0.42335838
70.519318 60.107182 -0.21206146
70.745186 59.972305 0
70.996529 59.822227 0.22758427
64 64 -0
70.56427 60.091087 -0.8462413
70.492111 60.134056 -0.62984616
70.549149 60.100094 -0.42479956
70.528473 60.112404 -0.21220645
70.727676 59.993782 0
70.983711 59.84132 0.22700371
64 64 -0
70.555878 60.106808 -0.8445521
70.510025 60.134037 -0.63113046
70.522736 60.126492 -0.42278236
70.546577 60.112331 -0.21264201
70.728043 60.00457 0
70.979782 59.855072 0.22671315
70.586823 60.099194 -0.84793049
70.505867 60.147133 -0.63027537
70.536301 60.129108 -0.42335838
70.55127 60.120243 -0.21264201
70.706001 60.02861 0
70.980324 59.866158 0.22656816
64 64 -0
70.560898 60.125244 -0.84398979
70.501671 60.160225 -0.62941861
70.518707 60.150158 -0.4219172
70.538055 60.138733 -0.21206146
70.706314 60.03936 0
70.985313 59.874592 0.22656816
70.561195 60.135754 -0.84342742
70.51516 60.162865 -0.63027537
70.532265 60.152794 -0.42249322
70.551682 60.141357 -0.21235202
70.720062 60.042191 0
70.976852 59.890953 0.2261326
64 64 -0
70.561485 60.146255 -0.84286511
70.510925 60.175945 -0.62941861
70.527992 60.165924 -0.4219172
70.542892 60.157173 -0.21191646
70.738304 60.0424 0
70.990784 59.894115 0.22642316
70.566139 60.154186 -0.84286511
70.515549 60.183815 -0.62941861
70.519226 60.18166 -0.42105204
70.534073 60.172966 -0.2114809
70.720627 60.063698 0
71.000221 59.89994 0.22656816
70.570778 60.162121 -0.84286511
70.502419 60.202049 -0.62770671
70.537239 60.181709 -0.4219172
70.529724 60.1861 -0.21119089
70.711891 60.0797 0
70.982735 59.921505 0.2258426
70.575409 60.170063 -0.84286511
70.515884 60.204735 -0.62856346
70.519501 60.202629 -0.42047602
70.529839 60.196606 -0.21104591
70.739113 60.074715 0
71.005623 59.919483 0.22642316
70.57563 60.180573 -0.84230059
70.502708 60.222927 -0.62685162
70.528557 60.207912 -0.42076403
70.538925 60.201893 -0.21119089
70.712341 60.101166 0
70.997063 59.935783 0.2259876
70.567055 60.196156 -0.84061354
70.507263 60.230789 -0.62685162
70.52417 60.220993 -0.42018688
70.530014 60.217613 -0.21075535
70.726059 60.104053 0
71.006454 59.941639 0.2261326
70.571648 60.20409 -0.84061354
70.511818 60.238651 -0.62685162
70.515312 60.236633 -0.41932285
70.54808 60.217705 -0.21119089
70.735268 60.109585 0
70.988861 59.963104 0.22540703
70.567413 60.217113 -0.83948672
70.507446 60.251656 -0.62599486
70.52433 60.241932 -0.41961086
70.530136 60.238586 -0.21046534
70.717415 60.130711 0
70.993736 59.97155 0.22540703
70.552078 60.231216 -0.83723515
70.509712 60.255585 -0.62599486
70.535561 60.240719 -0.42018688
70.527885 60.245132 -0.21031979
70.733292 60.126984 0
70.973648 59.988731 0.22468148
70.556625 60.239136 -0.83723515
70.523148 60.258339 -0.62685162
70.531128 60.253761 -0.41961086
70.545952 60.245262 -0.21075535
70.728928 60.140305 0
70.987495 59.991993 0.22497149
70.547928 60.254635 -0.83554596
70.518745 60.271328 -0.62599486
70.50872 60.277061 -0.41788167
70.559509 60.248009 -0.21104591
70.715515 60.158775 0
70.992332 60.000439 0.22497149
70.565697 60.254993 -0.83723515
70.505402 60.289383 -0.62428296
70.522194 60.279808 -0.41845769
70.527924 60.276535 -0.20988479
70.72467 60.164318 0
71.006195 60.003735 0.22526205
70.579063 60.257896 -0.83836198
70.523277 60.289627 -0.62556732
70.504204 60.300476 -0.41701651
70.514351 60.294704 -0.20930423
70.715736 60.180161 0
71.006508 60.014771 0.22511704
70.561462 60.278393 -0.83554596
70.523293 60.300045 -0.62513971
70.504173 60.310886 -0.4167285
70.518822 60.302578 -0.20930423
70.733917 60.18058 0
70.997749 60.030933 0.22468148
70.557121 60.291325 -0.83442128
70.505417 60.320564 -0.62300032
70.508629 60.318748 -0.4167285
70.514229 60.315578 -0.20901367
70.720406 60.198967 0
71.002541 60.039394 0.22468148
70.557175 60.301743 -0.83385891
70.523262 60.320869 -0.62428296
70.508553 60.329166 -0.41643935
70.532265 60.315792 -0.20944923
70.738602 60.199417 0
70.99826 60.052967 0.22439092
70.54834 60.317146 -0.83216971
70.509804 60.338821 -0.62257111
70.503975 60.342098 -0.41586334
70.527641 60.328789 -0.20915867
70.734123 60.212662 0
70.993973 60.066517 0.22410093
70.561661 60.320084 -0.8332966
70.505272 60.351707 -0.62171602
70.512894 60.347431 -0.41615134
70.545677 60.329048 -0.20959423
70.729607 60.225899 0
70.976067 60.087677 0.22337537
70.557228 60.332981 -0.83216971
70.505203 60.362072 -0.62128842
70.508286 60.360352 -0.41557533
70.55011 60.33696 -0.20959423
70.715988 60.244194 0
70.985321 60.093575 0.22352037
70.5439 60.350807 -0.82991821
70.50959 60.369934 -0.62128842
70.517189 60.3657 -0.41586334
70.536369 60.355003 -0.20901367
70.738708 60.242172 0
70.994568 60.099491 0.22366537
70.588272 60.336491 -0.83498359
70.496025 60.387783 -0.61957657
70.521576 60.373577 -0.41586334
70.527145 60.370483 -0.20857811
70.715958 60.265488 0
70.985664 60.115517 0.22323036
70.557137 60.36417 -0.83048052
70.509354 60.390663 -0.62043166
70.512375 60.388988 -0.41499817
70.522438 60.383408 -0.20828812
70.725006 60.271088 0
70.981255 60.129005 0.2229398
70.565987 60.369629 -0.83104503
70.522705 60.393555 -0.62128842
70.489578 60.411873 -0.41326898
70.535896 60.386265 -0.20857811
70.734062 60.276699 0
70.990471 60.13493 0.22308481
70.565903 60.380024 -0.83048052
70.509079 60.411354 -0.61957657
70.50296 60.414726 -0.413845
70.535706 60.396671 -0.20843311
70.738556 60.284836 0
70.995132 60.143379 0.22308481
70.565826 60.390408 -0.82991821
70.495415 60.429115 -0.61786473
70.502762 60.425076 -0.41355699
70.535507 60.407074 -0.20828812
70.747597 60.290478 0
70.995239 60.154335 0.2229398
70.570183 60.398342 -0.82991821
70.513214 60.429573 -0.61914736
70.502548 60.435421 -0.41326898
70.535294 60.417469 -0.20814312
70.706444 60.32365 0
70.986206 60.170288 0.22250426
70.550072 60.414513 -0.82710433
70.501877 60.440895 -0.61786473
70.5047 60.43935 -0.41326898
70.542007 60.418926 -0.20828812
70.704102 60.330196 0
70.956619 60.191971 0.2214887
70.563309 60.417564 -0.82822901
70.506172 60.448753 -0.61786473
70.518066 60.442261 -0.413845
70.541779 60.429321 -0.20814312
70.699379 60.343292 0
70.970329 60.195404 0.22177869
70.563179 60.427925 -0.82766664
70.514961 60.454166 -0.61829227
70.508743 60.45755 -0.41298097
70.541527 60.439709 -0.20799811
70.685509 60.361343 0
70.965805 60.20879 0.2214887
70.56749 60.435856 -0.82766664
70.514732 60.464489 -0.61786473
70.517563 60.462952 -0.41326898
70.545822 60.447617 -0.20799811
70.685333 60.371906 0
70.965797 60.219696 0.22134313
70.585205 60.436539 -0.82935584
70.505447 60.479694 -0.61658037
70.503632 60.480679 -0.41211581
70.540962 60.46048 -0.20770755
70.703445 60.372551 0
70.97036 60.228115 0.22134313
70.567146 60.456558 -0.82654196
70.500671 60.492428 -0.61572528
70.507881 60.488537 -0.41211581
70.536095 60.473316 -0.20741755
70.694077 60.388073 0
70.956635 60.246403 0.22076313
70.566933 60.466911 -0.82597744
70.509422 60.497856 -0.61615282
70.498451 60.503761 -0.41125065
70.540352 60.481216 -0.20741755
70.693855 60.398624 0
70.970306 60.249893 0.22105314
70.548813 60.486858 -0.82316357
70.495552 60.515434 -0.61444098
70.51635 60.504276 -0.41211581
70.558319 60.481758 -0.20785256
70.689041 60.411633 0
70.965683 60.263226 0.22076313
70.562027 60.489975 -0.82429039
70.495232 60.525703 -0.61401343
70.516006 60.514587 -0.4118278
70.557991 60.492134 -0.20770755
70.684181 60.424633 0
70.965599 60.274105 0.22061758
70.561783 60.500298 -0.82372808
70.517548 60.523888 -0.61572528
70.51564 60.524906 -0.41153866
70.548462 60.507401 -0.20727199
70.688499 60.432713 0
70.956352 60.289852 0.22018258
70.566002 60.508228 -0.82372808
70.508141 60.539001 -0.61444098
70.515266 60.53521 -0.41125065
70.534325 60.525074 -0.20669144
70.665237 60.455456 0
70.942474 60.308022 0.21960202
70.556747 60.523308 -0.82203889
70.489639 60.558891 -0.61230153
70.524017 60.540661 -0.41153866
70.556885 60.523235 -0.20727199
70.67411 60.461075 0
70.965302 60.306675 0.22018258
70.569916 60.526489 -0.82316357
70.516479 60.554737 -0.61444098
70.514488 60.555794 -0.41067463
70.556488 60.533588 -0.20712699
70.682983 60.466713 0
70.969757 60.315094 0.22018258
70.578621 60.532051 -0.82372808
70.49794 60.574585 -0.61230153
70.527786 60.558849 -0.41125065
70.546875 60.548786 -0.20669144
70.668823 60.484497 0
70.960411 60.330791 0.21974702
70.569305 60.5471 -0.82203889
70.506615 60.580051 -0.61272907
70.509048 60.57877 -0.40980947
70.541855 60.561527 -0.20640144
70.673073 60.492558 0
70.960243 60.341618 0.21960202
70.573471 60.555038 -0.82203889
70.510742 60.587917 -0.61272907
70.526932 60.57943 -0.41067463
70.550598 60.567024 -0.20654644
70.69574 60.490959 0
70.937027 60.36451 0.2187309
70.573128 60.565334 -0.82147652
70.492111 60.60767 -0.61058968
70.526459 60.589722 -0.41038549
70.54554 60.579754 -0.20625643
70.681526 60.508698 0
70.964439 60.360863 0.21945646
70.568253 60.57798 -0.82034969
70.500755 60.613148 -0.61101723
70.512245 60.607162 -0.40923345
70.563484 60.580467 -0.20669144
70.676514 60.521576 0
70.955017 60.376476 0.21902147
70.558853 60.592949 -0.8186605
70.49572 60.625744 -0.61016047
70.525513 60.610268 -0.40980947
70.549164 60.597984 -0.20611088
70.699188 60.52005 0
70.950165 60.389679 0.2187309
70.569939 60.592228 -0.81978732
70.502327 60.627296 -0.61058968
70.536728 60.609455 -0.41038549
70.565063 60.594761 -0.20654644
70.682808 60.533684 0
70.938515 60.401051 0.2182959
70.565018 60.604843 -0.8186605
70.479027 60.649311 -0.60802102
70.540825 60.617355 -0.41038549
70.559944 60.607464 -0.20625643
70.700851 60.534595 0
70.942856 60.409439 0.2182959
70.578156 60.608116 -0.81978732
70.487633 60.654793 -0.60844862
70.526535 60.634735 -0.40923345
70.564041 60.615395 -0.20625643
70.686531 60.552235 0
70.933334 60.424976 0.21786034
70.577736 60.618389 -0.81922501
70.487106 60.664978 -0.60802102
70.548981 60.633171 -0.41038549
70.563492 60.62571 -0.20611088
70.704582 60.553177 0
70.96537 60.419106 0.2187309
70.577278 60.628662 -0.8186605
70.532249 60.651745 -0.61187232
70.539246 60.648159 -0.40952146
70.562943 60.636013 -0.20596588
70.699486 60.566025 0
70.951187 60.437004 0.21815035
70.572304 60.641235 -0.81753582
70.481445 60.687668 -0.60673839
70.543289 60.656063 -0.40952146
70.553131 60.651031 -0.20553088
70.703629 60.57412 0
70.94162 60.452496 0.21771535
70.598991 60.637646 -0.82034969
70.485443 60.695503 -0.60673839
70.524284 60.675713 -0.40808028
70.557175 60.658951 -0.20553088
70.717033 60.577503 0
70.93663 60.465611 0.2174248
70.58493 60.654827 -0.81809813
70.46653 60.714973 -0.60459733
70.542122 60.676575 -0.40894431
70.561203 60.666878 -0.20553088
70.693329 60.599762 0
70.936272 60.476345 0.21727979
70.570831 60.67197 -0.81584662
70.456764 60.729744 -0.60331464
70.523064 60.696167 -0.40750313
70.555946 60.679508 -0.20524032
70.702072 60.605499 0
70.945152 60.482384 0.2174248
70.579384 60.677624 -0.81640893
70.497375 60.719032 -0.60673839
70.545517 60.694725 -0.4086563
70.583145 60.675724 -0.20596588
70.701523 60.615944 0
70.921577 60.504829 0.21655422
70.574326 60.690144 -0.81528425
70.482994 60.736122 -0.60502648
70.56337 60.695656 -0.40952146
70.568588 60.693027 -0.20538533
70.705612 60.624046 0
70.907227 60.522541 0.21597368
70.569244 60.702644 -0.81415957
70.486931 60.743958 -0.60502648
70.562744 60.705906 -0.40923345
70.572578 60.700966 -0.20538533
70.695724 60.639156 0
70.9207 60.52623 0.21626367
70.581734 60.716263 -0.81472194
70.471802 60.771111 -0.60288543
70.561417 60.726398 -0.4086563
70.608444 60.702934 -0.20625643
70.717804 60.648376 0
70.896538 60.5592 0.21524811
70.576584 60.728748 -0.81359506
70.503288 60.765209 -0.60545409
70.560738 60.736629 -0.40836829
70.593811 60.720181 -0.20567589
70.717194 60.65881 0
70.909988 60.562912 0.21553811
70.5942 60.729919 -0.81528425
70.493385 60.779915 -0.60416973
70.541512 60.75605 -0.40692711
70.574493 60.739693 -0.20495032
70.716545 60.669247 0
70.918785 60.568958 0.21568312
70.607246 60.733391 -0.81640893
70.497269 60.787762 -0.60416973
70.53614 60.768547 -0.40634996
70.573761 60.749947 -0.20480476
70.725243 60.675053 0
70.899643 60.588833 0.21495755
70.574738 60.759342 -0.81190807
70.473526 60.809231 -0.60160279
70.540039 60.776443 -0.40634996
70.600998 60.746399 -0.20553088
70.724579 60.68549 0
70.917747 60.590279 0.21539311
70.583206 60.765049 -0.81247038
70.486588 60.812531 -0.60245788
70.55323 60.779781 -0.40692711
70.581596 60.765842 -0.20480476
70.719246 60.698204 0
70.889206 60.614685 0.214377
70.576027 60.77351 -0.81134355
70.493111 60.81419 -0.60288543
70.545876 60.788303 -0.40634996
70.602211 60.760666 -0.20538533
70.730576 60.697681 0
70.891251 60.618847 0.214377
70.59362 60.774757 -0.81303275
70.478508 60.831062 -0.60117358
70.535805 60.803036 -0.4054848
70.606117 60.768642 -0.20538533
70.729889 60.708103 0
70.871994 60.638592 0.21365143
70.597511 60.782726 -0.81303275
70.482338 60.838894 -0.60117358
70.548973 60.806396 -0.40606195
70.605347 60.778904 -0.20524032
70.710472 60.727642 0
70.885384 60.642345 0.21394144
70.587677 60.797367 -0.81134355
70.481537 60.848969 -0.60074604
70.557472 60.812054 -0.40634996
70.609238 60.786888 -0.20524032
70.72847 60.728924 0
70.903458 60.643848 0.214377
70.6007 60.800892 -0.81247038
70.499207 60.850082 -0.60203034
70.570641 60.815464 -0.40692711
70.61779 60.79261 -0.20538533
70.746452 60.730251 0
70.898163 60.656723 0.21408699
70.604561 60.808872 -0.81247038
70.493752 60.862411 -0.60117358
70.560501 60.830158 -0.40606195
70.607635 60.807388 -0.20495032
70.74572 60.740669 0
70.892838 60.669586 0.21379644
70.585526 60.827877 -0.8096565
70.506798 60.865799 -0.60203034
70.550346 60.844826 -0.40519679
70.583382 60.828911 -0.20407921
70.744965 60.75108 0
70.896851 60.677917 0.21379644
70.621407 60.820446 -0.81359506
70.515205 60.871445 -0.60245788
70.558807 60.850506 -0.4054848
70.610634 60.825619 -0.20480476
70.772346 60.747967 0
70.91024 60.681751 0.21408699
70.59317 60.843803 -0.8096565
70.468056 60.903698 -0.5977515
70.543945 60.867367 -0.40433162
70.591026 60.844826 -0.20407921
70.766891 60.760643 0
70.904861 60.694595 0.21379644
70.596977 60.851772 -0.8096565
70.481049 60.907097 -0.59860659
70.552414 60.873039 -0.40462077
70.604225 60.848312 -0.20436977
70.756699 60.775551 0
70.927612 60.693985 0.214377
70.614532 60.853203 -0.81134355
70.494064 60.910515 -0.59946334
70.560852 60.878738 -0.40490878
70.603325 60.858536 -0.20422421
70.746483 60.790424 0
70.92691 60.70459 0.214232
70.59996 60.869907 -0.80909199
70.497787 60.918362 -0.59946334
70.559944 60.888885 -0.40462077
70.602425 60.86874 -0.20407921
70.764473 60.791885 0
70.921486 60.717419 0.21394144
70.612938 60.873535 -0.81021887
70.515419 60.91964 -0.60074604
70.563705 60.896812 -0.40462077
70.606201 60.87672 -0.20407921
70.758926 60.804516 0
70.930161 60.723557 0.21408699
70.621307 60.879364 -0.81078118
70.495918 60.938457 -0.59860659
70.562752 60.90696 -0.40433162
70.600578 60.889133 -0.2037892
70.748672 60.819336 0
70.938812 60.729721 0.214232
70.625069 60.887367 -0.81078118
70.499619 60.946308 -0.59860659
70.557129 60.919285 -0.40375561
70.618431 60.890488 -0.20422421
70.761917 60.823071 0
70.956871 60.731476 0.21466756
70.642639 60.888905 -0.81247038
70.526543 60.943279 -0.60074604
70.570206 60.922829 -0.40433162
70.608078 60.90509 -0.2037892
70.756332 60.835655 0
70.979645 60.731068 0.21524811
70.614151 60.911983 -0.80852968
70.516289 60.957676 -0.59946334
70.550491 60.941708 -0.40289044
70.611809 60.913078 -0.2037892
70.755424 60.846027 0
70.983589 60.739502 0.21524811
70.613281 60.922119 -0.80796731
70.543228 60.954723 -0.60160279
70.554184 60.949623 -0.40289044
70.634384 60.9123 -0.20436977
70.778107 60.845409 0
70.982796 60.750145 0.21510255
70.619743 60.923977 -0.80852968
70.498497 60.980316 -0.59732229
70.537262 60.962303 -0.40173727
70.631523 60.918503 -0.20422421
70.761131 60.858276 0
70.975342 60.758739 0.21481256
70.605011 60.940521 -0.80627811
70.506813 60.986004 -0.5977515
70.540924 60.970207 -0.40173727
70.639969 60.924328 -0.20436977
70.74131 60.877384 0
70.974541 60.769352 0.21466756
70.622543 60.942112 -0.80796731
70.510452 60.99387 -0.5977515
70.558678 60.971603 -0.40260243
70.643677 60.932354 -0.20436977
70.67421 60.918259 0
70.987869 60.77343 0.21495755
70.630844 60.947994 -0.80852968
70.537392 60.991009 -0.59989089
70.534142 60.992504 -0.40087324
70.647385 60.940384 -0.20436977
70.73465 60.900215 0
70.968163 60.792736 0.214232
70.629913 60.958126 -0.80796731
70.513016 61.011761 -0.59732229
70.547165 60.99609 -0.40144926
70.632179 60.957085 -0.2037892
70.714737 60.919209 0
70.981468 60.796829 0.214522
70.638206 60.964027 -0.80852968
70.52597 61.015358 -0.59817904
70.555489 61.001854 -0.40173727
70.6642 60.952137 -0.20465976
70.675858 60.946804 0
71.004242 60.796619 0.21510255
70.655746 60.965725 -0.81021887
70.548256 61.014725 -0.59989089
70.549706 61.014065 -0.40116125
70.648964 60.968815 -0.20407921
70.674812 60.957031 0
70.975021 60.820171 0.21408699
70.6409 60.982178 -0.80796731
70.533165 61.031136 -0.59817904
70.562714 61.017704 -0.40173727
70.657349 60.974705 -0.20422421
70.711662 60.950024 0
70.99778 60.82 0.21466756
70.649162 60.98811 -0.80852968
70.560127 61.028442 -0.60031843
70.5569 61.029903 -0.40116125
70.642059 60.991325 -0.20364365
70.69162 60.96888 0
71.020554 60.819881 0.21524811
70.625015 61.00869 -0.80515343
70.535645 61.049042 -0.5977515
70.551048 61.042088 -0.4005841
70.645691 60.999355 -0.20364365
70.714256 60.968399 0
70.972282 60.851891 0.21365143
64 64 -0
70.642517 61.010445 -0.80684048
70.534508 61.059055 -0.59732229
70.554619 61.050007 -0.4005841
70.654068 61.005249 -0.2037892
70.713173 60.978649 0
70.98555 60.856056 0.21394144
70.655403 61.014309 -0.80796731
70.538055 61.066952 -0.59732229
70.562912 61.055805 -0.40087324
70.657677 61.01329 -0.2037892
70.655083 61.014454 0
70.975136 60.870876 0.21350645
70.626534 61.036877 -0.80402654
70.574409 61.060184 -0.60031843
70.561722 61.065857 -0.4005841
70.661285 61.021336 -0.2037892
70.696701 61.005501 0
70.997887 60.870819 0.21408699
70.648674 61.03661 -0.80627811
70.568588 61.072304 -0.59946334
70.560547 61.07589 -0.40029609
70.674362 61.025162 -0.20407921
70.733597 60.99876 0
70.996902 60.881401 0.21394144
70.666183 61.038456 -0.80796731
70.595573 61.069824 -0.60160279
70.554626 61.088017 -0.39972007
70.668465 61.037445 -0.2037892
70.741966 61.004787 0
71.005432 60.887741 0.21408699
70.683701 61.040337 -0.8096565
70.54747 61.100662 -0.59689474
70.567596 61.091751 -0.40029609
70.686279 61.039196 -0.20422421
70.755089 61.008724 0
71.004417 60.898319 0.21394144
70.668678 61.056622 -0.80740494
70.560371 61.104427 -0.5977515
70.547447 61.110134 -0.39885491
70.675598 61.053566 -0.2037892
70.677757 61.052616 0
71.02243 60.900486 0.214377
70.648956 61.074921 -0.80458891
70.620239 61.087555 -0.60288543
70.56987 61.109715 -0.40000808
70.660126 61.070007 -0.20320866
70.748024 61.031342 0
71.026169 60.908974 0.214377
70.661804 61.078873 -0.80571574
70.581444 61.114109 -0.59903413
70.554413 61.125965 -0.39885491
70.692215 61.065536 -0.20407921
70.742058 61.043678 0
71.0299 60.917465 0.214377
70.644951 61.091049 -0.80346423
70.564369 61.126324 -0.59732229
70.570366 61.123699 -0.39972007
70.670189 61.080002 -0.20335364
70.715248 61.060272 0
71.027008 60.923798 0.214232
70.64846 61.099079 -0.80346423
70.563141 61.136307 -0.59689474
70.564346 61.13578 -0.39914292
70.664192 61.092216 -0.20306365
70.737877 61.060062 0
71.035477 60.930214 0.214377
70.66127 61.103065 -0.80458891
70.604256 61.127861 -0.60031843
70.558319 61.147839 -0.3985669
70.677223 61.096127 -0.20335364
70.765282 61.057831 0
70.996292 60.957367 0.21307088
70.669441 61.109089 -0.80515343
70.588882 61.144009 -0.59860659
70.590233 61.143425 -0.40029609
70.680725 61.104198 -0.20335364
70.764061 61.068077 0
71.014275 60.959621 0.21350645
70.668251 61.119171 -0.80458891
70.611176 61.143829 -0.60031843
70.560448 61.165745 -0.39827889
70.669907 61.118458 -0.2029181
70.758034 61.080383 0
71.037025 60.959854 0.21408699
70.681068 61.123207 -0.80571574
70.605202 61.155876 -0.59946334
70.597115 61.159359 -0.40029609
70.697243 61.116245 -0.20364365
70.747215 61.094727 0
71.055 60.9622 0.214522
70.693871 61.127277 -0.80684048
70.622772 61.157791 -0.60074604
70.591042 61.17141 -0.39972007
70.681641 61.13253 -0.20306365
70.736382 61.109035 0
71.04435 60.976868 0.21408699
70.72538 61.123375 -0.81021887
70.602608 61.175888 -0.59860659
70.59446 61.179375 -0.39972007
70.680305 61.142654 -0.2029181
70.749435 61.113087 0
71.028885 60.993557 0.21350645
70.719498 61.13549 -0.80909199
70.620186 61.177826 -0.59989089
70.550262 61.207634 -0.39683658
70.683754 61.15073 -0.2029181
70.767288 61.11512 0
71.046844 60.995945 0.21394144
70.76973 61.123737 -0.81472194
70.642494 61.177795 -0.60160279
70.553635 61.215549 -0.39683658
70.66806 61.166935 -0.20233753
70.789925 61.115158 0
71.074394 60.994293 0.21466756
70.815315 61.114086 -0.81978732
70.617523 61.197842 -0.59903413
70.57605 61.215405 -0.39798975
70.681061 61.170937 -0.20262809
70.783813 61.127426 0
71.073227 61.004875 0.214522
70.781342 61.13813 -0.81528425
70.606728 61.211823 -0.5977515
70.555588 61.233406 -0.39654857
70.684471 61.179012 -0.20262809
70.811272 61.1255 0
71.095985 61.005344 0.21510255
70.822266 61.130566 -0.81978732
70.629021 61.211845 -0.59946334
70.597069 61.225285 -0.39885491
70.678284 61.191124 -0.20233753
70.75235 61.159973 0
71.046921 61.036076 0.21350645
70.881973 61.115238 -0.82654196
70.62764 61.221848 -0.59903413
70.576569 61.243256 -0.39741373
70.681671 61.199196 -0.20233753
70.784592 61.156055 0
71.050499 61.044594 0.21350645
70.918259 61.109848 -0.83048052
70.654671 61.219963 -0.60117358
70.589432 61.247219 -0.39798975
70.665871 61.215286 -0.20175697
70.754395 61.178303 0
71.020493 61.067139 0.21249032
70.949905 61.106487 -0.83385891
70.639084 61.235893 -0.59946334
70.616623 61.245243 -0.39943093
70.693237 61.213348 -0.20248309
70.858704 61.144455 0
71.033638 61.071625 0.21278088
70.934624 61.122677 -0.8316074
70.642418 61.243916 -0.59946334
70.600853 61.261162 -0.39827889
70.701393 61.219448 -0.20262809
70.7612 61.194633 0
71.013153 61.090092 0.21205477
70.947479 61.127178 -0.83273208
70.645744 61.251945 -0.59946334
70.589813 61.275074 -0.39741373
70.675919 61.239468 -0.20175697
70.798256 61.188881 0
71.050285 61.084663 0.21307088
70.908661 61.153 -0.82766664
70.663292 61.254112 -0.60074604
70.588326 61.285007 -0.39712572
70.669655 61.251492 -0.20146698
70.792015 61.201069 0
71.034584 61.101105 0.21249032
70.650719 61.263992 -0.59946334
70.594742 61.287022 -0.39741373
70.704956 61.24168 -0.20248309
70.8274 61.191307 0
71.055557 61.097446 0.21307088
64 64 -0
70.666809 61.276196 -0.60031843
70.596497 61.30492 -0.39712572
70.701973 61.261826 -0.20219253
70.81971 61.213722 0
71.043312 61.122368 0.21249032
64 64 -0
70.641571 61.295864 -0.5977515
70.623695 61.303143 -0.3985669
70.705276 61.269924 -0.20219253
70.779694 61.239628 0
71.075653 61.119125 0.21336088
64 64 -0
70.649582 61.301964 -0.59817904
70.612564 61.316982 -0.39770174
70.689308 61.285847 -0.20161198
70.821609 61.232166 0
71.083954 61.125717 0.21350645
64 64 -0
70.667122 61.304226 -0.59946334
70.620598 61.323036 -0.39798975
70.726311 61.280293 -0.20262809
70.805641 61.248215 0
71.101868 61.128441 0.21394144
64 64 -0
70.684647 61.30653 -0.60074604
70.619034 61.33297 -0.39770174
70.734413 61.28648 -0.20277309
70.80896 61.256439 0
71.105331 61.137024 0.21394144
70.702194 61.308868 -0.60203034
70.646248 61.331337 -0.39914292
70.737686 61.294621 -0.20277309
70.797775 61.270489 0
71.118439 61.141735 0.214232
