# .PCD v0.7 - Point Cloud Data file format
VERSION 0.7
FIELDS x y z
SIZE 4 4 4
TYPE F F F
COUNT 1 1 1
WIDTH 1829
HEIGHT 1
VIEWPOINT 0 0 0 1 0 0 0
POINTS 1829
DATA ascii
52.785133 64.040649 0.31321183
64 64 -0
64 64 -0
64 64 -0
64 64 -0
64 64 -0
64 64 -0
52.791992 64.027084 0
52.80069 64.027061 0.31277627
64 64 -0
64 64 -0
64 64 -0
64 64 -0
64 64 -0
52.795212 64.013542 -0.31292853
52.776348 64.013565 0
52.79026 64.013542 0.31306681
64 64 -0
64 64 -0
64 64 -0
64 64 -0
64 64 -0
52.805611 64 -0.31263795
52.786758 64 0
52.769466 64 0.31364739
64 64 -0
64 64 -0
64 64 -0
64 64 -0
64 64 -0
52.795212 63.986462 -0.31292853
52.797169 63.986465 0
52.785069 63.98645 0.31321183
64 64 -0
64 64 -0
64 64 -0
64 64 -0
64 64 -0
52.779663 63.972885 -0.31336352
52.786793 63.9729 0
52.785095 63.972897 0.31321183
64 64 -0
64 64 -0
64 64 -0
64 64 -0
64 64 -0
52.790085 63.959366 -0.31307352
52.781631 63.959335 0
52.790329 63.959366 0.31306681
64 64 -0
64 64 -0
64 64 -0
64 64 -0
64 64 -0
52.795338 63.945847 -0.31292853
52.797291 63.945854 0
52.785194 63.945797 0.31321183
64 64 -0
64 64 -0
64 64 -0
64 64 -0
64 64 -0
52.790218 63.932274 -0.31307352
52.797363 63.93232 0
52.800861 63.932339 0.31277627
64 64 -0
64 64 -0
64 64 -0
64 64 -0
64 64 -0
64 64 -0
52.787056 63.918705 0
52.806145 63.918846 0.31263125
64 64 -0
64 64 -0
64 64 -0
64 64 -0
64 64 -0
52.816391 63.905407 -0.31234795
52.80798 63.905334 0
52.790653 63.905186 0.31306681
64 64 -0
64 64 -0
64 64 -0
64 64 -0
64 64 -0
52.806133 63.891792 -0.31263795
52.797684 63.891708 0
52.785583 63.891594 0.31321183
64 64 -0
64 64 -0
64 64 -0
64 64 -0
64 64 -0
52.822021 63.864929 -0.31220239
52.787579 63.864513 0
52.791069 63.864555 0.31306681
64 64 -0
64 64 -0
64 64 -0
64 64 -0
64 64 -0
52.785812 63.850941 -0.3132185
52.782551 63.850895 0
52.786053 63.850945 0.31321183
64 64 -0
64 64 -0
64 64 -0
64 64 -0
64 64 -0
52.760025 63.837013 -0.31394407
52.803558 63.837643 0
52.78624 63.837395 0.31321183
64 64 -0
64 64 -0
64 64 -0
64 64 -0
64 64 -0
52.770508 63.830379 -0.31365407
52.808857 63.830959 0
52.807125 63.830933 0.31263125
64 64 -0
64 64 -0
64 64 -0
64 64 -0
64 64 -0
52.786316 63.817066 -0.3132185
52.809067 63.817436 0
52.791744 63.817154 0.31306681
64 64 -0
64 64 -0
64 64 -0
64 64 -0
64 64 -0
52.77095 63.803242 -0.31365407
52.798882 63.80373 0
52.791973 63.803612 0.31306681
64 64 -0
64 64 -0
64 64 -0
64 64 -0
64 64 -0
52.771194 63.789673 -0.31365407
52.809544 63.790394 0
52.792221 63.79007 0.31306681
64 64 -0
64 64 -0
64 64 -0
64 64 -0
64 64 -0
52.776649 63.776211 -0.31350908
52.799385 63.776665 0
52.787289 63.776421 0.31321183
64 64 -0
64 64 -0
64 64 -0
64 64 -0
64 64 -0
52.79771 63.763088 -0.31292853
52.799664 63.76313 0
52.777168 63.762653 0.31350237
64 64 -0
64 64 -0
64 64 -0
64 64 -0
64 64 -0
52.792816 63.749435 -0.31307352
52.794762 63.749481 0
52.787865 63.749325 0.31321183
64 64 -0
64 64 -0
64 64 -0
64 64 -0
52.940834 63.739376 -0.61650491
52.772343 63.735405 -0.31365407
52.763859 63.735207 0
52.788174 63.735779 0.31321183
64 64 -0
64 64 -0
64 64 -0
64 64 -0
52.801544 63.722553 -0.62428796
52.777863 63.72197 -0.31350908
52.774586 63.721886 0
52.793694 63.722359 0.31306681
64 64 -0
64 64 -0
64 64 -0
64 64 -0
52.853592 63.710369 -0.6214056
52.773014 63.708275 -0.31365407
52.811356 63.70927 0
52.814816 63.709358 0.31248626
64 64 -0
64 64 -0
64 64 -0
64 64 -0
52.848785 63.696758 -0.62169361
52.783775 63.694992 -0.31336352
52.796101 63.695328 0
52.809986 63.695705 0.31263125
64 64 -0
64 64 -0
64 64 -0
64 64 -0
52.957741 63.686371 -0.61563975
52.768562 63.680996 -0.31379908
52.801674 63.681938 0
52.815552 63.682331 0.31248626
64 64 -0
64 64 -0
64 64 -0
64 64 -0
52.808182 63.668587 -0.62399995
52.768959 63.667423 -0.31379908
52.781258 63.667789 0
52.810753 63.668663 0.31263125
64 64 -0
64 64 -0
64 64 -0
64 64 -0
52.855122 63.656498 -0.6214056
52.779747 63.654175 -0.31350908
52.78167 63.654232 0
52.790382 63.654503 0.31321183
64 64 -0
64 64 -0
64 64 -0
64 64 -0
52.891743 63.644192 -0.61938727
52.780174 63.640617 -0.31350908
52.797707 63.641178 0
52.801189 63.641289 0.31292182
64 64 -0
64 64 -0
64 64 -0
52.887238 63.630604 -0.92683983
52.907696 63.631287 -0.61852211
52.770237 63.626717 -0.31379908
52.808563 63.627991 0
52.812027 63.628105 0.31263125
64 64 -0
64 64 -0
64 64 -0
64 64 -0
52.902985 63.617702 -0.61881012
52.786282 63.613686 -0.31336352
52.798607 63.614109 0
52.796898 63.614048 0.31306681
64 64 -0
64 64 -0
64 64 -0
52.980507 63.607044 -0.91913724
52.872425 63.603191 -0.62054044
52.797134 63.600506 -0.31307352
52.804276 63.600758 0
52.792183 63.600327 0.31321183
64 64 -0
64 64 -0
64 64 -0
52.970718 63.593349 -0.919994
52.759193 63.585552 -0.62688231
52.787247 63.586586 -0.31336352
52.789177 63.586658 0
52.797867 63.586979 0.31306681
64 64 -0
64 64 -0
64 64 -0
52.770889 63.579189 -0.93668348
52.878326 63.583214 -0.62025243
52.777103 63.579422 -0.31365407
52.810234 63.580666 0
52.798115 63.580208 0.31306681
64 64 -0
64 64 -0
64 64 -0
53.002266 63.574551 -0.91742533
52.868511 63.569378 -0.62082845
52.777618 63.565861 -0.31365407
52.789944 63.566338 0
52.803818 63.566875 0.31292182
64 64 -0
64 64 -0
64 64 -0
64 64 -0
52.832851 63.554485 -0.62284678
52.767776 63.551888 -0.31394407
52.790478 63.552795 0
52.799164 63.553139 0.31306681
64 64 -0
64 64 -0
64 64 -0
53.00845 63.548187 -0.91699779
52.864418 63.542267 -0.62111646
52.778702 63.538742 -0.31365407
52.806614 63.53989 0
52.825668 63.540672 0.31234127
64 64 -0
64 64 -0
64 64 -0
52.891041 63.529915 -0.92683983
52.88047 63.529469 -0.62025243
52.763706 63.524525 -0.31408906
52.796787 63.525925 0
52.79509 63.525852 0.31321183
64 64 -0
64 64 -0
64 64 -0
53.03009 63.522518 -0.91528594
52.855213 63.514908 -0.62169361
52.77985 63.511627 -0.31365407
52.812973 63.513069 0
52.79567 63.512314 0.31321183
64 64 -0
64 64 -0
64 64 -0
64 64 -0
52.87648 63.502365 -0.62054044
52.796028 63.498768 -0.3132185
52.78236 63.498154 0
52.796268 63.498779 0.31321183
64 64 -0
64 64 -0
64 64 -0
64 64 -0
52.892593 63.489639 -0.61967528
52.812222 63.485947 -0.31278294
52.803772 63.485558 0
52.802067 63.485477 0.31306681
64 64 -0
64 64 -0
64 64 -0
53.021629 63.482273 -0.9161427
52.929375 63.477924 -0.61765808
52.781693 63.470959 -0.31365407
52.794014 63.471539 0
52.797512 63.471703 0.31321183
64 64 -0
64 64 -0
52.888939 63.462559 -0.92726904
52.89386 63.462799 -0.61967528
52.766785 63.45665 -0.31408906
52.794662 63.458 0
52.803345 63.45842 0.31306681
64 64 -0
64 64 -0
64 64 -0
64 64 -0
52.889359 63.449123 -0.61996329
52.772633 63.443336 -0.31394407
52.810905 63.445232 0
52.824768 63.445919 0.31248626
64 64 -0
64 64 -0
64 64 -0
52.977432 63.440136 -0.919994
52.869366 63.434647 -0.62111646
52.794075 63.430824 -0.31336352
52.837589 63.433033 0
52.820259 63.432156 0.31263125
64 64 -0
64 64 -0
64 64 -0
52.967873 63.426285 -0.92084908
52.864876 63.420929 -0.6214056
52.784382 63.416744 -0.31365407
52.827877 63.419006 0
52.805382 63.417835 0.31306681
64 64 -0
64 64 -0
52.825024 63.405319 -0.93283218
52.881084 63.408302 -0.62054044
52.769539 63.402367 -0.31408906
52.802605 63.404125 0
52.800907 63.404034 0.31321183
64 64 -0
64 64 -0
52.856518 63.39349 -0.93026358
52.855988 63.393459 -0.62198162
52.791008 63.389923 -0.31350908
52.808525 63.390877 0
52.801636 63.390503 0.31321183
64 64 -0
64 64 -0
64 64 -0
52.990532 63.38744 -0.91913724
52.856728 63.379997 -0.62198162
52.796959 63.376671 -0.31336352
52.798885 63.376778 0
52.80238 63.376972 0.31321183
64 64 -0
64 64 -0
52.899025 63.368893 -0.92683983
52.898804 63.368881 -0.61967528
52.797718 63.363132 -0.31336352
52.804836 63.363537 0
52.808327 63.363735 0.31306681
64 64 -0
64 64 -0
52.787025 63.348934 -0.93625593
52.91507 63.356369 -0.61881012
52.777744 63.348392 -0.31394407
52.810806 63.350315 0
52.809101 63.350216 0.31306681
64 64 -0
64 64 -0
52.889923 63.348171 -0.92769659
52.910282 63.349365 -0.61909926
52.793686 63.342525 -0.31350908
52.811199 63.343552 0
52.804314 63.343151 0.31321183
64 64 -0
64 64 -0
52.931721 63.337204 -0.92427284
52.885262 63.334423 -0.62054044
52.789307 63.328674 -0.31365407
52.827595 63.330967 0
52.805115 63.32962 0.31321183
64 64 -0
64 64 -0
52.968407 63.326023 -0.92127663
52.844769 63.31847 -0.62284678
52.784946 63.314812 -0.31379908
52.828411 63.317471 0
52.821499 63.317047 0.31277627
64 64 -0
64 64 -0
52.958969 63.312054 -0.92213339
52.902397 63.308529 -0.61967528
52.790962 63.301586 -0.31365407
52.813652 63.303001 0
52.822334 63.303539 0.31277627
64 64 -0
64 64 -0
52.949574 63.298061 -0.92298853
52.8671 63.292824 -0.62169361
52.781452 63.287384 -0.31394407
52.814503 63.289482 0
52.812801 63.289375 0.31306681
64 64 -0
64 64 -0
52.955547 63.285042 -0.92256099
52.904102 63.281712 -0.61967528
52.792683 63.274498 -0.31365407
52.810181 63.275631 0
52.824051 63.276531 0.31277627
64 64 -0
64 64 -0
52.925671 63.269669 -0.92512959
52.951427 63.27137 -0.61708093
52.793568 63.26096 -0.31365407
52.821442 63.262798 0
52.798988 63.261314 0.31350237
64 64 -0
64 64 -0
52.95219 63.258011 -0.92298853
52.885223 63.253513 -0.62082845
52.804852 63.248116 -0.31336352
52.801567 63.247894 0
52.815449 63.248829 0.31306681
64 64 -0
64 64 -0
53.029911 63.249916 -0.91657025
52.917091 63.242199 -0.61909926
52.805767 63.234589 -0.31336352
52.797295 63.234009 0
52.816364 63.235313 0.31306681
64 64 -0
64 64 -0
52.954014 63.231316 -0.92298853
52.907703 63.228092 -0.61967528
52.806702 63.221062 -0.31336352
52.803417 63.220837 0
52.812119 63.221439 0.31321183
64 64 -0
52.970299 63.219055 -0.92170584
52.893158 63.213593 -0.62054044
52.792091 63.206436 -0.31379908
52.804367 63.207306 0
52.813068 63.207924 0.31321183
64 64 -0
52.955906 63.204624 -0.92298853
52.925083 63.202404 -0.61881012
52.78788 63.192524 -0.31394407
52.831306 63.195648 0
52.814034 63.194405 0.31321183
64 64 -0
52.972221 63.192402 -0.92170584
52.910572 63.187889 -0.61967528
52.783688 63.178596 -0.31408906
52.816708 63.181015 0
52.82019 63.181271 0.31306681
64 64 -0
52.932243 63.176029 -0.92512959
52.916718 63.174873 -0.61938727
52.774311 63.164272 -0.31437963
52.812519 63.167118 0
52.82119 63.167763 0.31306681
64 64 -0
52.774559 63.15065 -0.93839532
52.948662 63.163822 -0.61765808
52.785706 63.151493 -0.31408906
52.839481 63.155563 0
52.822205 63.154255 0.31306681
64 64 -0
52.959877 63.151253 -0.92298853
52.87233 63.144524 -0.62198162
52.791916 63.13834 -0.31394407
52.824936 63.140881 0
52.807686 63.139553 0.31350237
64 64 -0
52.950665 63.137115 -0.92384529
52.863045 63.130272 -0.62255877
52.792965 63.124798 -0.31394407
52.800041 63.125351 0
52.82428 63.127247 0.31306681
64 64 -0
52.981907 63.132858 -0.92127663
64 64 -0
52.803848 63.118843 -0.31365407
52.81094 63.1194 0
52.809261 63.11927 0.31350237
64 64 -0
52.921551 63.114635 -0.92641228
64 64 -0
52.794571 63.104488 -0.31394407
52.796459 63.104641 0
52.820705 63.106579 0.31321183
64 64 -0
52.922626 63.10125 -0.92641228
64 64 -0
52.78529 63.090107 -0.31423464
52.792347 63.090683 0
52.821793 63.093071 0.31321183
64 64 -0
52.928833 63.088287 -0.92598468
64 64 -0
52.786396 63.076557 -0.31423464
52.829773 63.080132 0
52.812527 63.078709 0.31350237
64 64 -0
52.945297 63.076195 -0.92470038
64 64 -0
52.808235 63.064739 -0.31365407
52.830891 63.066635 0
52.818844 63.065628 0.31335682
64 64 -0
52.956642 63.063705 -0.92384529
52.786621 63.04929 -0.62717032
64 64 -0
52.806099 63.050941 0
52.814789 63.051678 0.31350237
64 64 -0
52.953827 63.036575 -0.92427284
52.871384 63.029385 -0.62255877
52.806526 63.023727 -0.31379908
52.823986 63.025249 0
52.827477 63.025555 0.31321183
64 64 -0
52.924324 63.020515 -0.92683983
52.877731 63.016396 -0.62226963
52.807716 63.010201 -0.31379908
52.799232 63.009453 0
52.80278 63.009766 0.31393737
64 64 -0
52.935734 63.008049 -0.92598468
52.868614 63.002029 -0.62284678
52.803749 62.996216 -0.31394407
52.826378 62.998245 0
52.809158 62.9967 0.31379238
64 64 -0
52.921597 62.993286 -0.92726904
52.838928 62.985775 -0.62457597
52.82048 62.984097 -0.31350908
52.812038 62.98333 0
52.820721 62.984119 0.31350237
64 64 -0
52.912605 62.978958 -0.92812413
52.922581 62.979877 -0.61996329
52.811378 62.969639 -0.31379908
52.818451 62.970291 0
52.816788 62.970135 0.31364739
64 64 -0
52.924061 62.966518 -0.92726904
52.939259 62.967934 -0.61909926
52.807461 62.955635 -0.31394407
52.78862 62.95388 0
52.823208 62.957108 0.31350237
64 64 -0
52.950871 62.955551 -0.92512959
52.899315 62.950676 -0.6214056
52.798374 62.941135 -0.31423464
52.800247 62.941311 0
52.824478 62.943604 0.31350237
64 64 -0
52.982815 62.945137 -0.92256099
52.916042 62.938744 -0.62054044
52.778969 62.925617 -0.31481519
52.827435 62.93026 0
52.836117 62.931091 0.31321183
64 64 -0
52.953426 62.928852 -0.92512959
52.896736 62.923355 -0.62169361
52.780273 62.91206 -0.31481519
52.808014 62.914753 0
52.837418 62.917603 0.31321183
64 64 -0
52.918976 62.911995 -0.92812413
52.908356 62.91095 -0.62111646
52.771263 62.897491 -0.3151052
52.809334 62.90123 0
52.843899 62.904621 0.31306681
64 64 -0
52.930508 62.89962 -0.92726904
52.914818 62.89806 -0.62082845
52.870846 62.893688 -0.31234795
52.82621 62.889252 0
52.8349 62.890118 0.31335682
64 64 -0
64 64 -0
52.915489 62.891365 -0.62082845
52.912884 62.891102 -0.31118685
52.806168 62.880432 0
52.825218 62.882336 0.31364739
64 64 -0
64 64 -0
52.916836 62.877972 -0.62082845
52.867702 62.872997 -0.31249297
52.828243 62.869003 0
52.821411 62.868313 0.31379238
64 64 -0
52.944107 62.867233 -0.92641228
52.918198 62.864582 -0.62082845
52.884586 62.861137 -0.31205741
52.793369 62.851791 0
52.802109 62.852684 0.31437293
64 64 -0
64 64 -0
52.909279 62.850124 -0.6214056
52.875622 62.846634 -0.31234795
52.810303 62.839863 0
52.813831 62.840225 0.31408295
64 64 -0
52.946877 62.840519 -0.92641228
52.915836 62.837265 -0.62111646
52.866699 62.832111 -0.31263795
52.806538 62.825798 0
52.820423 62.827255 0.31393737
64 64 -0
52.948284 62.827164 -0.92641228
52.90181 62.822235 -0.62198162
52.888786 62.82085 -0.31205741
52.839012 62.815571 0
52.827011 62.814297 0.31379238
52.939491 62.812717 -0.92726904
52.898106 62.808273 -0.62226963
52.864391 62.804653 -0.31278294
52.814579 62.799309 0
52.833614 62.80135 0.31364739
64 64 -0
52.940933 62.799351 -0.92726904
52.90469 62.795418 -0.62198162
52.876167 62.79232 -0.31249297
52.847095 62.789165 0
52.840233 62.788418 0.31350237
64 64 -0
52.94751 62.786552 -0.92683983
52.906155 62.782013 -0.62198162
52.862129 62.77718 -0.31292853
52.807175 62.771145 0
52.836544 62.774368 0.31364739
64 64 -0
52.974495 62.776031 -0.92470038
52.897339 62.767464 -0.62255877
52.863617 62.763721 -0.31292853
52.83453 62.76049 0
52.827713 62.759735 0.31393737
52.96067 62.76099 -0.92598468
52.903992 62.754631 -0.62226963
52.880615 62.752007 -0.31249297
52.794655 62.742359 0
52.824039 62.745655 0.31408295
64 64 -0
52.946865 62.745914 -0.92726904
52.920914 62.74297 -0.6214056
52.876976 62.737984 -0.31263795
52.827206 62.732338 0
52.825565 62.732151 0.31408295
52.963696 62.734318 -0.92598468
52.917305 62.728996 -0.62169361
52.894001 62.726322 -0.31220239
52.828743 62.718838 0
52.821945 62.71806 0.31422794
64 64 -0
52.975426 62.722164 -0.92512959
52.903427 62.713818 -0.62255877
52.890373 62.712303 -0.31234795
52.804451 62.702347 0
52.833839 62.705753 0.31393737
64 64 -0
52.961693 62.707054 -0.92641228
52.904991 62.700413 -0.62255877
52.876465 62.697071 -0.31278294
52.821545 62.690636 0
52.835411 62.692261 0.31393737
64 64 -0
52.963264 62.693718 -0.92641228
52.91172 62.687614 -0.62226963
52.857403 62.681187 -0.31336352
52.833462 62.678352 0
52.847309 62.679993 0.31364739
52.959755 62.679771 -0.92683983
52.913315 62.674217 -0.62226963
52.869316 62.668957 -0.31307352
52.809231 62.661774 0
52.838604 62.665283 0.31393737
64 64 -0
52.981728 62.668896 -0.92512959
52.894382 62.65834 -0.6234228
52.865776 62.654884 -0.3132185
52.831528 62.650749 0
52.835049 62.651173 0.31408295
52.972351 62.660999 -0.92598468
52.900326 62.652256 -0.62313479
52.861439 62.647533 -0.31336352
52.816837 62.642117 0
52.830711 62.643803 0.31422794
52.968887 62.647053 -0.92641228
52.901962 62.638844 -0.62313479
52.863083 62.634075 -0.31336352
52.808163 62.627342 0
52.842686 62.631577 0.31393737
64 64 -0
52.970528 62.633724 -0.92641228
52.908745 62.626072 -0.62284678
52.890522 62.623814 -0.31263795
52.825333 62.615738 0
52.844349 62.618095 0.31393737
52.972187 62.620399 -0.92641228
52.915539 62.613312 -0.62255877
52.88187 62.6091 -0.31292853
52.847672 62.60482 0
52.830551 62.60268 0.31437293
52.989128 62.609005 -0.92512959
52.917221 62.599918 -0.62255877
52.878407 62.595016 -0.31307352
52.813213 62.586781 0
52.837399 62.589836 0.31422794
52.985729 62.595051 -0.92555714
52.918922 62.586529 -0.62255877
52.880112 62.581577 -0.31307352
52.830421 62.575241 0
52.823639 62.574375 0.3146635
52.982349 62.581089 -0.92598468
52.905262 62.571159 -0.6234228
52.881836 62.568142 -0.31307352
52.816658 62.55975 0
52.840839 62.562862 0.31422794
52.98407 62.567776 -0.92598468
52.901871 62.557091 -0.62371081
52.873276 62.553371 -0.31336352
52.844212 62.549591 0
52.842583 62.549381 0.31422794
64 64 -0
52.975639 62.553131 -0.92683983
52.903622 62.543682 -0.62371081
52.88018 62.540604 -0.3132185
52.840816 62.535439 0
52.839195 62.535225 0.31437293
52.97229 62.539135 -0.92726904
52.900246 62.529594 -0.62399995
52.866493 62.52512 -0.31365407
52.83744 62.521271 0
52.835827 62.521057 0.31451795
64 64 -0
52.974064 62.525814 -0.92726904
52.902031 62.516182 -0.62399995
52.868282 62.511669 -0.31365407
52.828907 62.506405 0
52.832458 62.506878 0.3146635
52.975853 62.512489 -0.92726904
52.908974 62.503468 -0.62371081
52.880398 62.499611 -0.31336352
52.835873 62.493603 0
52.849724 62.495472 0.31422794
52.977657 62.499172 -0.92726904
52.926155 62.492157 -0.62284678
52.882217 62.486176 -0.31336352
52.8377 62.480114 0
52.846405 62.4813 0.31437293
64 64 -0
52.994743 62.487953 -0.92598468
52.917744 62.477371 -0.6234228
52.889198 62.47345 -0.3132185
52.839546 62.466629 0
52.837944 62.466408 0.3146635
53.001659 62.475361 -0.92555714
52.909332 62.462559 -0.62399995
52.891052 62.460026 -0.3132185
52.831104 62.451717 0
52.839806 62.452923 0.3146635
64 64 -0
52.98317 62.459225 -0.92726904
52.911201 62.449162 -0.62399995
52.892921 62.446606 -0.3132185
52.838135 62.438942 0
52.841682 62.439438 0.3146635
64 64 -0
52.990139 62.446636 -0.92683983
52.902847 62.434319 -0.62457597
52.874222 62.430283 -0.31379908
52.855495 62.427639 0
52.853874 62.42741 0.31437293
64 64 -0
52.985981 62.439262 -0.92726904
52.888424 62.425438 -0.62544113
52.870033 62.422832 -0.31394407
52.840981 62.418713 0
52.834248 62.417759 0.31495351
64 64 -0
52.972641 62.423779 -0.92855167
52.91082 62.41494 -0.62428796
52.877087 62.410118 -0.31379908
52.86351 62.408176 0
52.841309 62.405003 0.31480849
64 64 -0
52.994881 62.413383 -0.92683983
52.897377 62.399326 -0.62515312
52.879017 62.396679 -0.31379908
52.855148 62.393238 0
52.832962 62.390041 0.31509849
64 64 -0
52.986637 62.398609 -0.92769659
52.91468 62.388145 -0.62428796
52.870686 62.381748 -0.31408906
52.836494 62.376778 0
52.840057 62.377296 0.31495351
64 64 -0
52.983505 62.38456 -0.92812413
52.90641 62.373253 -0.62486398
52.893196 62.371315 -0.31350908
52.817863 62.360268 0
52.826591 62.361549 0.31538907
64 64 -0
52.985466 62.371246 -0.92812413
52.913498 62.360607 -0.62457597
52.884899 62.356377 -0.31379908
52.819855 62.34676 0
52.838875 62.349571 0.31509849
64 64 -0
52.992516 62.358696 -0.92769659
52.915485 62.34721 -0.62457597
52.88176 62.342182 -0.31394407
52.806412 62.330948 0
52.840874 62.336086 0.31509849
64 64 -0
52.989433 62.344635 -0.92812413
52.91238 62.33305 -0.62486398
52.88377 62.328751 -0.31394407
52.829025 62.320518 0
52.837742 62.321831 0.31524405
64 64 -0
52.99144 62.331333 -0.92812413
52.909271 62.318878 -0.62515312
52.885799 62.315319 -0.31394407
52.836205 62.3078 0
52.855194 62.31068 0.31480849
52.968094 62.314156 -0.93026358
52.895988 62.303135 -0.62601715
52.898106 62.303459 -0.31365407
52.833115 62.29353 0
52.852112 62.296432 0.31495351
52.929543 62.294571 -0.93368727
52.903152 62.290508 -0.62572914
52.869354 62.285301 -0.31452462
52.824905 62.278454 0
52.849049 62.282173 0.31509849
52.91132 62.278046 -0.93539917
52.894993 62.275509 -0.6263063
52.871437 62.271851 -0.31452462
52.852707 62.268944 0
52.845982 62.267899 0.31524405
64 64 -0
52.943832 62.269409 -0.93283218
52.90221 62.262897 -0.62601715
52.868404 62.257603 -0.31466964
52.844513 62.253864 0
52.832695 62.252014 0.31567904
64 64 -0
52.930733 62.253654 -0.93411487
52.90432 62.249489 -0.62601715
52.880775 62.245773 -0.31437963
52.826065 62.237141 0
52.855347 62.24176 0.31509849
64 64 -0
52.942982 62.241894 -0.93325973
52.921753 62.238518 -0.62515312
52.888031 62.233154 -0.31423464
52.843628 62.226093 0
52.836952 62.225033 0.31567904
52.934986 62.22691 -0.93411487
52.929012 62.225952 -0.62486398
52.895317 62.220554 -0.31408906
52.820087 62.2085 0
52.833977 62.210724 0.31582406
52.9422 62.214359 -0.93368727
52.915836 62.210102 -0.62572914
52.88208 62.204651 -0.31452462
52.822262 62.194992 0
52.825878 62.195576 0.3161146
52.950516 62.195148 -0.93325973
52.914001 62.189182 -0.62601715
52.88023 62.183666 -0.31466964
52.840965 62.177254 0
52.854805 62.179512 0.31538907
52.922318 62.176796 -0.93582672
52.911076 62.174946 -0.6263063
52.882431 62.170231 -0.31466964
52.832893 62.162079 0
52.857014 62.166046 0.31538907
52.929588 62.164253 -0.93539917
52.903091 62.159859 -0.62688231
52.869263 62.154247 -0.3151052
52.850533 62.151142 0
52.854115 62.151737 0.31553406
52.926758 62.150032 -0.93582672
52.910423 62.147301 -0.62659431
52.897125 62.145081 -0.31437963
52.821964 62.132523 0
52.846115 62.136559 0.31582406
52.923923 62.135799 -0.93625593
52.902477 62.132187 -0.62717032
52.878876 62.128216 -0.31496018
52.855034 62.124203 0
52.853493 62.123943 0.31567904
52.926186 62.122417 -0.93625593
52.904739 62.118782 -0.62717032
52.891403 62.11652 -0.31466964
52.85218 62.109871 0
52.845512 62.108738 0.31596962
52.923405 62.108173 -0.93668348
52.91721 62.107117 -0.62659431
52.893688 62.1031 -0.31466964
52.844204 62.094646 0
52.83757 62.093513 0.31625962
52.976288 62.103493 -0.93240464
52.914413 62.09285 -0.62688231
52.890854 62.088795 -0.31481519
52.841389 62.080288 0
52.834766 62.079147 0.31640461
52.978584 62.090176 -0.93240464
52.916725 62.079456 -0.62688231
52.898304 62.076263 -0.31466964
52.83345 62.065025 0
52.85244 62.068317 0.31596962
52.980904 62.076859 -0.93240464
52.924145 62.066956 -0.62659431
52.885273 62.060169 -0.3151052
52.835796 62.051533 0
52.844555 62.053062 0.31625962
52.97818 62.06266 -0.93283218
52.916309 62.051785 -0.62717032
52.887627 62.046741 -0.3151052
52.848419 62.039848 0
52.852028 62.040485 0.3161146
52.970428 62.047554 -0.93368727
52.918671 62.038391 -0.62717032
52.889996 62.033314 -0.3151052
52.8713 62.030006 0
52.854404 62.027016 0.3161146
52.942459 62.02882 -0.93625593
52.900681 62.021374 -0.6283235
52.887268 62.018982 -0.31525019
52.832695 62.009254 0
52.856796 62.01355 0.3161146
52.919586 62.010925 -0.93839532
52.903076 62.007961 -0.6283235
52.889671 62.005554 -0.31525019
52.860718 62.000359 0
52.859203 62.000088 0.3161146
52.916954 61.996628 -0.93882293
52.905495 61.994556 -0.6283235
52.881851 61.99028 -0.31554076
52.863144 61.9869 0
52.861629 61.986626 0.3161146
52.93454 61.985996 -0.93753856
52.91301 61.982079 -0.62803549
52.894524 61.978714 -0.31525019
52.865582 61.973446 0
52.853855 61.97131 0.31640461
52.915558 61.97562 -0.93925047
52.919312 61.976307 -0.62774748
52.890617 61.971066 -0.31539574
52.85144 61.963913 0
52.834633 61.960842 0.31698516
52.923054 61.963158 -0.93882293
52.921768 61.962921 -0.62774748
52.898205 61.958588 -0.31525019
52.859047 61.951385 0
52.852425 61.950169 0.31655017
52.940674 61.952579 -0.93753856
52.914074 61.947655 -0.6283235
52.900681 61.945175 -0.31525019
52.856396 61.936977 0
52.849804 61.935757 0.31669518
52.938095 61.938274 -0.93796778
52.90638 61.932362 -0.62890065
52.887836 61.928905 -0.31568575
52.843559 61.920654 0
52.852306 61.922283 0.31669518
52.940594 61.924908 -0.93796778
52.913967 61.919914 -0.62861264
52.895451 61.916439 -0.31554076
52.851192 61.908134 0
52.865051 61.910736 0.31640461
52.943108 61.911549 -0.93796778
52.911407 61.90556 -0.62890065
52.887772 61.901096 -0.31583074
52.869076 61.897564 0
52.852257 61.894386 0.31684017
52.925465 61.894352 -0.93967968
52.913948 61.892162 -0.62890065
52.89032 61.887669 -0.31583074
52.861389 61.882172 0
52.849709 61.879948 0.31698516
52.933075 61.881943 -0.93925047
52.916504 61.878769 -0.62890065
52.903076 61.876198 -0.31554076
52.869064 61.86969 0
52.85738 61.867455 0.31684017
52.930588 61.867596 -0.93967968
52.908924 61.863422 -0.62947667
52.900551 61.861809 -0.31568575
52.861435 61.854275 0
52.854866 61.853008 0.31698516
52.9231 61.852268 -0.94053477
52.931828 61.853962 -0.6283235
52.903145 61.8484 -0.31568575
52.858929 61.839828 0
52.852352 61.838551 0.31713071
52.92067 61.837906 -0.94096231
52.934429 61.840591 -0.6283235
52.910851 61.835987 -0.31554076
52.871754 61.828358 0
52.834568 61.821102 0.31771129
52.928322 61.825508 -0.94053477
52.921814 61.82423 -0.62918866
52.923679 61.824596 -0.31525019
52.864182 61.812912 0
52.852512 61.810619 0.31727573
52.925926 61.811138 -0.94096231
52.92445 61.810844 -0.62918866
52.911018 61.808189 -0.31568575
52.856609 61.797436 0
52.850075 61.796143 0.31742072
52.933609 61.798759 -0.94053477
52.927105 61.797462 -0.62918866
52.898376 61.791748 -0.31612131
52.869499 61.786007 0
52.857834 61.783684 0.31727573
52.936279 61.785389 -0.94053477
52.91964 61.782059 -0.62976468
52.906143 61.779358 -0.31597629
52.851768 61.768471 0
52.875816 61.773285 0.31684017
52.933933 61.771008 -0.94096231
52.91724 61.767647 -0.63005382
52.893566 61.762878 -0.31641132
52.869766 61.758083 0
52.858135 61.755741 0.31742072
52.936634 61.757637 -0.94096231
52.909817 61.752205 -0.63062984
52.906456 61.751522 -0.31612131
52.887791 61.747738 0
52.860855 61.742279 0.31742072
52.924255 61.741196 -0.94224662
52.922668 61.740871 -0.63005382
52.893917 61.735008 -0.3165563
52.870121 61.730152 0
52.858505 61.727783 0.31756574
52.932018 61.728844 -0.94181907
52.915283 61.72541 -0.63062984
52.896664 61.721588 -0.3165563
52.862682 61.714615 0
52.861259 61.714325 0.31756574
52.913277 61.718018 -0.94353098
52.921719 61.719753 -0.63034183
52.918381 61.719067 -0.31597629
52.88446 61.712086 0
52.86264 61.707596 0.31756574
52.926105 61.706707 -0.94267422
52.934624 61.708469 -0.62976468
52.91098 61.703575 -0.3162663
52.871937 61.695488 0
52.850147 61.690975 0.3180013
52.938927 61.695419 -0.94181907
52.927261 61.692989 -0.63034183
52.918846 61.691235 -0.31612131
52.864548 61.679924 0
52.852943 61.677505 0.3180013
52.951782 61.684166 -0.94096231
52.919941 61.67749 -0.63091785
52.921642 61.677849 -0.31612131
52.872448 61.667538 0
52.850677 61.662971 0.31814629
52.93951 61.667637 -0.94224662
52.932869 61.666237 -0.63034183
52.909218 61.661251 -0.3165563
52.875275 61.654091 0
52.868752 61.652718 0.31771129
52.932304 61.652145 -0.94310176
52.9104 61.647499 -0.63178301
52.901871 61.645691 -0.31684685
52.852661 61.635254 0
52.876694 61.64035 0.31756574
52.930111 61.637703 -0.94353098
52.918304 61.635181 -0.631495
52.904724 61.632282 -0.31684685
52.886063 61.6283 0
52.874454 61.625824 0.31771129
52.932976 61.624329 -0.94353098
52.916119 61.620708 -0.63178301
52.892345 61.615604 -0.31728241
52.888935 61.614872 0
52.86718 61.610203 0.3180013
52.935852 61.610954 -0.94353098
52.924053 61.60841 -0.631495
52.905403 61.604382 -0.31699187
52.886742 61.600353 0
52.859924 61.594563 0.31829128
52.918678 61.593231 -0.94524282
52.921898 61.593929 -0.63178301
52.908306 61.590977 -0.31699187
52.859123 61.580296 0
52.867912 61.582203 0.31814629
52.931637 61.582035 -0.94438607
52.924816 61.580547 -0.63178301
52.936607 61.583122 -0.3162663
52.877312 61.570168 0
52.880989 61.570972 0.31785628
52.929558 61.567562 -0.94481361
52.932793 61.568275 -0.631495
52.929394 61.567528 -0.3165563
52.870102 61.554501 0
52.853485 61.55085 0.31872684
52.94252 61.556404 -0.94395852
52.930695 61.553787 -0.63178301
52.912045 61.549667 -0.31713685
52.878139 61.542175 0
52.871681 61.540749 0.31829128
52.94548 61.543045 -0.94395852
52.928612 61.539295 -0.63207102
52.909924 61.535141 -0.31728241
52.865871 61.525349 0
52.859436 61.523918 0.31872684
52.938446 61.527451 -0.94481361
52.936638 61.527046 -0.63178301
52.91291 61.521744 -0.31728241
52.879036 61.514172 0
52.877655 61.513863 0.31829128
52.936417 61.512955 -0.94524282
52.934593 61.512547 -0.63207102
52.920998 61.509491 -0.31713685
52.871883 61.498451 0
52.875584 61.499283 0.31843683
52.932919 61.505146 -0.94567037
52.925995 61.503586 -0.63264817
52.917419 61.501652 -0.31728241
52.868324 61.490585 0
52.872032 61.491421 0.31858185
52.935944 61.491776 -0.94567037
52.923981 61.489063 -0.63293618
52.915382 61.487114 -0.31742743
52.876434 61.478283 0
52.859863 61.474525 0.31901741
52.928978 61.476128 -0.94652551
52.927021 61.475681 -0.63293618
52.908302 61.471413 -0.31771743
52.86935 61.462532 0
52.873066 61.463379 0.31872684
52.932037 61.462753 -0.94652551
52.925041 61.461147 -0.63322419
52.92149 61.460335 -0.31742743
52.867336 61.447922 0
52.865997 61.447613 0.31901741
52.935112 61.449379 -0.94652551
52.928116 61.447769 -0.63322419
52.914448 61.444618 -0.31771743
52.880585 61.43681 0
52.869087 61.434162 0.31901741
52.948196 61.438328 -0.94567037
52.93121 61.434391 -0.63322419
52.9226 61.432396 -0.31757241
52.863407 61.418674 0
52.857025 61.417198 0.3194524
52.956291 61.42614 -0.94524282
52.934319 61.421021 -0.63322419
52.920654 61.417835 -0.31771743
52.866531 61.40522 0
52.865211 61.404915 0.31930739
52.949425 61.410458 -0.94609791
52.937443 61.40765 -0.63322419
52.918709 61.403259 -0.31786299
52.874741 61.392956 0
52.878464 61.393829 0.31901741
52.947567 61.395931 -0.94652551
52.925472 61.390724 -0.63408935
52.906693 61.386303 -0.31829798
52.888039 61.381905 0
52.881622 61.380394 0.31901741
52.965694 61.386124 -0.94524282
52.923607 61.376156 -0.63437736
52.914913 61.374096 -0.31815296
52.876011 61.36488 0
52.869637 61.363373 0.3194524
52.943893 61.366848 -0.94738227
52.946911 61.367569 -0.63322419
52.918095 61.360703 -0.31815296
52.869068 61.349026 0
52.882935 61.352329 0.3191624
52.677471 61.288937 -0.97049165
52.924953 61.34819 -0.63466537
52.896027 61.341267 -0.31887853
52.88747 61.339218 0
52.886139 61.338898 0.3191624
52.429573 61.199997 -0.99231672
52.941437 61.323868 -0.63408935
52.917622 61.318104 -0.31844354
52.873695 61.307472 0
52.877445 61.30838 0.31959796
52.592602 61.224854 -0.97862178
52.934639 61.308064 -0.63466537
52.930977 61.307175 -0.31815296
52.871906 61.292801 0
52.86557 61.29126 0.32003295
52.690704 61.234241 -0.97049165
52.947937 61.29715 -0.63408935
52.934242 61.2938 -0.31815296
52.860012 61.275646 0
52.873894 61.279041 0.31988797
52.719002 61.226711 -0.96835059
52.946194 61.282562 -0.63437736
52.927414 61.277946 -0.31844354
52.873428 61.264675 0
52.862045 61.261879 0.32032353
52.720676 61.219898 -0.96835059
52.932766 61.272171 -0.63524252
52.924023 61.270016 -0.31858853
52.864967 61.255463 0
52.883888 61.260124 0.31974295
52.734001 61.208736 -0.9674955
52.946121 61.261292 -0.63466537
52.90715 61.251637 -0.3191691
52.883453 61.245766 0
52.897305 61.249195 0.3194524
52.757309 61.200089 -0.9657836
52.939388 61.245434 -0.63524252
52.905441 61.23698 -0.31931409
52.881744 61.231079 0
52.895576 61.234524 0.31959796
52.765678 61.187752 -0.96535605
52.937714 61.230816 -0.63553053
52.898716 61.221054 -0.3196041
52.885098 61.217648 0
52.88382 61.217327 0.32003295
52.764111 61.172928 -0.9657836
52.936054 61.21619 -0.63581854
52.907116 61.208908 -0.31945908
52.853127 61.195328 0
52.882133 61.202625 0.32017851
52.762562 61.158096 -0.96621114
52.939426 61.202824 -0.63581854
52.920563 61.198055 -0.3191691
52.851486 61.180584 0
52.880489 61.18792 0.32032353
52.775948 61.147049 -0.96535605
52.937786 61.188183 -0.63610768
52.939072 61.188511 -0.31873354
52.870037 61.170963 0
52.883896 61.174484 0.32032353
52.7794 61.133488 -0.96535605
52.94622 61.176102 -0.63581854
52.922337 61.170002 -0.31931409
52.873466 61.157516 0
52.882286 61.159771 0.32046852
52.802765 61.125038 -0.96364421
52.954643 61.164036 -0.63553053
52.935841 61.159206 -0.31902355
52.876907 61.144073 0
52.875648 61.143753 0.32075909
52.821167 61.11536 -0.96235985
52.943047 61.146812 -0.63639569
52.914108 61.139343 -0.31974965
52.870277 61.128033 0
52.894211 61.134209 0.32032353
52.799816 61.095413 -0.96449929
52.946503 61.133453 -0.63639569
52.932667 61.129868 -0.31931409
52.863689 61.111977 0
52.882584 61.116879 0.32075909
52.838097 61.090942 -0.96150476
52.939972 61.117493 -0.63697171
52.916027 61.111252 -0.31989464
52.897396 61.106396 0
52.881054 61.102139 0.32090408
52.876389 61.086563 -0.95850855
52.958462 61.108059 -0.63610768
52.919525 61.097862 -0.31989464
52.86565 61.083752 0
52.894627 61.091339 0.3206135
52.91964 61.08358 -0.95508486
52.936958 61.088139 -0.63754886
52.918022 61.083153 -0.32003966
52.879257 61.072952 0
52.867985 61.069984 0.32148463
52.938065 61.074135 -0.9538005
52.940483 61.074772 -0.63754886
52.921555 61.069767 -0.32003966
52.867702 61.055523 0
52.891632 61.061852 0.32090408
52.936634 61.059448 -0.95422971
52.94902 61.06274 -0.63726085
52.940174 61.060387 -0.3196041
52.88134 61.04475 0
52.900208 61.049767 0.32075909
52.945168 61.047409 -0.9538005
52.957588 61.050728 -0.63697171
52.933685 61.044342 -0.31989464
52.869827 61.027287 0
52.868649 61.02697 0.32177463
52.951908 61.042057 -0.95337296
52.964363 61.045391 -0.6366837
52.920406 61.033623 -0.3203302
52.856537 61.016521 0
52.875462 61.021591 0.32162964
52.95549 61.028709 -0.95337296
52.957943 61.029369 -0.63726085
52.918983 61.01889 -0.32047522
52.870213 61.005768 0
52.889114 61.010853 0.32133907
52.968994 61.018044 -0.95251787
52.951561 61.013332 -0.63783687
52.927605 61.006855 -0.3203302
52.858757 60.988247 0
52.88269 60.994713 0.32162964
52.957756 61.000683 -0.9538005
52.945187 60.997269 -0.63841403
52.921211 60.990757 -0.32062021
52.87748 60.978882 0
52.89637 60.984013 0.32133907
52.951469 60.984638 -0.95465726
52.953827 60.985279 -0.63812488
52.929863 60.978741 -0.32047522
52.886154 60.966812 0
52.889984 60.967857 0.32162964
52.960068 60.972645 -0.95422971
52.957478 60.971935 -0.63812488
52.923508 60.96262 -0.3207652
52.884811 60.952011 0
52.888649 60.953064 0.32177463
52.953846 60.956585 -0.95508486
52.956142 60.957218 -0.63841403
52.922161 60.947853 -0.32091078
52.893517 60.939964 0
52.892342 60.93964 0.32177463
52.972382 60.94735 -0.9538005
52.949867 60.941116 -0.63899004
52.925858 60.934471 -0.32091078
52.862106 60.916824 0
52.901051 60.927605 0.32162964
52.966171 60.931274 -0.95465726
52.963528 60.930538 -0.63841403
52.924568 60.919701 -0.32105577
52.875877 60.906158 0
52.879742 60.907234 0.32235518
52.940231 60.909657 -0.95722425
52.962269 60.915813 -0.63870203
52.943317 60.910519 -0.32062021
52.874596 60.891315 0
52.883488 60.893799 0.32235518
52.929138 60.892132 -0.95850855
52.956051 60.899685 -0.63927805
52.932045 60.892944 -0.32105577
52.868347 60.875065 0
52.887249 60.880371 0.32235518
52.918076 60.874573 -0.95979291
52.959805 60.886345 -0.63927805
52.920795 60.875343 -0.32149133
52.872131 60.861618 0
52.891026 60.866943 0.32235518
52.926811 60.862591 -0.9593637
52.963577 60.873005 -0.63927805
52.92458 60.861958 -0.32149133
52.865925 60.845337 0
52.889824 60.852108 0.3225002
52.896042 60.839371 -0.96235985
52.967361 60.859673 -0.63927805
52.923386 60.847157 -0.32163632
52.894772 60.839008 0
52.908615 60.842953 0.3220652
52.919613 60.831604 -0.960648
52.966194 60.844925 -0.63956606
52.927204 60.833775 -0.32163632
52.88858 60.822731 0
52.897465 60.825268 0.3225002
52.928379 60.819633 -0.96022046
52.960064 60.828735 -0.64014322
52.921059 60.817528 -0.32192633
52.877434 60.805 0
52.901306 60.811855 0.3225002
52.910568 60.807262 -0.9619323
52.952049 60.819206 -0.64071923
52.917992 60.809399 -0.32207131
52.889359 60.801155 0
52.893238 60.802273 0.32279074
52.914433 60.793865 -0.9619323
52.960865 60.807293 -0.64043123
52.926842 60.797455 -0.32192633
52.873234 60.781948 0
52.89212 60.787415 0.32293576
52.913391 60.779041 -0.96235985
52.974655 60.796841 -0.63985521
52.940693 60.786976 -0.32163632
52.882122 60.769958 0
52.886021 60.771091 0.3232263
52.946854 60.774277 -0.95979291
52.968613 60.780624 -0.64043123
52.939598 60.77216 -0.32178134
52.881042 60.75507 0
52.884949 60.75621 0.32337132
52.955696 60.762371 -0.9593637
52.972511 60.7673 -0.64043123
52.938526 60.757336 -0.32192633
52.879982 60.740173 0
52.87891 60.739861 0.3236613
52.954681 60.747574 -0.95979291
52.976425 60.753979 -0.64043123
52.932472 60.741035 -0.32221687
52.878941 60.725273 0
52.90778 60.733765 0.32293576
52.934006 60.726952 -0.9619323
52.965469 60.736256 -0.64129639
52.941414 60.729141 -0.32207131
52.90287 60.717743 0
52.896778 60.715939 0.32337132
52.937969 60.713581 -0.9619323
52.974373 60.724396 -0.64100838
52.930428 60.711342 -0.32250687
52.891869 60.699886 0
52.905731 60.704006 0.3232263
52.961624 60.706089 -0.96022046
52.968437 60.708122 -0.6415844
52.919464 60.693508 -0.32294244
52.895866 60.686466 0
52.894798 60.68615 0.3236613
52.980373 60.697178 -0.95893615
52.962502 60.691822 -0.64216155
52.923466 60.680122 -0.32294244
52.869953 60.664082 0
52.913731 60.677204 0.3232263
52.979462 60.682388 -0.9593637
52.956612 60.675507 -0.64273757
52.942421 60.671238 -0.32250687
52.87899 60.652142 0
52.897865 60.657825 0.32380632
53.037521 60.685413 -0.95465726
52.96558 60.663662 -0.64244956
52.941479 60.656376 -0.32265189
52.897976 60.643223 0
52.906883 60.645916 0.3236613
53.075928 60.682613 -0.95166111
52.984474 60.654842 -0.6415844
52.96043 60.647541 -0.32221687
52.877144 60.62225 0
52.90099 60.62949 0.32395187
53.119232 60.6814 -0.94823736
53.008316 60.647572 -0.64043123
52.974442 60.637241 -0.32192633
52.901146 60.614883 0
52.900105 60.614567 0.32409686
53.118324 60.666748 -0.94866657
53.056885 60.647926 -0.63783687
52.99839 60.630009 -0.32134578
52.905247 60.601479 0
52.91415 60.604206 0.32380632
53.141991 60.659641 -0.94695467
53.100498 60.646873 -0.63553053
53.091869 60.644222 -0.31873354
52.92926 60.594196 0
52.992752 60.613728 0.32162964
53.116611 60.637432 -0.94952166
53.119389 60.63829 -0.63466537
53.100891 60.632576 -0.31858853
53.022888 60.608475 0
53.021675 60.608101 0.32090408
53.069611 60.615677 -0.9538005
53.121422 60.631718 -0.63466537
53.09301 60.622921 -0.31887853
53.04483 60.608002 0
53.048546 60.609154 0.32017851
53.019775 60.585701 -0.95850855
53.095852 60.609356 -0.63639569
53.087162 60.606655 -0.3191691
53.053902 60.59631 0
53.062584 60.59901 0.31988797
52.989597 60.561722 -0.96150476
53.08514 60.591557 -0.63726085
53.046631 60.579529 -0.32047522
53.023254 60.572231 0
53.051815 60.58115 0.32032353
52.969269 60.540741 -0.96364421
53.025105 60.55825 -0.64100838
52.996239 60.549198 -0.32207131
53.012501 60.554298 0
53.055954 60.567924 0.32032353
52.983261 60.530502 -0.96278745
52.999676 60.535671 -0.64273757
52.950836 60.52029 -0.32352298
52.947178 60.519138 0
52.985771 60.531292 0.3225002
53.007042 60.523384 -0.96107554
52.993996 60.519257 -0.64331472
52.9501 60.505375 -0.323668
52.876945 60.482239 0
52.930508 60.49918 0.32424188
53.01614 60.511658 -0.960648
52.963711 60.495007 -0.64533192
52.949383 60.490456 -0.32381299
52.891136 60.471958 0
52.895123 60.473221 0.32540298
53.049702 60.507744 -0.95808101
52.982727 60.486385 -0.64446789
52.948666 60.475521 -0.32395855
52.880524 60.453789 0
52.914249 60.464546 0.32496741
53.058834 60.496086 -0.95765179
52.99192 60.474655 -0.64417875
52.962841 60.465343 -0.323668
52.919521 60.451469 0
52.948215 60.460659 0.32409686
53.11618 60.485428 -0.95337296
53.029999 60.4576 -0.64244956
53.060425 60.467422 -0.32105577
53.017277 60.453491 0
53.06559 60.469093 0.32090408
53.144852 60.480198 -0.95123357
53.098251 60.465088 -0.63870203
53.12896 60.475044 -0.3191691
53.066128 60.45467 0
53.104477 60.467106 0.31988797
53.158882 60.470264 -0.95037681
53.146797 60.466328 -0.63610768
53.152992 60.468346 -0.31858853
53.100105 60.451126 0
53.118626 60.457157 0.31959796
53.16803 60.458763 -0.9499492
53.175671 60.461258 -0.63466537
53.177029 60.461704 -0.31800798
53.099457 60.436344 0
53.122913 60.444012 0.31959796
53.172318 60.445675 -0.9499492
53.179955 60.448185 -0.63466537
53.171444 60.445389 -0.31829798
53.113674 60.426426 0
53.112419 60.426014 0.32003295
53.171749 60.430992 -0.95037681
53.198978 60.439964 -0.63380134
53.165867 60.42905 -0.31858853
64 64 0
53.121677 60.414486 0.31988797
53.195549 60.424355 -0.94866657
53.203289 60.426918 -0.63380134
53.175117 60.417595 -0.31844354
53.127277 60.40176 0
53.12109 60.399712 0.32003295
53.178238 60.411369 -0.95037681
53.190735 60.415516 -0.63466537
53.177284 60.411057 -0.31844354
53.119564 60.391914 0
53.13805 60.398045 0.31959796
53.197182 60.40316 -0.94909412
53.180344 60.397552 -0.63553053
53.166851 60.393059 -0.31887853
53.138748 60.383705 0
53.147354 60.38657 0.3194524
53.186939 60.385231 -0.95037681
53.189606 60.38612 -0.63524252
53.171219 60.379974 -0.31887853
53.143127 60.370583 0
53.141861 60.370159 0.31974295
53.191315 60.372166 -0.95037681
53.189079 60.371414 -0.63553053
53.15097 60.358624 -0.3196041
53.142593 60.355812 0
53.141335 60.355389 0.31988797
53.195709 60.359108 -0.95037681
53.188576 60.356705 -0.63581854
53.179996 60.353813 -0.31887853
53.15686 60.346016 0
53.135887 60.338951 0.32017851
53.18552 60.341118 -0.95166111
53.188072 60.341984 -0.63610768
53.154865 60.330746 -0.31974965
53.146503 60.327919 0
53.145256 60.327496 0.32003295
53.189949 60.328053 -0.95166111
53.202305 60.332253 -0.63553053
53.188839 60.327679 -0.31887853
53.146008 60.313129 0
53.134933 60.309368 0.32046852
53.189537 60.313339 -0.95208865
53.201855 60.317539 -0.63581854
53.173611 60.307907 -0.31945908
53.155411 60.301701 0
53.1394 60.296242 0.32046852
53.203705 60.303604 -0.95123357
53.191624 60.299465 -0.6366837
53.168236 60.291458 -0.31974965
53.14019 60.281857 0
53.134041 60.279751 0.32075909
53.203331 60.288895 -0.95166111
53.210785 60.291454 -0.63581854
53.177654 60.280067 -0.3196041
53.149605 60.270428 0
53.138546 60.266624 0.32075909
53.202972 60.274178 -0.95208865
53.2006 60.273357 -0.6366837
53.172321 60.263599 -0.31989464
53.144291 60.253925 0
53.138157 60.251808 0.32090408
53.207481 60.261131 -0.95208865
53.195324 60.25692 -0.63726085
53.186676 60.253925 -0.3196041
53.148827 60.24081 0
53.152523 60.242092 0.3206135
53.202301 60.24472 -0.95294541
53.204754 60.245571 -0.63697171
53.181381 60.237446 -0.31989464
53.16811 60.232826 0
53.157074 60.228989 0.3206135
53.206848 60.231674 -0.95294541
53.204399 60.23082 -0.63726085
53.185936 60.224373 -0.31989464
53.167759 60.218029 0
53.166538 60.217602 0.32046852
53.201729 60.215244 -0.9538005
53.204086 60.216072 -0.63754886
53.185608 60.209595 -0.32003966
53.167431 60.203224 0
53.156399 60.199356 0.32090408
53.206306 60.202198 -0.9538005
53.213539 60.204742 -0.63726085
53.185299 60.194805 -0.32018465
53.167122 60.188412 0
53.151203 60.182808 0.32119408
53.220577 60.192574 -0.95294541
53.213261 60.189991 -0.63754886
53.189903 60.18174 -0.32018465
53.152103 60.168388 0
53.146015 60.166237 0.32148463
53.213211 60.18264 -0.9538005
53.220436 60.1852 -0.63726085
53.182404 60.171741 -0.32047522
53.154419 60.161835 0
53.153244 60.161423 0.32133907
53.212978 60.167885 -0.95422971
53.229942 60.173916 -0.63697171
53.206627 60.16563 -0.31989464
53.159065 60.148735 0
53.148087 60.144836 0.32162964
53.217613 60.154854 -0.95422971
53.229687 60.159161 -0.63726085
53.196579 60.147354 -0.3203302
53.163727 60.135639 0
53.157646 60.133469 0.32148463
53.227119 60.143566 -0.9538005
53.229469 60.144409 -0.63754886
53.201241 60.134304 -0.3203302
53.173298 60.124298 0
53.157436 60.118622 0.32162964
53.231785 60.13055 -0.9538005
53.219528 60.126148 -0.63841403
53.201035 60.119503 -0.32047522
53.187778 60.114738 0
53.176811 60.110798 0.32119408
53.231625 60.115795 -0.95422971
53.224216 60.113125 -0.63841403
53.191059 60.101166 -0.32091078
53.177803 60.096382 0
53.166847 60.09243 0.32162964
53.226681 60.099297 -0.95508486
53.22406 60.098347 -0.63870203
53.186016 60.084572 -0.32120076
53.197197 60.088619 0
53.171577 60.079342 0.32162964
53.236221 60.088032 -0.95465726
53.214214 60.080032 -0.63956606
53.190754 60.071507 -0.32120076
53.192158 60.072018 0
53.171444 60.064487 0.32177463
53.231319 60.071514 -0.9555124
53.228668 60.070545 -0.63899004
53.205265 60.062008 -0.32091078
53.172466 60.050045 0
53.171329 60.049629 0.32191962
53.236076 60.058506 -0.9555124
53.228569 60.055756 -0.63927805
53.219799 60.052544 -0.32062021
53.177246 60.036964 0
53.16634 60.03297 0.32221019
53.231197 60.041954 -0.95636916
53.233345 60.042744 -0.63927805
53.195301 60.028763 -0.32149133
53.186928 60.025684 0
53.166267 60.018089 0.32235518
53.255257 60.036053 -0.95465726
53.242981 60.031525 -0.63899004
53.204998 60.017513 -0.32134578
53.20639 60.018028 0
53.166218 60.003204 0.3225002
53.255241 60.021294 -0.95508486
53.238091 60.014942 -0.63956606
53.19519 59.999058 -0.32178134
53.172161 59.990528 0
53.161297 59.986507 0.32279074
53.250423 60.004734 -0.95594162
53.257446 60.007343 -0.63870203
53.204903 59.987812 -0.32163632
53.196529 59.984703 0
53.185638 59.980656 0.32221019
53.260082 59.993546 -0.9555124
53.247753 59.988945 -0.63956606
53.195164 59.96933 -0.32207131
53.220894 59.978928 0
53.190506 59.96759 0.32221019
53.255306 59.976967 -0.95636916
53.238071 59.970512 -0.64043123
53.204903 59.958096 -0.32192633
53.206264 59.958607 0
53.185661 59.95089 0.3225002
53.264977 59.965794 -0.95594162
53.23811 59.955696 -0.64071923
53.200058 59.941395 -0.32221687
53.225758 59.951054 0
53.190559 59.937828 0.3225002
53.250664 59.945583 -0.95765179
53.243004 59.942696 -0.64071923
53.219559 59.933853 -0.32178134
53.235542 59.93988 0
53.195477 59.92477 0.3225002
53.2435 59.935455 -0.95850855
53.211578 59.923397 -0.64273757
53.173416 59.908974 -0.32323244
53.223385 59.927856 0
53.149319 59.899868 0.32395187
53.253212 59.924282 -0.95808101
53.206829 59.906693 -0.64331472
53.086037 59.860878 -0.32599023
53.121254 59.874237 0
53.013367 59.833321 0.32816076
53.262959 59.913132 -0.95765179
53.124771 59.860531 -0.64850342
52.993908 59.810722 -0.32889301
52.917088 59.781479 0
52.930996 59.786774 0.330773
53.28228 59.905651 -0.95636916
53.120125 59.843704 -0.64907944
52.984428 59.791866 -0.32932803
52.970806 59.786663 0
52.931244 59.771549 0.33091801
53.272865 59.887196 -0.95765179
53.067192 59.808342 -0.65253896
52.989517 59.778561 -0.32932803
52.961319 59.767746 0
52.960617 59.767479 0.33019245
53.26825 59.870544 -0.95850855
53.081913 59.798843 -0.65196294
52.999474 59.767124 -0.32918301
52.995598 59.765633 0
52.946339 59.746677 0.330773
53.282837 59.861282 -0.95765179
53.096657 59.789387 -0.65138578
52.980362 59.744476 -0.32990858
52.991001 59.748585 0
52.980583 59.74456 0.32990187
53.268696 59.840916 -0.9593637
51.712692 59.237862 -0.73440957
53.004894 59.738674 -0.32932803
43.823978 56.18047 0
39.592918 54.540653 0.73104674
53.249794 59.818642 -0.96150476
51.62685 59.187389 -0.73988742
53.029427 59.732929 -0.32874745
43.901344 56.182507 0
39.584991 54.503635 0.73162735
53.254852 59.805656 -0.96150476
51.584496 59.153637 -0.74276978
52.991024 59.702671 -0.33005357
43.95446 56.175266 0
39.615845 54.481701 0.73104674
53.25515 59.790802 -0.9619323
51.513294 59.108448 -0.74738246
53.01556 59.696945 -0.32947358
44.031769 56.177628 0
39.603176 54.442768 0.7317723
53.241135 59.770309 -0.96364421
51.461445 59.070652 -0.75084198
44.17033 56.204258 -0.59506458
44.07513 56.166832 0
52.962952 59.660946 0.33120856
53.270126 59.766731 -0.96150476
51.433739 59.042221 -0.75285918
44.218437 56.19556 -0.59390348
44.157242 56.171417 0
43.097149 55.753178 0.62756801
53.275249 59.753769 -0.96150476
51.420502 59.019424 -0.75401235
44.271362 56.188881 -0.59259737
44.205429 56.162777 0
43.16996 55.752804 0.6256808
53.261303 59.733231 -0.9632166
51.349609 58.973667 -0.75862503
44.329105 56.184235 -0.59114623
44.287476 56.167694 0
43.237873 55.75066 0.62393969
53.282963 59.734341 -0.96150476
51.319 58.952629 -0.76064336
44.401421 56.199253 -0.58911455
44.335732 56.173107 0
