# .PCD v0.7 - Point Cloud Data file format
VERSION 0.7
FIELDS x y z
SIZE 4 4 4
TYPE F F F
COUNT 1 1 1
WIDTH 2017
HEIGHT 1
VIEWPOINT 0 0 0 1 0 0 0
POINTS 2017
DATA ascii
64 64 -0
64 64 -0
64 64 -0
64 64 -0
55.83873 64.686974 -0.22873479
56.265453 64.651054 0
53.311958 64.899666 0.29955226
64 64 -0
64 64 -0
64 64 -0
64 64 -0
64 64 -0
55.868988 64.674538 -0.22786367
56.259491 64.642143 0
53.196945 64.896202 0.30274504
64 64 -0
64 64 -0
64 64 -0
64 64 -0
64 64 -0
55.868179 64.664711 -0.22786367
56.25872 64.63279 0
53.201046 64.882729 0.30260006
64 64 -0
64 64 -0
64 64 -0
64 64 -0
64 64 -0
55.836693 64.662323 -0.22873479
56.299843 64.624741 0
53.221237 64.874519 0.30201948
64 64 -0
64 64 -0
64 64 -0
64 64 -0
64 64 -0
55.882515 64.648727 -0.22742867
56.257584 64.618752 0
53.266804 64.857773 0.30071339
64 64 -0
64 64 -0
64 64 -0
64 64 -0
64 64 -0
55.892109 64.638107 -0.22713812
56.262028 64.608994 0
53.307224 64.841537 0.29955226
64 64 -0
64 64 -0
64 64 -0
64 64 -0
64 64 -0
55.86544 64.630318 -0.22786367
56.266502 64.599236 0
53.389114 64.822197 0.29723004
64 64 -0
64 64 -0
64 64 -0
64 64 -0
64 64 -0
55.828407 64.623253 -0.22887979
56.296913 64.587517 0
53.439938 64.80542 0.2957789
64 64 -0
64 64 -0
64 64 -0
64 64 -0
64 64 -0
55.879475 64.609489 -0.22742867
56.306599 64.577431 0
53.428596 64.793442 0.29606947
64 64 -0
64 64 -0
64 64 -0
64 64 -0
64 64 -0
55.863209 64.600822 -0.22786367
56.243618 64.572731 0
53.438023 64.7799 0.2957789
64 64 -0
64 64 -0
64 64 -0
64 64 -0
64 64 -0
54.608215 64.682083 -0.26298547
56.248116 64.562988 0
53.478554 64.76413 0.2946178
64 64 -0
64 64 -0
64 64 -0
64 64 -0
64 64 -0
54.56073 64.674065 -0.26429215
56.247444 64.553619 0
53.539845 64.746971 0.29287612
64 64 -0
64 64 -0
64 64 -0
64 64 -0
64 64 -0
54.456257 64.669937 -0.26719439
56.26236 64.543159 0
53.647812 64.726692 0.28982833
64 64 -0
64 64 -0
64 64 -0
64 64 -0
64 64 -0
54.439896 64.659477 -0.26762995
56.313625 64.530228 0
53.771351 64.705597 0.28634554
64 64 -0
64 64 -0
64 64 -0
64 64 -0
64 64 -0
54.485767 64.644768 -0.26632383
56.297409 64.521996 0
53.853466 64.687614 0.28402331
64 64 -0
64 64 -0
64 64 -0
64 64 -0
64 64 -0
54.474632 64.633957 -0.26661381
56.286404 64.513374 0
53.821541 64.677422 0.28489387
64 64 -0
64 64 -0
64 64 -0
64 64 -0
64 64 -0
54.473873 64.622452 -0.26661381
56.259827 64.505753 0
53.836269 64.664108 0.28445888
64 64 -0
64 64 -0
64 64 -0
64 64 -0
64 64 -0
54.457565 64.611938 -0.26704937
56.233234 64.49807 0
53.923637 64.646179 0.28199163
64 64 -0
64 64 -0
64 64 -0
64 64 -0
64 64 -0
54.446815 64.606827 -0.26733994
56.279701 64.490402 0
54.016613 64.634155 0.27937886
64 64 -0
64 64 -0
64 64 -0
64 64 -0
64 64 -0
54.440907 64.595612 -0.26748493
56.310272 64.479134 0
54.093643 64.617249 0.27720219
64 64 -0
64 64 -0
64 64 -0
64 64 -0
64 64 -0
54.445377 64.58374 -0.26733994
56.257755 64.473015 0
54.124039 64.603371 0.27633107
64 64 -0
64 64 -0
64 64 -0
64 64 -0
64 64 -0
54.465427 64.570953 -0.2667594
56.272762 64.462723 0
54.175182 64.588333 0.27487993
64 64 -0
64 64 -0
64 64 -0
64 64 -0
64 64 -0
54.505585 64.545525 -0.26559827
56.28207 64.443451 0
54.215294 64.562202 0.27371883
64 64 -0
64 64 -0
64 64 -0
64 64 -0
64 64 -0
54.556828 64.531136 -0.2641466
56.291924 64.43354 0
54.25095 64.54834 0.27270272
64 64 -0
64 64 -0
64 64 -0
64 64 -0
64 64 -0
54.582134 64.518295 -0.26342103
56.286213 64.424515 0
54.255478 64.53627 0.27255771
64 64 -0
64 64 -0
64 64 -0
64 64 -0
64 64 -0
54.887672 64.49044 -0.25485823
56.275322 64.415756 0
54.27039 64.523659 0.27212271
64 64 -0
64 64 -0
64 64 -0
64 64 -0
64 64 -0
55.369705 64.454041 -0.24136095
56.274822 64.406418 0
54.223061 64.514359 0.27342883
64 64 -0
64 64 -0
64 64 -0
64 64 -0
64 64 -0
55.597504 64.43187 -0.23497537
56.269127 64.397354 0
54.232838 64.502014 0.27313825
64 64 -0
64 64 -0
64 64 -0
64 64 -0
64 64 -0
55.591805 64.421982 -0.23512037
56.273865 64.387749 0
54.1959 64.492035 0.27415439
64 64 -0
64 64 -0
64 64 -0
64 64 -0
64 64 -0
55.62764 64.410042 -0.23410426
56.247391 64.379684 0
54.190128 64.480446 0.27429938
64 64 -0
64 64 -0
64 64 -0
64 64 -0
64 64 -0
55.595997 64.401413 -0.23497537
56.246941 64.370323 0
54.241455 64.46611 0.27284828
64 64 -0
64 64 -0
64 64 -0
64 64 -0
64 64 -0
55.600704 64.391014 -0.23483036
56.282898 64.359261 0
54.23571 64.454559 0.27299327
64 64 -0
64 64 -0
64 64 -0
64 64 -0
64 64 -0
55.584908 64.386658 -0.23526537
56.272293 64.355072 0
54.287342 64.446274 0.27154216
64 64 -0
64 64 -0
64 64 -0
64 64 -0
64 64 -0
55.610401 64.375328 -0.23453981
56.287453 64.345039 0
54.307579 64.433609 0.27096158
64 64 -0
64 64 -0
64 64 -0
64 64 -0
64 64 -0
55.609955 64.365189 -0.23453981
56.287041 64.335716 0
54.327827 64.420998 0.27038103
64 64 -0
64 64 -0
64 64 -0
64 64 -0
64 64 -0
55.547211 64.357689 -0.23628148
56.286644 64.326401 0
54.379257 64.407112 0.26892936
64 64 -0
64 64 -0
64 64 -0
64 64 -0
64 64 -0
55.56237 64.346832 -0.23584592
56.281059 64.317291 0
54.425503 64.393562 0.26762325
64 64 -0
64 64 -0
64 64 -0
64 64 -0
64 64 -0
55.598289 64.33519 -0.23483036
56.27029 64.30838 0
54.445805 64.381165 0.2670427
64 64 -0
64 64 -0
64 64 -0
64 64 -0
64 64 -0
55.587517 64.325439 -0.23512037
56.26992 64.299042 0
54.492085 64.367813 0.26573658
64 64 -0
64 64 -0
64 64 -0
64 64 -0
64 64 -0
55.587128 64.315269 -0.23512037
56.243546 64.290672 0
54.53838 64.354576 0.26443046
64 64 -0
64 64 -0
64 64 -0
64 64 -0
64 64 -0
55.607529 64.304352 -0.23453981
56.253613 64.280922 0
54.543148 64.342957 0.26428545
64 64 -0
64 64 -0
64 64 -0
64 64 -0
64 64 -0
55.5812 64.29512 -0.23526537
56.258476 64.271378 0
54.553139 64.331161 0.2639949
64 64 -0
64 64 -0
64 64 -0
64 64 -0
64 64 -0
55.58604 64.284775 -0.23512037
56.247757 64.262375 0
54.563122 64.319397 0.2637049
64 64 -0
64 64 -0
64 64 -0
64 64 -0
64 64 -0
55.580513 64.27478 -0.23526537
56.268257 64.252335 0
54.573143 64.307655 0.26341435
64 64 -0
64 64 -0
64 64 -0
64 64 -0
64 64 -0
55.590569 64.264275 -0.23497537
56.273155 64.242828 0
54.562378 64.296593 0.2637049
64 64 -0
64 64 -0
64 64 -0
64 64 -0
64 64 -0
55.637001 64.252701 -0.23366925
56.257256 64.233963 0
54.577614 64.284714 0.26326934
64 64 -0
64 64 -0
64 64 -0
64 64 -0
64 64 -0
55.610733 64.243355 -0.23439482
56.256977 64.224602 0
54.551308 64.274086 0.2639949
64 64 -0
64 64 -0
64 64 -0
64 64 -0
64 64 -0
55.636555 64.237549 -0.23366925
56.277653 64.219337 0
54.577114 64.267639 0.26326934
64 64 -0
64 64 -0
64 64 -0
64 64 -0
64 64 -0
55.646675 64.227158 -0.23337869
56.225372 64.211418 0
54.602768 64.255547 0.2625438
64 64 -0
64 64 -0
64 64 -0
64 64 -0
64 64 -0
55.636005 64.217331 -0.23366925
56.245937 64.201485 0
54.612865 64.243919 0.26225322
64 64 -0
64 64 -0
64 64 -0
64 64 -0
64 64 -0
55.620178 64.207611 -0.23410426
56.240482 64.192245 0
54.607368 64.232704 0.26239878
64 64 -0
64 64 -0
64 64 -0
64 64 -0
64 64 -0
55.635506 64.197121 -0.23366925
56.255871 64.182503 0
54.617493 64.221107 0.26210824
64 64 -0
64 64 -0
64 64 -0
64 64 -0
64 64 -0
55.609299 64.187592 -0.23439482
56.260853 64.173027 0
54.617233 64.20977 0.26210824
64 64 -0
64 64 -0
64 64 -0
64 64 -0
64 64 -0
55.614269 64.177345 -0.23424982
56.265869 64.163567 0
54.616989 64.198433 0.26210824
64 64 -0
64 64 -0
64 64 -0
64 64 -0
64 64 -0
55.614059 64.167213 -0.23424982
56.208427 64.155365 0
54.580379 64.18782 0.26312435
64 64 -0
64 64 -0
64 64 -0
64 64 -0
64 64 -0
55.629459 64.156792 -0.23381425
56.223866 64.145653 0
54.606133 64.175957 0.26239878
64 64 -0
64 64 -0
64 64 -0
64 64 -0
64 64 -0
55.60849 64.147041 -0.23439482
56.265327 64.135529 0
54.600735 64.164696 0.2625438
64 64 -0
64 64 -0
64 64 -0
64 64 -0
64 64 -0
55.592724 64.137154 -0.23483036
56.27037 64.126099 0
54.605736 64.153252 0.26239878
64 64 -0
64 64 -0
64 64 -0
64 64 -0
64 64 -0
55.592567 64.126991 -0.23483036
56.249405 64.117073 0
54.631535 64.14151 0.26167324
64 64 -0
64 64 -0
64 64 -0
64 64 -0
64 64 -0
55.628799 64.116333 -0.23381425
56.23885 64.107849 0
54.626179 64.130264 0.26181823
64 64 -0
64 64 -0
64 64 -0
64 64 -0
64 64 -0
55.613068 64.106415 -0.23424982
56.233524 64.098541 0
54.657215 64.118538 0.26094711
64 64 -0
64 64 -0
64 64 -0
64 64 -0
64 64 -0
55.607815 64.10141 -0.23439482
56.238667 64.093788 0
54.657146 64.112892 0.26094711
64 64 -0
64 64 -0
64 64 -0
64 64 -0
64 64 -0
55.612892 64.091209 -0.23424982
56.23336 64.084465 0
54.677803 64.101379 0.26036656
64 64 -0
64 64 -0
64 64 -0
64 64 -0
64 64 -0
55.643974 64.080772 -0.23337869
56.243683 64.074982 0
54.677689 64.090118 0.26036656
64 64 -0
64 64 -0
64 64 -0
64 64 -0
64 64 -0
55.617905 64.0709 -0.23410426
52.84502 64.094353 0
54.729542 64.078415 0.25891542
64 64 -0
64 64 -0
64 64 -0
64 64 -0
64 64 -0
55.628212 64.060692 -0.23381425
52.844913 64.080872 0
54.729454 64.067207 0.25891542
64 64 -0
64 64 -0
64 64 -0
64 64 -0
64 64 -0
55.638546 64.050514 -0.2335237
52.850021 64.06736 0
54.765762 64.055786 0.25789931
64 64 -0
64 64 -0
64 64 -0
64 64 -0
64 64 -0
55.612492 64.040543 -0.23424982
52.829132 64.053993 0
54.770893 64.044609 0.25775433
64 64 -0
64 64 -0
64 64 -0
64 64 -0
64 64 -0
55.628044 64.03035 -0.23381425
52.792656 64.040627 0
54.802017 64.03334 0.25688377
64 64 -0
64 64 -0
64 64 -0
64 64 -0
64 64 -0
55.628014 64.020233 -0.23381425
52.740555 64.027206 0
54.827965 64.022163 0.2561582
64 64 -0
64 64 -0
64 64 -0
64 64 -0
64 64 -0
55.617611 64.010132 -0.23410426
52.678089 64.01368 0
54.853943 64.011055 0.2554321
64 64 -0
64 64 -0
64 64 -0
64 64 -0
64 64 -0
55.555244 64 -0.23584592
52.61042 64 0
54.895512 64 0.25427097
64 64 -0
64 64 -0
64 64 -0
64 64 -0
64 64 -0
55.482483 63.989708 -0.23787816
52.610428 63.986237 0
54.885117 63.988987 0.25456154
64 64 -0
64 64 -0
64 64 -0
64 64 -0
64 64 -0
55.435734 63.979305 -0.23918428
52.615654 63.972488 0
54.947498 63.978123 0.25281987
64 64 -0
64 64 -0
64 64 -0
64 64 -0
64 64 -0
55.394192 63.968803 -0.24034539
52.589676 63.958637 0
54.968315 63.967262 0.25223929
64 64 -0
64 64 -0
64 64 -0
64 64 -0
64 64 -0
55.321487 63.958054 -0.24237707
52.600132 63.944901 0
55.004745 63.956524 0.25122318
64 64 -0
64 64 -0
64 64 -0
64 64 -0
64 64 -0
55.30592 63.952728 -0.24281262
52.57935 63.937901 0
55.009964 63.951118 0.25107819
64 64 -0
64 64 -0
64 64 -0
64 64 -0
64 64 -0
55.228046 63.941704 -0.24498929
64 64 0
55.051605 63.940533 0.24991708
64 64 -0
64 64 -0
64 64 -0
64 64 -0
64 64 -0
55.207336 63.930943 -0.24556985
52.558712 63.910137 0
55.072472 63.929882 0.24933651
64 64 -0
64 64 -0
64 64 -0
64 64 -0
64 64 -0
55.202236 63.920269 -0.24571486
52.56403 63.896362 0
55.098541 63.919331 0.24861096
64 64 -0
64 64 -0
64 64 -0
64 64 -0
64 64 -0
55.181553 63.909428 -0.24629541
52.564163 63.882542 0
55.08305 63.908413 0.2490465
64 64 -0
64 64 -0
64 64 -0
64 64 -0
64 64 -0
55.160881 63.898533 -0.24687597
52.543495 63.868484 0
55.124741 63.898117 0.24788539
64 64 -0
64 64 -0
64 64 -0
64 64 -0
64 64 -0
55.171394 63.887985 -0.24658597
52.554081 63.854774 0
55.12487 63.887394 0.24788539
64 64 -0
64 64 -0
64 64 -0
64 64 -0
64 64 -0
55.140366 63.876884 -0.24745654
52.569885 63.841164 0
55.130203 63.876743 0.24774039
64 64 -0
64 64 -0
64 64 -0
64 64 -0
64 64 -0
55.145714 63.866257 -0.24731153
52.580482 63.827507 0
55.13036 63.866024 0.24774039
64 64 -0
64 64 -0
64 64 -0
64 64 -0
64 64 -0
55.109684 63.844223 -0.24832764
52.560116 63.799549 0
55.151493 63.844955 0.24715984
64 64 -0
64 64 -0
64 64 -0
64 64 -0
64 64 -0
55.104691 63.833382 -0.24847265
52.591602 63.786312 0
55.162086 63.834457 0.24686928
64 64 -0
64 64 -0
64 64 -0
64 64 -0
64 64 -0
55.089302 63.822323 -0.24890821
52.565834 63.772007 0
55.203842 63.824608 0.24570872
64 64 -0
64 64 -0
64 64 -0
64 64 -0
64 64 -0
55.047977 63.810677 -0.25006875
52.581734 63.758522 0
55.219654 63.814308 0.24527316
64 64 -0
64 64 -0
57.480194 63.854233 -0.72234607
64 64 -0
64 64 -0
55.074188 63.800442 -0.2493432
52.556019 63.744144 0
55.219883 63.803699 0.24527316
64 64 -0
64 64 -0
57.526093 63.847435 -0.71728069
64 64 -0
64 64 -0
55.048462 63.789043 -0.25006875
52.556335 63.730316 0
55.24091 63.793579 0.24469261
64 64 -0
64 64 -0
57.709061 63.847942 -0.69701898
64 64 -0
64 64 -0
55.043381 63.783512 -0.25021431
52.561699 63.723526 0
55.246223 63.788414 0.24454761
64 64 -0
64 64 -0
57.597492 63.837505 -0.70940137
64 64 -0
64 64 -0
55.028076 63.772293 -0.25064933
52.530834 63.708916 0
55.246487 63.777836 0.24454761
64 64 -0
64 64 -0
57.684048 63.832066 -0.69983286
64 64 -0
64 64 -0
54.991989 63.760487 -0.25166544
52.552006 63.69561 0
55.283134 63.768227 0.2435315
64 64 -0
64 64 -0
57.57251 63.821327 -0.71221524
64 64 -0
64 64 -0
54.961128 63.748737 -0.252536
52.552383 63.681778 0
55.262642 63.757118 0.24411204
64 64 -0
64 64 -0
57.577805 63.813709 -0.71165293
56.894241 63.79388 -0.59256488
64 64 -0
54.940659 63.737213 -0.25311655
52.563171 63.668247 0
55.27853 63.747013 0.24367648
64 64 -0
64 64 -0
57.598354 63.806564 -0.70940137
56.920151 63.786068 -0.59042549
56.319668 63.767925 -0.42822474
54.914993 63.725479 -0.25384265
52.547966 63.653957 0
55.30481 63.737259 0.24295093
64 64 -0
64 64 -0
57.771278 63.804253 -0.69026434
56.925541 63.777676 -0.58999789
56.397495 63.761082 -0.42390117
54.894554 63.713848 -0.25442323
52.522385 63.639301 0
55.294754 63.726425 0.24324094
64 64 -0
64 64 -0
57.669956 63.793415 -0.70151991
57.007915 63.771809 -0.58315045
56.263374 63.747509 -0.43139622
54.889717 63.702679 -0.25456822
52.522831 63.625435 0
55.321056 63.716755 0.24251537
64 64 -0
64 64 -0
57.56356 63.782154 -0.71333992
57.013321 63.763535 -0.5827229
56.325726 63.740261 -0.42793673
54.869308 63.690968 -0.25514877
52.549297 63.612446 0
55.342178 63.706974 0.24193482
64 64 -0
64 64 -0
57.721252 63.779896 -0.69589216
57.023888 63.755451 -0.58186615
56.217484 63.727184 -0.43399057
54.890465 63.680664 -0.25456822
52.518574 63.597515 0
55.352921 63.696877 0.24164481
64 64 -0
64 64 -0
57.787537 63.774704 -0.68857515
56.926697 63.743488 -0.58999789
56.181629 63.716465 -0.4360089
54.87529 63.66909 -0.25500321
52.519066 63.583645 0
55.368877 63.686993 0.24120925
64 64 -0
64 64 -0
57.721802 63.764725 -0.69589216
56.921886 63.734749 -0.59042549
56.171646 63.706635 -0.43658495
54.870491 63.657871 -0.25514877
52.535187 63.570358 0
55.384846 63.677147 0.24077371
64 64 -0
64 64 -0
57.732235 63.75753 -0.69476742
56.988899 63.728775 -0.58486229
56.21336 63.698772 -0.43427861
54.855347 63.64624 -0.25558379
52.514912 63.555698 0
55.369659 63.666134 0.24120925
64 64 -0
64 64 -0
57.727463 63.749756 -0.69532979
56.978985 63.719894 -0.58571744
56.182709 63.688126 -0.4360089
54.8298 63.634151 -0.2563099
52.515457 63.541821 0
55.416798 63.65757 0.23990314
64 64 -0
64 64 -0
57.732841 63.742386 -0.69476742
56.922894 63.709091 -0.59042549
56.203762 63.679531 -0.43485573
54.851021 63.623928 -0.25572935
52.474411 63.526234 0
55.401634 63.646561 0.2403387
64 64 -0
64 64 -0
57.641613 63.734787 -0.7048983
56.953857 63.7061 -0.58785683
56.260818 63.677193 -0.43168426
54.85125 63.618401 -0.25572935
52.500698 63.520355 0
55.422619 63.642231 0.23975815
64 64 -0
64 64 -0
57.66732 63.728195 -0.70208442
56.969593 63.698246 -0.5865742
56.194031 63.664959 -0.43543178
54.836155 63.606678 -0.25616434
52.470097 63.505123 0
55.443825 63.632759 0.23917758
64 64 -0
64 64 -0
57.682888 63.721214 -0.70039523
57.016121 63.691788 -0.5827229
56.204765 63.655983 -0.43485573
54.805473 63.594231 -0.25703546
52.491501 63.492111 0
55.459858 63.623108 0.23874202
64 64 -0
64 64 -0
57.683231 63.713581 -0.70039523
56.975487 63.681492 -0.58614498
56.215534 63.647034 -0.43427861
54.785206 63.58218 -0.25761601
52.476521 63.477497 0
55.465508 63.613026 0.23859702
64 64 -0
64 64 -0
57.698814 63.706657 -0.69870603
57.011761 63.674675 -0.58315045
56.22113 63.637867 -0.43399057
54.816875 63.572495 -0.25674489
52.471966 63.463333 0
55.486744 63.60368 0.23801647
64 64 -0
64 64 -0
57.744854 63.701225 -0.69364059
56.945496 63.663048 -0.58871359
56.288738 63.631676 -0.43024305
54.786243 63.55991 -0.25761601
52.45702 63.448658 0
55.492416 63.593639 0.23787147
64 64 -0
64 64 -0
57.806126 63.696651 -0.68688595
56.940788 63.65427 -0.58914113
56.222027 63.619072 -0.43399057
54.797173 63.549286 -0.25732547
52.447289 63.4342 0
55.524067 63.584888 0.23700035
64 64 -0
64 64 -0
57.684689 63.683056 -0.70039523
56.992477 63.648315 -0.58486229
56.253479 63.611229 -0.43226138
54.776962 63.537125 -0.25790602
52.442787 63.419983 0
55.514183 63.574123 0.2372909
64 64 -0
64 64 -0
57.740906 63.678295 -0.69420296
57.033924 63.641956 -0.58143854
56.290123 63.603725 -0.43024305
54.767139 63.525448 -0.25819656
52.433109 63.405483 0
55.545853 63.565472 0.2364198
64 64 -0
64 64 -0
57.7616 63.671799 -0.69195139
56.972839 63.630302 -0.5865742
56.342258 63.59713 -0.42736068
54.778107 63.514839 -0.25790602
52.423431 63.390961 0
55.561939 63.556076 0.2359848
64 64 -0
64 64 -0
57.756912 63.663986 -0.69251591
57.045074 63.625675 -0.58058178
56.249779 63.58287 -0.43254939
54.747555 63.502022 -0.25877714
52.418983 63.376694 0
55.578056 63.546719 0.23554924
64 64 -0
64 64 -0
57.747185 63.655888 -0.69364059
57.00452 63.615017 -0.58400553
56.27095 63.574646 -0.43139622
54.753365 63.491127 -0.25863156
52.414551 63.362415 0
55.594181 63.537399 0.23511368
64 64 -0
64 64 -0
57.737446 63.647758 -0.69476742
57.066502 63.610023 -0.57886994
56.323109 63.568211 -0.42851385
54.738419 63.47908 -0.25906712
52.404926 63.347832 0
55.62587 63.528996 0.23424312
64 64 -0
64 64 -0
57.707447 63.638447 -0.69814366
57.087463 63.602821 -0.5771597
56.287498 63.556858 -0.43053108
54.739052 63.467888 -0.25906712
52.410934 63.334122 0
55.616077 63.51828 0.23453312
64 64 -0
64 64 -0
57.75354 63.633522 -0.69307822
57.103329 63.595371 -0.5758754
56.329353 63.549965 -0.42822474
54.73452 63.456394 -0.25921214
52.37537 63.317982 0
55.637417 63.509369 0.23395257
64 64 -0
64 64 -0
57.723335 63.627945 -0.69645447
57.103573 63.591206 -0.5758754
56.277977 63.542267 -0.43110821
54.7141 63.449566 -0.25979269
52.370594 63.310654 0
55.653263 63.505238 0.23351756
64 64 -0
64 64 -0
57.74408 63.621586 -0.69420296
57.119453 63.583805 -0.5745911
56.304348 63.5345 -0.42966703
54.735519 63.439602 -0.25921214
52.355843 63.295658 0
55.679821 63.496723 0.23279145
64 64 -0
64 64 -0
57.724251 63.612778 -0.69645447
57.140457 63.576756 -0.5728792
56.33075 63.526794 -0.42822474
54.731003 63.428089 -0.25935769
52.330734 63.279987 0
55.6908 63.487309 0.23250145
64 64 -0
64 64 -0
57.72979 63.605511 -0.69589216
57.151211 63.569111 -0.57202411
56.279686 63.514278 -0.43110821
54.716156 63.415909 -0.25979269
52.32642 63.26556 0
55.727737 63.479553 0.23148534
64 64 -0
64 64 -0
57.649132 63.592731 -0.7048983
57.146618 63.560509 -0.57245165
56.33707 63.508595 -0.42793673
54.711666 63.404358 -0.25993824
52.316917 63.25079 0
55.733551 63.469891 0.23134033
64 64 -0
64 64 -0
57.745979 63.591354 -0.69420296
57.147156 63.552227 -0.57245165
56.347984 63.500008 -0.42736068
54.733139 63.394493 -0.25935769
52.271091 63.23362 0
55.760124 63.461597 0.23061477
64 64 -0
58.701923 63.647388 -0.73247868
57.700829 63.580761 -0.69927055
57.142582 63.543606 -0.5728792
56.32795 63.489388 -0.42851385
54.713135 63.381916 -0.25993824
52.282402 63.220139 0
55.77634 63.452675 0.23017922
64 64 -0
58.712357 63.641663 -0.73109573
57.711491 63.573837 -0.69814366
57.168747 63.537056 -0.57073981
56.344059 63.481167 -0.42764869
54.693169 63.369289 -0.26051825
52.267792 63.204926 0
55.771828 63.44239 0.23032421
64 64 -0
58.617699 63.628716 -0.74424475
57.681602 63.56414 -0.70151991
57.159077 63.528095 -0.57159489
56.329205 63.470848 -0.42851385
54.688736 63.357685 -0.26066381
52.268761 63.19075 0
55.782867 63.433163 0.23003422
64 64 -0
58.57309 63.619049 -0.75047624
57.66692 63.555439 -0.7032091
57.175003 63.520908 -0.57031226
56.345337 63.462669 -0.42764869
54.689518 63.346436 -0.26066381
52.285309 63.17767 0
55.809471 63.425053 0.22930866
64 64 -0
58.578575 63.61285 -0.74978209
57.662399 63.547424 -0.70377141
57.170471 63.512295 -0.57073981
56.340836 63.453053 -0.42793673
54.695515 63.335556 -0.26051825
49.197376 62.942928 0
55.804996 63.414787 0.22945365
64 64 -0
58.554008 63.604481 -0.75324488
57.668015 63.540134 -0.7032091
57.171066 63.504044 -0.57073981
56.186729 63.432556 -0.43658495
54.691124 63.323936 -0.26066381
49.183083 62.923912 0
55.80571 63.404884 0.22945365
64 64 -0
58.414402 63.587559 -0.77262276
57.638157 63.530239 -0.70658749
57.140957 63.493526 -0.5733068
56.378277 63.43721 -0.4259195
54.702324 63.313457 -0.26037323
49.241501 62.910229 0
55.821987 63.396133 0.22901811
64 64 -0
58.595009 63.594326 -0.74770761
57.628601 63.521793 -0.70771217
57.162052 63.486774 -0.57159489
56.353176 63.426064 -0.42736068
54.70834 63.302612 -0.26022825
49.216862 62.890446 0
55.838253 63.387417 0.2285831
64 64 -0
58.445423 63.576347 -0.76847112
57.700115 63.519505 -0.69983286
57.137066 63.476559 -0.57373595
56.369354 63.418007 -0.42649552
54.683285 63.28941 -0.26095381
53.696903 63.214176 0
55.854553 63.378742 0.22814754
64 64 -0
58.595753 63.58453 -0.74770761
57.675076 63.513752 -0.70264673
57.142517 63.472809 -0.5733068
56.385185 63.414585 -0.42563039
54.657814 63.281788 -0.26167935
53.686993 63.207153 0
55.860104 63.374218 0.22800255
64 64 -0
58.506229 63.570969 -0.76016515
57.665546 63.505318 -0.70377141
57.107327 63.461723 -0.57630295
56.427155 63.408607 -0.42332405
54.663864 63.270905 -0.26153436
53.703529 63.195908 0
55.871239 63.365192 0.22771199
64 64 -0
58.491741 63.563141 -0.76224232
57.661068 63.497261 -0.70433593
57.128452 63.455021 -0.5745911
56.340214 63.392506 -0.42822474
54.669926 63.260036 -0.26138937
53.709694 63.18388 0
55.903084 63.357838 0.22684142
64 64 -0
58.5923 63.564541 -0.74839908
57.641418 63.487972 -0.70658749
57.129116 63.446716 -0.5745911
56.325481 63.382004 -0.42908987
54.670826 63.248764 -0.26138937
53.71587 63.171864 0
55.867622 63.345135 0.22785698
64 64 -0
58.682835 63.565365 -0.73594153
57.65218 63.481117 -0.70546061
64 64 -0
64 64 -0
54.630302 63.234104 -0.26255047
53.68576 63.156895 0
55.878769 63.336155 0.22756699
64 64 -0
58.583374 63.550644 -0.74978209
57.678131 63.475548 -0.70264673
64 64 -0
64 64 -0
54.646778 63.224072 -0.26211491
53.712719 63.146584 0
55.889946 63.327202 0.22727643
64 64 -0
58.648918 63.549572 -0.74078465
57.623062 63.463219 -0.708839
64 64 -0
64 64 -0
54.642548 63.212334 -0.26225993
53.718941 63.13459 0
55.854507 63.31435 0.22829254
64 64 -0
58.659454 63.543961 -0.73940164
57.679417 63.46027 -0.70264673
57.152332 63.415264 -0.5728792
56.338856 63.345798 -0.42851385
54.638313 63.200584 -0.26240548
53.735558 63.123497 0
55.886402 63.307163 0.22742198
64 64 -0
58.675011 63.538807 -0.73732448
57.659821 63.450882 -0.7048983
57.127476 63.404774 -0.57501864
56.365437 63.338776 -0.42707157
64 64 -0
53.741802 63.111546 0
55.861362 63.295116 0.22814754
64 64 -0
58.635586 63.528862 -0.74286181
57.65543 63.442776 -0.70546061
57.11285 63.395123 -0.57630295
64 64 -0
54.666176 63.180241 -0.26167935
53.727325 63.097782 0
55.841511 63.283466 0.2287281
64 64 -0
58.606182 63.519711 -0.74701345
64 64 -0
57.154499 63.390446 -0.5728792
56.315521 63.315739 -0.42995504
54.672344 63.169422 -0.26153436
53.749161 63.087219 0
55.852745 63.274532 0.22843754
64 64 -0
58.616749 63.514095 -0.74563044
57.646664 63.426533 -0.70658749
57.119442 63.378944 -0.5758754
56.347275 63.309246 -0.42822474
54.673355 63.158154 -0.26153436
64 64 0
55.863968 63.265621 0.22814754
64 64 -0
58.617939 63.501087 -0.74563044
57.627827 63.409302 -0.708839
57.090298 63.359474 -0.57844239
56.338654 63.289799 -0.42880186
54.732323 63.140892 -0.25993824
53.711094 63.046223 0
55.803673 63.240204 0.22988921
64 64 -0
58.72345 63.504436 -0.73109573
57.663967 63.40493 -0.7048983
57.096184 63.351604 -0.57801485
56.344666 63.281025 -0.42851385
54.7075 63.127266 -0.26066381
53.712254 63.033791 0
55.825294 63.232246 0.22930866
64 64 -0
58.688778 63.49794 -0.73594153
57.644093 63.399189 -0.7071498
57.096577 63.347435 -0.57801485
56.370865 63.278835 -0.42707157
54.671829 63.118229 -0.26167935
53.707642 63.027084 0
55.830925 63.227795 0.22916366
64 64 -0
58.754314 63.497742 -0.72694409
57.639771 63.391026 -0.70771217
57.117813 63.341049 -0.57630295
56.387177 63.271095 -0.42620751
54.688404 63.10844 -0.26124436
53.724373 63.01614 0
55.800835 63.214954 0.23003422
64 64 -0
58.724968 63.488499 -0.73109573
57.721439 63.39119 -0.69870603
57.098175 63.330753 -0.57801485
56.393204 63.262394 -0.4259195
54.679153 63.096188 -0.26153436
53.730743 63.004227 0
55.801788 63.205048 0.23003422
64 64 -0
58.800499 63.489479 -0.7207126
57.707001 63.382114 -0.70039523
57.129635 63.325424 -0.57544786
56.37867 63.25169 -0.42678356
54.675087 63.084419 -0.26167935
64 64 0
55.818279 63.196667 0.22959866
64 64 -0
58.786137 63.481709 -0.72278976
57.697647 63.373505 -0.70151991
57.094707 63.313568 -0.57844239
56.400173 63.244526 -0.42563039
54.686531 63.074181 -0.26138937
53.738358 62.979927 0
55.824421 63.187294 0.22945365
64 64 -0
58.826706 63.479427 -0.71725249
57.723686 63.368435 -0.69870603
57.126183 63.308308 -0.5758754
56.395927 63.234825 -0.4259195
54.661808 63.060326 -0.26211491
53.749962 62.968571 0
55.809891 63.175854 0.22988921
64 64 -0
58.797379 63.470127 -0.72140676
57.709282 63.359306 -0.70039523
57.127022 63.300003 -0.5758754
56.432888 63.229309 -0.42390117
54.678467 63.050625 -0.26167935
53.73568 62.954605 0
55.810894 63.165958 0.22988921
64 64 -0
58.813 63.465382 -0.7193296
57.720161 63.352745 -0.69927055
57.112549 63.290119 -0.5771597
56.433823 63.220165 -0.42390117
54.669273 63.038296 -0.26196992
53.721432 62.940601 0
55.806744 63.155533 0.23003422
64 64 -0
58.833611 63.461197 -0.71656096
57.71085 63.344105 -0.70039523
57.11853 63.282333 -0.57673049
56.470795 63.214779 -0.42188287
54.701462 63.030258 -0.2610988
53.753769 62.931423 0
55.843956 63.149406 0.22901811
64 64 -0
58.814308 63.45285 -0.7193296
57.741959 63.339706 -0.69701898
57.150028 63.277248 -0.57416356
64 64 -0
54.687134 63.017387 -0.26153436
53.739536 62.917404 0
53.679623 62.911083 0.28982833
64 64 -0
58.720192 63.43647 -0.73247868
57.732666 63.331066 -0.69814366
57.150906 63.268974 -0.57416356
56.498428 63.199333 -0.42044166
54.683163 63.005581 -0.26167935
53.740852 62.905006 0
53.717106 62.902473 0.28881279
64 64 -0
58.770752 63.435474 -0.7255584
57.708221 63.320766 -0.70095754
57.156895 63.26125 -0.57373595
56.463394 63.186382 -0.42245999
54.679192 62.993767 -0.26182491
53.74218 62.892612 0
53.74427 62.892838 0.28808722
64 64 -0
58.761452 63.428066 -0.72694409
57.739346 63.316475 -0.69758135
57.147594 63.251865 -0.5745911
56.490108 63.180084 -0.42101771
54.690754 62.983635 -0.26153436
53.759056 62.881912 0
53.740452 62.879883 0.28823221
64 64 -0
58.797062 63.425591 -0.72209829
57.75029 63.310024 -0.69645447
57.179111 63.246967 -0.57202411
56.480812 63.169872 -0.42159483
54.671326 62.970104 -0.26211491
53.781105 62.871822 0
53.752155 62.868626 0.28794166
64 64 -0
58.832325 63.426323 -0.71725249
57.740597 63.305126 -0.69758135
57.133648 63.237747 -0.5758754
56.481316 63.165333 -0.42159483
54.708115 62.968483 -0.2610988
53.776623 62.865078 0
53.763161 62.863583 0.28765166
59.132912 63.453739 -0.80745292
58.838001 63.420639 -0.71656096
57.721241 63.295296 -0.69983286
57.175392 63.234035 -0.57245165
56.487465 63.156822 -0.42130682
54.678368 62.953777 -0.26196992
53.783169 62.853306 0
53.780037 62.852951 0.2872161
64 64 -0
58.76392 63.405914 -0.72694409
57.717052 63.28714 -0.70039523
57.191631 63.227524 -0.57116735
56.467926 63.145412 -0.42245999
54.684799 62.9431 -0.26182491
53.763874 62.838612 0
53.760777 62.838261 0.28779665
59.350334 63.466759 -0.77159446
58.794559 63.403023 -0.72278976
57.717918 63.279549 -0.70039523
57.182358 63.218128 -0.57202411
56.479256 63.137493 -0.42188287
54.675766 62.930664 -0.26211491
53.785969 62.828617 0
53.777683 62.827667 0.28736112
59.296963 63.45488 -0.78055984
58.775349 63.394421 -0.7255584
57.738983 63.2743 -0.69814366
57.173119 63.20871 -0.5728792
56.464882 63.126617 -0.422748
54.692558 62.921192 -0.26167935
53.808075 62.818672 0
53.77393 62.814716 0.28750667
59.34671 63.454948 -0.77241176
58.815948 63.392776 -0.72002113
57.755013 63.268509 -0.69645447
57.17408 63.200462 -0.5728792
56.445393 63.115108 -0.42390117
54.719673 62.912971 -0.26095381
53.804344 62.805756 0
53.780544 62.802967 0.28736112
59.416107 63.457462 -0.76100069
58.736965 63.377079 -0.73109573
57.735714 63.258572 -0.69870603
57.185238 63.19342 -0.57202411
56.420784 63.10294 -0.42534235
54.710659 62.900536 -0.26124436
53.805794 62.793438 0
53.776825 62.790009 0.28750667
59.338234 63.442532 -0.77404016
58.807461 63.379059 -0.72140676
57.76688 63.254623 -0.69532979
57.19133 63.185799 -0.57159489
56.442421 63.096241 -0.42418918
54.711994 62.889309 -0.26124436
53.791752 62.779266 0
53.788624 62.778893 0.2872161
59.123001 63.410816 -0.80989546
58.823162 63.374592 -0.7193296
57.752647 63.245262 -0.69701898
57.187206 63.176952 -0.57202411
56.422974 63.084629 -0.42534235
54.708191 62.877464 -0.26138937
53.803558 62.768177 0
53.790108 62.766552 0.2872161
59.310146 63.427673 -0.7789315
58.789051 63.364082 -0.72417539
57.753563 63.237717 -0.69701898
57.213703 63.171833 -0.56988305
56.408676 63.073593 -0.42620751
54.709553 62.866238 -0.26138937
53.815399 62.757122 0
53.786449 62.75359 0.28736112
59.330463 63.424427 -0.77567166
58.839634 63.363926 -0.71725249
57.754486 63.230167 -0.69701898
57.204506 63.162376 -0.57073981
56.404675 63.063789 -0.42649552
54.705776 62.854378 -0.26153436
53.816906 62.744816 0
53.793118 62.741882 0.2872161
59.208553 63.403519 -0.79604185
58.850353 63.358929 -0.71586949
57.760479 63.223251 -0.69645447
57.225903 63.156704 -0.5690279
56.405811 63.054611 -0.42649552
54.722645 62.845078 -0.2610988
53.813271 62.731869 0
53.789494 62.728909 0.28736112
59.287731 63.407593 -0.78300554
58.77647 63.343319 -0.72624993
57.761421 63.215714 -0.69645447
57.211639 63.146599 -0.57031226
56.401829 63.044792 -0.42678356
54.734348 62.835163 -0.2608088
53.814812 62.719563 0
53.791035 62.716572 0.28736112
59.312965 63.405014 -0.7789315
58.832008 63.34396 -0.71863812
57.76741 63.208817 -0.69589216
57.212677 63.138397 -0.57031226
56.392715 63.034306 -0.42736068
54.751236 62.825932 -0.26037323
53.816364 62.707256 0
53.797745 62.704891 0.2872161
59.362728 63.405636 -0.77078027
58.852711 63.340267 -0.71586949
57.733082 63.196762 -0.69983286
57.229004 63.132153 -0.5690279
56.414413 63.027748 -0.42620751
54.747509 62.814098 -0.26051825
53.807598 62.693626 0
53.809616 62.693886 0.28692609
59.235626 63.386417 -0.79196781
58.863075 63.33844 -0.7144838
57.73357 63.192974 -0.69983286
57.209164 63.125439 -0.57073981
56.404751 63.021843 -0.42678356
54.75338 62.80917 -0.26037323
53.818726 62.688801 0
53.779491 62.68375 0.28779665
59.270672 63.38512 -0.78626537
58.838985 63.328995 -0.71794665
57.754707 63.188026 -0.69758135
57.240761 63.121204 -0.56817281
56.400814 63.012001 -0.42707157
54.739357 62.79599 -0.2608088
53.804825 62.674488 0
53.801704 62.67408 0.2872161
59.286125 63.38134 -0.78381974
58.834827 63.322109 -0.71863812
57.765778 63.181805 -0.69645447
57.221485 63.110371 -0.56988305
56.381496 63.000126 -0.42822474
54.730522 62.783447 -0.2610988
53.811592 62.662846 0
53.803314 62.661758 0.2872161
59.335873 63.382133 -0.77567166
58.815754 63.313232 -0.72140676
57.771805 63.174938 -0.69589216
57.217461 63.101501 -0.57031226
56.398079 62.992958 -0.42736068
54.721687 62.770882 -0.26138937
53.833855 62.653271 0
53.820396 62.651485 0.28678054
59.214157 63.360123 -0.79604185
58.811619 63.306305 -0.72209829
57.767776 63.16674 -0.69645447
57.218552 63.093307 -0.57031226
56.399303 62.983772 -0.42736068
54.692284 62.755543 -0.26225993
53.82518 62.63961 0
53.822037 62.639187 0.28678054
59.298206 63.365578 -0.78218824
58.852242 63.305405 -0.71656096
57.788933 63.16193 -0.69420296
57.229839 63.086491 -0.5694555
56.405678 62.975285 -0.42707157
54.652592 62.738735 -0.26342103
53.826832 62.627316 0
53.81852 62.626194 0.28692609
59.235291 63.351227 -0.79278511
58.858051 63.299858 -0.71586949
57.784897 63.153736 -0.69476742
57.246193 63.080387 -0.56817281
56.391537 62.964012 -0.42793673
54.618073 62.722534 -0.26443714
53.833649 62.615726 0
53.82019 62.613892 0.28692609
59.280167 63.351528 -0.78544807
58.848969 63.292282 -0.71725249
57.780895 63.145538 -0.69532979
57.252411 63.072926 -0.5677436
56.346676 62.948486 -0.43053108
54.583595 62.706249 -0.26545271
53.861107 62.606983 0
53.816727 62.600887 0.28707111
59.261368 63.343109 -0.78870797
58.765343 63.274349 -0.72901857
57.797039 63.140118 -0.69364059
57.324722 63.074642 -0.56175292
56.36845 62.942078 -0.42937791
54.543983 62.689163 -0.26661381
53.852497 62.593307 0
53.82357 62.589294 0.28692609
59.301331 63.342861 -0.78218824
58.875534 63.28331 -0.71379232
57.772923 63.129105 -0.69645447
57.402122 63.077244 -0.55533296
56.390224 62.935726 -0.42822474
54.540413 62.677017 -0.2667594
53.864502 62.582485 0
53.830441 62.577721 0.28678054
59.341267 63.342705 -0.77567166
58.777039 63.2631 -0.72763556
57.809189 63.126549 -0.69251591
57.398144 63.068554 -0.55576217
56.386379 62.925804 -0.42851385
54.480289 62.656879 -0.26850051
53.840462 62.566605 0
53.821865 62.563984 0.28707111
59.27356 63.327328 -0.78707957
58.86734 63.269516 -0.71517795
57.825348 63.121216 -0.69082671
57.439938 63.066364 -0.55233842
56.372334 62.914421 -0.42937791
54.476757 62.644642 -0.26864606
53.852493 62.555798 0
53.823608 62.551685 0.28707111
59.215656 63.313187 -0.79685915
58.863262 63.2626 -0.71586949
57.856586 63.118088 -0.68745047
57.461399 63.061356 -0.55062658
56.378769 62.905941 -0.42908987
54.462986 62.630924 -0.26908106
53.864563 62.545017 0
53.830505 62.540127 0.28692609
59.324108 63.32299 -0.7789315
58.8741 63.257835 -0.7144838
57.83754 63.107754 -0.68970203
57.467613 63.054192 -0.55019903
56.364731 62.894508 -0.42995504
54.438915 62.615673 -0.26980716
53.861183 62.532024 0
53.837433 62.528587 0.28678054
59.227123 63.303059 -0.79522765
58.785622 63.23859 -0.72694409
57.858734 63.103245 -0.68745047
57.42812 63.040363 -0.55362272
56.37632 62.88678 -0.42937791
54.435455 62.603374 -0.26995218
53.878399 62.52203 0
53.844357 62.517059 0.28663555
59.168854 63.291569 -0.80500728
58.880413 63.249271 -0.71379232
57.904545 63.106171 -0.68238288
57.418549 63.034908 -0.55447787
56.366745 62.880672 -0.42995504
54.410599 62.593826 -0.27067772
53.874149 62.51516 0
53.850391 62.511677 0.28649053
59.247955 63.297302 -0.79196781
58.88628 63.24382 -0.71310085
58.081562 63.124825 -0.66268355
57.429867 63.028454 -0.55362272
56.362991 62.870693 -0.43024305
54.407169 62.581478 -0.27082273
53.870804 62.502167 0
53.852196 62.499416 0.28649053
59.341686 63.305408 -0.7764858
58.847496 63.23172 -0.71863812
58.273613 63.146149 -0.64129502
57.436138 63.021278 -0.55319357
56.349007 62.859177 -0.43110821
54.419159 62.571423 -0.27053273
53.872623 62.489929 0
53.920834 62.497116 0.28460386
59.220325 63.28141 -0.79685915
58.90797 63.234447 -0.71033216
58.344994 63.149807 -0.6334157
57.427162 63.011818 -0.55405033
56.365746 62.852242 -0.43024305
54.405491 62.557529 -0.27096772
53.859009 62.475368 0
53.922657 62.48494 0.28460386
59.279846 63.284523 -0.78707957
58.948586 63.23431 -0.70479488
58.421394 63.1544 -0.62497187
57.438522 63.005417 -0.55319357
56.362026 62.842243 -0.43053108
54.381535 62.542042 -0.27169386
53.860859 62.46312 0
53.919361 62.471985 0.28474888
59.285599 63.279568 -0.78626537
58.880085 63.217598 -0.7144838
58.457573 63.15303 -0.62103331
57.470173 63.00214 -0.55062658
56.348087 62.830669 -0.43139622
54.39872 62.532776 -0.27125829
53.878162 62.453228 0
53.916084 62.459023 0.28489387
59.247387 63.267849 -0.79278511
58.846317 63.206062 -0.7193296
58.508835 63.154076 -0.61540341
57.471382 62.994251 -0.55062658
56.35461 62.822212 -0.43110821
54.385086 62.518803 -0.27169386
53.885178 62.441792 0
53.938499 62.450005 0.28431332
59.243393 63.261349 -0.79359931
58.901825 63.208309 -0.71171516
58.539978 63.152119 -0.61202717
57.442173 62.98164 -0.55319357
56.330486 62.809006 -0.43254939
54.386883 62.507187 -0.27169386
53.892208 62.430367 0
53.935226 62.43705 0.28445888
59.171047 63.244137 -0.80582142
58.937469 63.207577 -0.70687205
58.566109 63.149448 -0.60921329
57.433254 62.972126 -0.55405033
56.331932 62.79974 -0.43254939
54.373306 62.49316 -0.27212885
53.888973 62.417351 0
53.942272 62.425694 0.28431332
59.220783 63.246006 -0.79767334
58.869053 63.190514 -0.71656096
58.542046 63.138924 -0.61202717
57.470005 62.969795 -0.55105412
56.338493 62.791283 -0.43226138
54.405922 62.486389 -0.27125829
53.880623 62.403515 0
53.94931 62.414352 0.2841683
59.236351 63.242561 -0.79522765
59.013733 63.207165 -0.69648892
58.558151 63.134724 -0.61033797
57.46619 62.961098 -0.55148166
56.324646 62.779591 -0.43312544
54.382103 62.470718 -0.27198383
53.887691 62.392105 0
53.951233 62.402206 0.2841683
59.290943 63.245407 -0.78626537
58.980011 63.195583 -0.70133471
58.569225 63.129757 -0.60921329
57.442085 62.949142 -0.55362272
56.341434 62.77277 -0.43226138
54.394211 62.460739 -0.27169386
53.894775 62.380711 0
53.942902 62.38842 0.28445888
59.286983 63.23893 -0.78707957
58.936409 63.18232 -0.70756352
58.575314 63.124008 -0.60864878
57.458572 62.943672 -0.55233842
56.337822 62.762691 -0.43254939
54.396076 62.449135 -0.27169386
53.891609 62.367672 0
53.934605 62.374615 0.28474888
59.341583 63.24197 -0.7781142
59.001778 63.186676 -0.69856608
58.576374 63.117455 -0.60864878
57.47506 62.938244 -0.55105412
56.354645 62.755928 -0.43168426
54.387711 62.435863 -0.27198383
53.87817 62.352951 0
53.951969 62.36496 0.28431332
59.200565 63.216049 -0.80174738
59.027027 63.187702 -0.69510597
58.591942 63.116634 -0.60696173
57.485828 62.935959 -0.55019903
56.340076 62.748806 -0.43254939
54.38353 62.429218 -0.27212885
53.904846 62.351028 0
53.958084 62.359726 0.2841683
59.264923 63.220684 -0.79115361
58.924046 63.164581 -0.70964068
58.588001 63.109276 -0.6075241
57.492199 62.928925 -0.54976982
56.346695 62.740391 -0.43226138
54.395683 62.419289 -0.27183884
53.911999 62.33968 0
53.970318 62.349281 0.28387833
59.300007 63.220623 -0.78544807
59.029003 63.175686 -0.69510597
58.574039 63.100243 -0.60921329
57.458038 62.91518 -0.55276597
56.297199 62.722683 -0.43514374
54.402721 62.408531 -0.27169386
53.924271 62.329193 0
53.977463 62.338013 0.28373274
59.282406 63.205986 -0.78870797
59.055744 63.167839 -0.6916458
58.581253 63.087978 -0.60864878
57.485989 62.903633 -0.55062658
56.228901 62.692055 -0.4391793
54.396355 62.383621 -0.27198383
53.933464 62.305714 0
53.961006 62.310349 0.28431332
59.254116 63.195328 -0.79359931
59.051811 63.161026 -0.69233733
58.57233 63.079731 -0.6097756
57.462013 62.891472 -0.55276597
56.15398 62.669693 -0.44350395
54.418812 62.375492 -0.27140328
53.904739 62.28833 0
53.968174 62.299088 0.2841683
59.25996 63.190426 -0.79278511
59.042946 63.153358 -0.69372028
58.568439 63.072319 -0.61033797
57.473469 62.8853 -0.55191088
56.094402 62.649765 -0.44696346
54.415665 62.363045 -0.2715483
53.922211 62.278763 0
53.965118 62.286095 0.28431332
59.295048 63.190567 -0.78707957
59.063751 63.150776 -0.69095165
58.579575 63.067478 -0.60921329
57.490005 62.880028 -0.55062658
56.02977 62.628811 -0.45071098
54.402279 62.34882 -0.27198383
53.939674 62.269234 0
53.967197 62.273968 0.28431332
59.237583 63.174755 -0.79685915
58.99062 63.131958 -0.70133471
58.600731 63.0644 -0.60696173
57.521725 62.877426 -0.54805791
55.965176 62.6077 -0.4544585
54.394028 62.335449 -0.2722744
53.916134 62.252636 0
53.964157 62.26096 0.28445888
59.277542 63.1758 -0.79033947
58.981796 63.124184 -0.70271772
58.596867 63.057003 -0.6075241
57.512962 62.867832 -0.54891467
55.94648 62.594437 -0.45561168
54.385818 62.322056 -0.27256441
53.918251 62.240452 0
53.976513 62.250622 0.2841683
59.249336 63.164959 -0.79522765
59.04216 63.128544 -0.69441181
58.577988 63.046955 -0.6097756
57.50423 62.858215 -0.54976982
55.917625 62.579334 -0.4573409
54.38274 62.309544 -0.2727094
53.935772 62.230976 0
53.993996 62.241211 0.28373274
59.245487 63.15836 -0.79604185
59.062962 63.126049 -0.6916458
58.60416 63.044834 -0.60696173
57.505615 62.850368 -0.54976982
55.888775 62.564156 -0.45907119
54.405258 62.301548 -0.27212885
53.932796 62.217911 0
53.98077 62.226402 0.2841683
59.309769 63.163891 -0.78544807
59.059086 63.119205 -0.69233733
58.600319 63.037422 -0.6075241
57.507008 62.842522 -0.54976982
55.921082 62.559807 -0.4573409
54.402187 62.28904 -0.2722744
53.955433 62.2094 0
53.998276 62.217037 0.28373274
59.281578 63.152985 -0.79033947
58.986088 63.099941 -0.70271772
58.606483 63.031796 -0.60696173
57.528625 62.838306 -0.54805791
55.866817 62.539989 -0.46051237
54.399151 62.276527 -0.27241939
53.957603 62.197262 0
53.985085 62.202198 0.2841683
59.267494 63.147503 -0.79278511
58.961948 63.092464 -0.70617789
58.587063 63.024933 -0.60921329
57.483837 62.826202 -0.55191088
55.88298 62.53783 -0.45964721
54.395084 62.269806 -0.27256441
53.953575 62.190273 0
54.00663 62.199833 0.28358775
59.219898 63.132965 -0.80093324
59.017342 63.096226 -0.69856608
58.593262 63.019302 -0.60864878
57.495377 62.820164 -0.55105412
55.925468 62.535408 -0.4573409
54.427853 62.263763 -0.27169386
53.935287 62.174419 0
53.988358 62.184048 0.2841683
59.361965 63.152943 -0.7773
59.087528 63.102825 -0.68887717
58.589436 63.011856 -0.60921329
57.506897 62.814148 -0.55019903
55.901806 62.521008 -0.45878208
54.42485 62.251266 -0.27183884
53.952866 62.165066 0
53.965004 62.167286 0.28489387
59.149094 63.108009 -0.81315535
59.049156 63.089634 -0.69441181
58.590633 63.005318 -0.60921329
57.518444 62.808163 -0.54934227
55.903599 62.511223 -0.45878208
54.416756 62.23782 -0.27212885
53.924385 62.147282 0
53.93655 62.149521 0.28576499
59.359169 63.140839 -0.7781142
59.06012 63.085476 -0.69302881
58.596851 62.99971 -0.60864878
57.4795 62.792854 -0.55276597
55.905403 62.501442 -0.45878208
54.413769 62.225292 -0.2722744
53.885685 62.127529 0
53.867264 62.124119 0.28779665
59.228996 63.110779 -0.80011904
59.031639 63.073994 -0.69718045
58.598064 62.993183 -0.60864878
57.47086 62.783092 -0.55362272
55.9123 62.492607 -0.45849407
54.405712 62.211811 -0.27256441
53.831665 62.104816 0
53.874641 62.112827 0.28765166
59.278671 63.114132 -0.79196781
59.077141 63.076317 -0.69095165
58.579308 62.982906 -0.61090034
57.512703 62.78278 -0.55019903
55.929367 62.485695 -0.45763001
54.392551 62.197342 -0.27299997
53.849316 62.095413 0
53.866722 62.098679 0.28794166
59.197174 63.092831 -0.80582142
59.073318 63.069435 -0.6916458
58.575531 62.975414 -0.6114648
57.47382 62.767319 -0.55362272
55.91597 62.473068 -0.45849407
54.37431 62.181877 -0.27358052
53.831165 62.079285 0
43.906548 60.2047 0.57109439
59.271103 63.100876 -0.79359931
59.049805 63.0588 -0.69510597
58.581779 62.96981 -0.61090034
57.500549 62.764233 -0.55148166
55.943222 62.468132 -0.45705286
54.376514 62.170246 -0.27358052
48.93 61.134678 0
43.957092 60.189159 0.56978828
59.2285 63.0868 -0.80093324
59.036175 63.049992 -0.69718045
58.602993 62.967087 -0.60864878
57.507084 62.757343 -0.55105412
55.940002 62.457428 -0.4573409
54.368534 62.15667 -0.27387053
48.933472 61.11647 0
43.982124 60.16885 0.56920773
59.224758 63.080101 -0.80174738
59.0718 63.050636 -0.69233733
58.584286 62.956722 -0.61090034
57.478333 62.743671 -0.55362272
55.921555 62.443775 -0.45849407
54.365669 62.144051 -0.27401552
48.962517 61.103191 0
43.996986 60.146633 0.56891716
59.230721 63.075272 -0.80093324
58.969513 63.024624 -0.70687205
58.605507 62.954048 -0.60864878
57.500015 62.7397 -0.55191088
55.918369 62.433029 -0.45878208
54.362801 62.131416 -0.27416107
48.935379 61.079079 0
45.792328 60.469666 0.51797587
59.28035 63.078976 -0.79278511
59.044571 63.032963 -0.69648892
58.571854 62.940716 -0.61258954
57.501541 62.731846 -0.55191088
55.945648 62.428219 -0.4573409
54.334473 62.113804 -0.27503163
48.933815 61.059883 0
45.684399 60.42577 0.52116865
59.228127 63.062798 -0.80174738
59.02113 63.022144 -0.69994909
58.618011 62.94297 -0.6075241
57.518196 62.726967 -0.55062658
55.92725 62.414501 -0.45849407
54.331665 62.101128 -0.27517664
48.947586 61.043686 0
45.668335 60.399635 0.5217492
59.219551 63.055115 -0.80337888
59.01738 63.015152 -0.70064324
58.579411 62.928585 -0.61202717
57.499596 62.715153 -0.55233842
55.939312 62.406754 -0.45791802
54.30846 62.084404 -0.27590275
48.935844 61.022472 0
45.693092 60.381519 0.52116865
59.239521 63.056072 -0.80011904
59.047516 63.017998 -0.69648892
58.624916 62.934204 -0.60696173
57.525547 62.716217 -0.55019903
55.965641 62.406914 -0.45647684
54.314732 62.079563 -0.27575719
48.912125 61.008308 0
45.751339 60.381577 0.51957256
59.274601 63.057091 -0.79441351
59.033939 63.009071 -0.69856608
58.611271 62.924732 -0.60864878
57.542213 62.711411 -0.54891467
55.957436 62.395184 -0.45705286
54.317059 62.06786 -0.27575719
48.931068 60.993137 0
45.852562 60.378853 0.51681477
59.285427 63.053326 -0.79278511
59.059731 63.008007 -0.69510597
58.622528 62.920219 -0.6075241
57.533718 62.701588 -0.54976982
55.959381 62.385468 -0.45705286
54.299019 62.052071 -0.27633774
48.934711 60.974934 0
45.953743 60.376362 0.51405752
59.272053 63.044697 -0.79522765
59.011761 62.992104 -0.70202625
58.579014 62.904663 -0.61258954
57.530243 62.692757 -0.55019903
55.941055 62.371655 -0.45820603
54.296291 62.039322 -0.27648276
48.923065 60.953636 0
46.024353 60.367939 0.51217085
59.205383 63.025196 -0.80663878
58.993317 62.982079 -0.70479488
58.59029 62.900139 -0.6114648
57.572079 62.693123 -0.54677528
55.948093 62.362946 -0.45791802
54.278297 62.023457 -0.27706331
48.921661 60.934387 0
46.089867 60.358646 0.5104292
59.327633 63.04417 -0.78626537
59.083023 62.994129 -0.69233733
58.571709 62.88953 -0.61371636
57.593781 62.689472 -0.54506338
55.950077 62.353218 -0.45791802
54.280693 62.011711 -0.27706331
48.950871 60.921383 0
46.084106 60.334927 0.51071918
59.333649 63.039524 -0.78544807
59.069511 62.985157 -0.69441181
58.597958 62.888096 -0.61090034
57.580299 62.678631 -0.54634607
55.962219 62.345581 -0.4573409
54.288185 62.001015 -0.27691832
48.913818 60.894806 0
64 64 0
59.271889 63.020855 -0.79604185
59.085468 62.98225 -0.69233733
58.58934 62.879505 -0.61202717
57.571835 62.668793 -0.54720283
55.954082 62.333771 -0.45791802
54.305882 61.992443 -0.27648276
48.922672 60.877636 0
46.194775 60.312714 0.50781697
59.234364 63.007076 -0.80256158
59.067055 62.972218 -0.69510597
58.585732 62.871933 -0.61258954
57.598572 62.66626 -0.54506338
55.971298 62.327217 -0.45705286
54.277779 61.974369 -0.27735385
48.8908 60.85199 0
46.19416 60.290146 0.50796193
59.327477 63.020584 -0.78707957
59.097771 62.972435 -0.69095165
58.616928 62.871647 -0.60921329
57.610249 62.660633 -0.54420662
55.973324 62.317516 -0.45705286
54.259888 61.958359 -0.27793443
48.909882 60.836937 0
46.193573 60.267567 0.50810695
59.32383 63.01392 -0.78789377
59.059742 62.958233 -0.69648892
58.573547 62.855705 -0.61427873
57.647022 62.660328 -0.54121208
55.980419 62.308884 -0.45676485
54.257282 61.945522 -0.27807942
48.903542 60.816559 0
46.2286 60.252487 0.50723636
59.334686 63.010323 -0.78626537
58.982471 62.935604 -0.70756352
58.584888 62.851261 -0.61315185
57.638611 62.650524 -0.54206723
55.977413 62.298122 -0.45705286
54.229279 61.92728 -0.27894998
48.89212 60.795078 0
46.238235 60.232098 0.50709081
59.297211 62.996429 -0.79278511
59.072079 62.948387 -0.69510597
58.616089 62.851082 -0.6097756
57.640247 62.642838 -0.54206723
55.979477 62.288429 -0.45705286
54.23687 61.916561 -0.27880499
48.896004 60.776829 0
46.303772 60.223648 0.5053497
59.269436 62.984528 -0.79767334
59.05373 62.938221 -0.69787461
58.617481 62.844578 -0.6097756
57.656956 62.638386 -0.54078293
55.976498 62.277657 -0.4573409
54.239391 61.904766 -0.27880499
48.879551 60.754211 0
46.430298 60.228447 0.50186634
59.241066 62.97543 -0.80256158
59.06419 62.937347 -0.69648892
58.613216 62.840256 -0.61033797
57.632668 62.62915 -0.54292399
55.952259 62.267368 -0.45878208
54.250809 61.901054 -0.27851498
48.891701 60.747269 0
46.402107 60.211273 0.50273693
59.319588 62.986416 -0.78952527
59.065479 62.931385 -0.69648892
58.619583 62.834824 -0.6097756
57.629318 62.620373 -0.54335153
55.959412 62.258739 -0.45849407
54.253353 61.889275 -0.27851498
48.89056 60.727913 0
46.345749 60.176811 0.50447857
59.335312 62.983917 -0.78707957
59.101078 62.932896 -0.6916458
