# .PCD v0.7 - Point Cloud Data file format
VERSION 0.7
FIELDS x y z
SIZE 4 4 4
TYPE F F F
COUNT 1 1 1
WIDTH 1786
HEIGHT 1
VIEWPOINT 0 0 0 1 0 0 0
POINTS 1786
DATA ascii
51.131622 76.729195 0.505512
54.756348 73.121597 -0.72374409
51.44899 76.385284 -0.49245644
51.150574 76.679764 0
51.134754 76.695374 0.5047859
54.758217 73.108742 -0.723167
51.448906 76.370415 -0.49216643
51.102135 76.712189 0
51.141891 76.673004 0.50420535
54.73246 73.112076 -0.72432017
51.448792 76.340668 -0.49158588
51.045971 76.736732 0
51.163639 76.621033 0.50275421
54.728836 73.093636 -0.72374409
51.467278 76.29274 -0.49027976
51.04174 76.710129 0
51.222603 76.53273 0.49985144
54.710468 73.089653 -0.72432017
51.471016 76.259407 -0.48955363
51.097069 76.625305 0
49.52116 78.167313 0.56574166
54.688385 73.089264 -0.72518533
51.471085 76.229736 -0.48897308
51.145138 76.547905 0
49.481743 78.171577 0.56661224
54.647758 73.10688 -0.72749162
51.47493 76.196465 -0.48824751
51.163544 76.499687 0
49.416233 78.201157 0.56849891
54.529198 73.177841 -0.73498672
51.45668 76.155327 -0.48781252
51.17823 76.425163 0
49.314789 78.230957 0.57111114
54.5144 73.169983 -0.73527473
51.471893 76.111259 -0.48665139
51.166962 76.406044 0
47.859154 79.603798 0.62698746
54.503326 73.158516 -0.73527473
51.468494 76.085289 -0.48621583
51.178211 76.365234 0
47.941315 79.486877 0.62306857
51.599586 75.929977 -0.95897853
51.472622 76.052124 -0.48549029
51.174538 76.338905 0
48.001255 79.3918 0.62002075
51.596382 75.904236 -0.95811337
51.484318 76.011787 -0.48447418
51.20845 76.27655 0
40.660339 86.399979 0.90346354
51.596951 75.874931 -0.9569602
51.488579 75.978691 -0.48374861
51.238743 76.217888 0
40.655807 86.350204 0.90259296
51.593838 75.849213 -0.95609504
51.477867 75.959976 -0.48360363
51.250328 76.177307 0
40.640099 86.311211 0.90215743
51.587013 75.827087 -0.95551902
51.470959 75.93766 -0.48331305
51.25824 76.140343 0
50.590744 76.776329 0.51726758
51.595238 75.790688 -0.95378876
51.479137 75.901039 -0.4824425
51.300159 76.071159 0
50.567791 76.767273 0.51755762
51.596012 75.761452 -0.95263559
51.476082 75.875168 -0.48200694
51.30069 76.041473 0
50.567459 76.736725 0.51697707
51.589317 75.739357 -0.95205951
51.469288 75.85289 -0.48171693
51.308846 76.004654 0
50.540749 76.731201 0.5174126
51.586433 75.713699 -0.95119435
51.477661 75.816338 -0.48084581
51.339764 75.946457 0
50.483795 76.754166 0.51900929
51.605701 75.681366 -0.94917715
51.4743 75.805206 -0.48070082
51.324982 75.945938 0
50.464756 76.756683 0.51944429
51.595375 75.662827 -0.94888806
51.478973 75.77227 -0.47997525
51.340893 75.902092 0
50.403919 76.783035 0.52118593
51.592598 75.637222 -0.94802397
51.487511 75.735794 -0.47910416
51.326519 75.886787 0
49.672104 77.438507 0.54861605
51.604992 75.597481 -0.94600564
51.49231 75.702919 -0.47837859
51.300758 75.882141 0
49.595161 77.477997 0.55093831
51.613686 75.56131 -0.94427538
51.489578 75.677155 -0.47794303
51.267391 75.884537 0
49.567501 77.471207 0.5513733
51.614853 75.532249 -0.94312328
51.486877 75.651413 -0.47750804
51.199715 75.9188 0
49.539818 77.464386 0.55180883
51.593353 75.524307 -0.9436993
51.484234 75.625671 -0.47707248
51.162437 75.924583 0
49.447407 77.517639 0.55471164
51.609795 75.481186 -0.94139296
51.493061 75.589355 -0.47620192
51.128952 75.92675 0
49.248127 77.669586 0.56167775
51.603519 75.45919 -0.94081694
51.494331 75.56012 -0.47562137
51.137474 75.889999 0
51.093822 75.930344 0.49085361
51.604897 75.430176 -0.93966377
51.49947 75.52739 -0.47489581
51.157566 75.842682 0
51.00684 75.981674 0.49361086
51.598713 75.408173 -0.93908668
51.493206 75.505234 -0.47460523
47.829895 78.875183 0
50.655811 76.275574 0.50638258
51.611607 75.368713 -0.93706942
51.502281 75.46904 -0.47373468
47.769745 78.894348 0
50.062843 76.790001 0.52829766
51.616966 75.336258 -0.93562716
51.503765 75.439896 -0.47315413
47.747925 78.878235 0
50.005241 76.811737 0.52989376
51.622375 75.303848 -0.93418598
51.501465 75.414268 -0.47271857
51.11969 75.762924 0
49.943726 76.836876 0.53163546
51.624023 75.274948 -0.93303281
51.499214 75.388657 -0.47228301
51.082394 75.768387 0
49.874447 76.868874 0.53366709
51.62188 75.249557 -0.93216872
51.500847 75.359558 -0.47170246
50.821678 75.976807 0
49.843525 76.865776 0.5342477
51.615967 75.227638 -0.93159157
51.498669 75.333984 -0.47126746
50.699257 76.058746 0
49.851082 76.827728 0.53337711
51.610077 75.205734 -0.93101555
51.508114 75.297951 -0.47039634
50.815941 75.923965 0
49.84716 76.800156 0.53294158
51.604233 75.183815 -0.9304384
51.509907 75.268921 -0.46981579
50.898155 75.820862 0
49.831703 76.783051 0.53294158
51.609951 75.151535 -0.92899722
51.507877 75.243401 -0.4693808
50.949646 75.745834 0
49.816269 76.765915 0.53294158
51.61573 75.119278 -0.92755604
51.505905 75.21788 -0.46894524
51.187187 75.504044 0
49.750587 76.7939 0.53482825
51.610016 75.097397 -0.92697895
51.507843 75.188904 -0.46836466
51.254715 75.415634 0
49.669331 76.835617 0.53729546
51.618736 75.076111 -0.92582577
51.532074 75.153641 -0.46720356
51.25946 75.397514 0
51.346352 75.319786 0.474163
51.632366 75.037041 -0.92380852
51.530243 75.128181 -0.466768
51.234043 75.392509 0
51.200844 75.422142 0.47909802
51.630634 75.011772 -0.92294335
51.53233 75.099281 -0.46618745
51.134766 75.453217 0
51.202576 75.392845 0.47851744
51.632809 74.983078 -0.92179018
51.522812 75.080765 -0.46604243
51.124825 75.434204 0
51.355911 75.228981 0.47227633
51.627285 74.961273 -0.92121416
51.513317 75.062241 -0.46589744
51.157772 75.37722 0
51.447372 75.120659 0.46835798
51.629555 74.93261 -0.92006099
51.523331 75.026489 -0.46502632
51.167427 75.341019 0
51.441723 75.09861 0.46806797
51.627998 74.907387 -0.91919583
51.513912 75.007965 -0.46488133
51.044426 75.421875 0
51.319183 75.179642 0.47213131
51.626484 74.882179 -0.91833073
51.512329 74.982574 -0.46444577
50.866486 75.550575 0
51.243248 75.219223 0.47445354
51.632782 74.850166 -0.91688949
51.514679 74.953781 -0.46386576
50.770378 75.606781 0
49.092937 77.078453 0.55384052
51.643028 74.814781 -0.9151603
51.517097 74.924995 -0.46328521
50.74461 75.601074 0
49.057579 77.07756 0.55456662
51.637772 74.79303 -0.91458321
51.531311 74.885979 -0.4622691
50.769802 75.550827 0
50.905151 75.432655 0.48548359
51.640343 74.764496 -0.91343004
51.522083 74.867493 -0.46212408
50.818657 75.480133 0
64 64 0
51.642967 74.735985 -0.91227686
51.520733 74.842178 -0.46168852
50.946243 75.341301 0
50.818726 75.452095 0.48766026
51.633907 74.717659 -0.91198879
51.52335 74.813477 -0.46110797
50.983681 75.281212 0
50.804901 75.436157 0.48766026
51.63271 74.692558 -0.91112369
51.522091 74.788193 -0.46067241
51.056671 75.19059 0
50.834324 75.382828 0.48606417
51.627625 74.670853 -0.91054761
51.51693 74.766327 -0.4603824
51.121994 75.106949 0
51.001602 75.210785 0.47938803
51.626511 74.645767 -0.90968251
51.515751 74.741066 -0.45994684
51.148029 75.057442 0
51.031403 75.157784 0.47779134
51.629356 74.61734 -0.90852934
51.502781 74.725975 -0.45994684
51.055683 75.109703 0
50.946938 75.203033 0.48040414
51.62439 74.595657 -0.90795326
51.529301 74.677071 -0.45849574
47.053078 78.509491 0
51.004475 75.126411 0.47779134
51.639133 74.557175 -0.90593493
51.532215 74.648499 -0.45791519
50.803291 75.271057 0
51.271587 74.871094 0.46748742
51.642136 74.528816 -0.90478182
51.531227 74.623306 -0.45747963
50.643093 75.37999 0
51.329674 74.795029 0.46487463
51.645191 74.500473 -0.90362865
51.530285 74.598137 -0.45704406
50.442959 75.522263 0
51.332481 74.766251 0.46429408
51.636452 74.482193 -0.90334058
51.537304 74.566261 -0.4563185
50.25436 75.653976 0
51.303623 74.764381 0.46487463
51.641968 74.464691 -0.90247548
51.530922 74.558731 -0.4563185
50.144051 75.733124 0
51.194 74.844032 0.46864852
51.63723 74.443085 -0.9018994
51.534054 74.530243 -0.45573795
50.137844 75.709648 0
51.030067 74.955963 0.474163
51.648361 74.408134 -0.90016913
51.529282 74.508476 -0.45544794
51.206284 74.780647 0
50.957222 74.990524 0.47634023
51.643707 74.386551 -0.89959306
51.532505 74.480026 -0.45486739
51.173347 74.781929 0
50.943954 74.974754 0.47634023
51.643063 74.361633 -0.89872795
51.531799 74.454933 -0.45443183
50.992825 74.906876 0
50.950607 74.942276 0.47561467
51.650387 74.330109 -0.89728671
51.531139 74.429855 -0.45399627
50.88784 74.967957 0
50.937397 74.926498 0.47561467
51.657265 74.273758 -0.89498037
51.541916 74.369774 -0.45269015
51.573421 74.343544 0
51.274498 74.592361 0.46240738
51.652813 74.252235 -0.89440435
51.541378 74.344757 -0.45225516
64 64 0
51.417625 74.44751 0.45674738
51.660366 74.220795 -0.8929621
51.544895 74.316437 -0.45167461
51.500359 74.353325 0
51.396999 74.438942 0.45703793
51.648026 74.205879 -0.8929621
51.548466 74.288139 -0.45109403
51.42366 74.391266 0
51.364368 74.440254 0.45776349
51.651669 74.177788 -0.89180893
51.540066 74.269775 -0.45094848
51.366928 74.412476 0
51.359791 74.418358 0.45747292
51.647362 74.156296 -0.89123285
51.535686 74.248116 -0.4506585
51.342304 74.407112 0
51.41946 74.343674 0.45486069
51.643093 74.134804 -0.89065683
51.539383 74.219864 -0.45007792
51.353878 74.372009 0
51.463219 74.282333 0.45282903
51.650887 74.103477 -0.88921458
51.539116 74.194923 -0.44964236
51.41386 74.297401 0
51.487 74.237564 0.45152292
51.658722 74.072205 -0.88777339
51.546936 74.163437 -0.44891682
51.461918 74.232819 0
51.502827 74.199432 0.45050681
51.674644 74.034416 -0.88575506
51.546757 74.138535 -0.44848126
51.477821 74.194656 0
51.510658 74.167923 0.44978124
51.658501 74.022789 -0.88604414
51.546608 74.113663 -0.44804627
51.453388 74.189362 0
51.474186 74.172478 0.45065179
51.662479 73.994843 -0.88489097
51.558632 74.078972 -0.44717515
51.339981 74.256104 0
51.465939 74.154068 0.45050681
51.662483 73.970169 -0.88402587
51.542408 74.067207 -0.4473207
51.137337 74.394554 0
51.465805 74.129112 0.45007125
51.654472 73.952011 -0.8837378
51.546436 74.039101 -0.44674015
50.877602 74.578262 0
51.489986 74.084602 0.44876513
51.650524 73.930595 -0.88316071
51.550514 74.011017 -0.44615957
50.779667 74.630882 0
51.47781 74.069481 0.44876513
51.664688 73.906944 -0.88171953
51.556629 73.993729 -0.44572401
50.842232 74.56749 0
51.41906 74.104218 0.45065179
51.668877 73.879089 -0.88056636
51.560787 73.965691 -0.44514346
51.044746 74.37912 0
51.419029 74.079254 0.45021623
51.665024 73.857735 -0.87999028
51.560936 73.940918 -0.4447079
51.093208 74.314713 0
48.025272 76.76651 0.57111114
51.677399 73.823471 -0.87826002
51.561111 73.916168 -0.44427291
50.958664 74.396439 0
48.14394 76.640312 0.56632227
51.669582 73.805351 -0.87797201
64 64 -0
50.880928 74.432503 0
48.17749 76.582329 0.56458056
51.669907 73.7808 -0.87710685
51.602329 73.834404 -0.44195068
51.210854 74.144943 0
43.354137 80.377251 0.73598123
51.678375 73.749847 -0.87566566
51.623058 73.793617 -0.44078955
51.365936 73.997078 0
47.429909 77.111572 0.59012341
51.682846 73.722137 -0.87451249
51.635704 73.759346 -0.43991899
51.443741 73.910858 0
47.397758 77.104424 0.59070402
51.691425 73.691246 -0.87307131
51.623917 73.7444 -0.43991899
51.407246 73.914993 0
47.42276 77.052208 0.58925289
51.679726 73.676369 -0.87307131
51.628502 73.716599 -0.43933845
51.321602 73.957634 0
47.41927 77.022537 0.5888173
51.676178 73.655098 -0.87249523
51.624962 73.695221 -0.43904787
51.362839 73.900581 0
47.370819 77.02813 0.58997846
51.67268 73.63382 -0.87191814
51.625542 73.670662 -0.43861234
51.428795 73.824417 0
47.350998 77.011223 0.59012341
51.67329 73.609375 -0.87105298
51.638451 73.636536 -0.43774176
51.453892 73.780411 0
51.2206 73.962273 0.45253846
51.682102 73.578598 -0.8696118
51.626816 73.621597 -0.43774176
51.442085 73.765244 0
51.175751 73.972351 0.45369959
51.68689 73.551025 -0.86845863
51.643948 73.584335 -0.43672565
51.463181 73.724556 0
51.171917 73.950485 0.45340958
51.691723 73.523483 -0.86730546
51.636482 73.566223 -0.43658066
51.480259 73.687103 0
51.155796 73.938148 0.45355457
51.696602 73.495956 -0.86615229
51.629044 73.548103 -0.43643564
51.43148 73.700584 0
51.147907 73.919449 0.45340958
51.676933 73.487404 -0.86672938
51.642227 73.514122 -0.43556455
51.403275 73.69809 0
51.119461 73.916595 0.45399013
51.685989 73.456757 -0.8652882
51.630741 73.499184 -0.43556455
51.408077 73.670181 0
51.066277 73.932671 0.45544127
51.678688 73.438713 -0.86499912
51.635773 73.471588 -0.43498397
51.433586 73.62648 0
51.021282 73.942322 0.45660236
51.68372 73.41127 -0.86384702
51.62434 73.456642 -0.43498397
51.525352 73.53228 0
51.050564 73.895081 0.45515126
51.676483 73.393234 -0.86355793
51.621181 73.435387 -0.43469399
51.501419 73.526672 0
51.092361 73.838463 0.45326403
51.691383 73.370125 -0.86211675
51.636154 73.41217 -0.43396842
51.346588 73.632607 0
51.082272 73.833824 0.45340958
51.692436 73.345856 -0.86125159
51.666187 73.365791 -0.43251675
51.28936 73.651939 0
51.086952 73.805634 0.45282903
51.714142 73.305992 -0.85894525
51.638306 73.363434 -0.4330973
51.269413 73.642853 0
51.054405 73.80571 0.45355457
51.698765 73.294266 -0.85923433
51.651875 73.329697 -0.43222675
51.224548 73.652565 0
50.897453 73.899704 0.45863405
51.695816 73.273163 -0.85865724
51.628155 73.324158 -0.43266231
51.175488 73.665314 0
50.653107 74.059013 0.46676129
51.688751 73.255188 -0.85836923
51.662598 73.274849 -0.43106562
51.23037 73.599777 0
50.537113 74.120941 0.47038963
51.698265 73.224785 -0.85692799
51.66803 73.247459 -0.43048507
51.331219 73.500023 0
50.491631 74.129616 0.47155076
51.695419 73.203712 -0.8563509
51.656864 73.232552 -0.43048507
51.39893 73.425484 0
50.416977 74.159981 0.473728
51.68845 73.185745 -0.85606289
51.649879 73.214523 -0.43034008
51.429276 73.37912 0
50.375565 74.165306 0.47474355
51.693958 73.158508 -0.85490972
51.65543 73.187187 -0.4297595
51.409592 73.370148 0
45.085552 78.076683 0.65848094
51.695366 73.134384 -0.85404456
51.648506 73.169167 -0.42961451
51.306343 73.423172 0
45.051865 78.066208 0.65906149
51.6968 73.110283 -0.85318047
51.666676 73.132584 -0.4285984
50.822304 73.757828 0
44.997299 78.071129 0.66036761
51.710773 73.076965 -0.8514502
51.668194 73.108414 -0.42816284
44.551628 78.364792 0
44.888351 78.116081 0.66356039
51.708138 73.055977 -0.85087413
51.644642 73.102753 -0.4285984
51.100464 73.503677 0
44.657936 78.250183 0.6709621
51.688873 73.047241 -0.8514502
51.662971 73.066277 -0.42758229
51.189651 73.414108 0
44.657486 78.214485 0.67038155
51.702976 73.014015 -0.84972095
51.672977 73.036003 -0.42685673
51.367188 73.260155 0
44.598404 78.221832 0.67183322
51.717155 72.98082 -0.84799069
51.63689 73.039513 -0.42772785
51.650101 73.029846 0
44.493137 78.262794 0.67488098
51.702122 72.969032 -0.84827977
51.642773 73.012314 -0.4271473
51.710686 72.962784 0
44.383553 78.30658 0.67807376
51.712204 72.93895 -0.84683859
51.657112 72.979027 -0.42627618
51.678825 72.963234 0
46.778412 76.528122 0.59476793
51.705612 72.921051 -0.84654951
51.658882 72.954964 -0.42584118
51.676422 72.94223 0
46.780113 76.495094 0.59418732
51.711605 72.894058 -0.84539634
51.660702 72.930901 -0.42540562
51.661415 72.930382 0
46.752396 76.483421 0.59462291
51.718796 72.877548 -0.84453225
51.655312 72.923447 -0.42540562
51.660233 72.919884 0
46.732216 76.482132 0.59505844
51.720673 72.853622 -0.84366715
51.657188 72.899399 -0.42497006
64 64 0
46.670788 76.494682 0.59665459
51.71418 72.835762 -0.84337908
51.667534 72.869308 -0.42424449
64 64 0
46.588196 76.522285 0.59897679
51.732941 72.799805 -0.84136081
51.661045 72.851379 -0.4240995
51.61108 72.887215 0
46.50975 76.546669 0.60115349
51.718113 72.787979 -0.84164882
51.66304 72.827385 -0.42366394
51.596107 72.875282 0
46.498825 76.522507 0.60100847
51.726398 72.737282 -0.83963156
51.650204 72.791527 -0.42337394
51.557732 72.857353 0
50.244888 73.791931 0.47155076
51.715851 72.722443 -0.83963156
51.648075 72.770569 -0.42308339
51.517345 72.863396 0
50.233067 73.775307 0.47155076
51.709553 72.704597 -0.83934247
51.662922 72.737625 -0.42221281
51.510887 72.845306 0
44.220581 78.008598 0.67691267
51.724388 72.671837 -0.83761328
51.669353 72.710716 -0.42163226
51.483204 72.842216 0
44.246109 77.954704 0.67546153
51.730831 72.645081 -0.83646011
51.671585 72.686829 -0.4211967
51.468277 72.830086 0
44.242012 77.921844 0.675026
51.724625 72.627281 -0.83617204
51.665344 72.668938 -0.42105171
51.41077 72.847855 0
44.250721 77.880028 0.67415488
51.726921 72.603531 -0.83530694
51.667648 72.645081 -0.42061615
51.36599 72.856544 0
44.246719 77.847214 0.67371988
51.716534 72.588692 -0.83530694
51.665726 72.624222 -0.42032614
51.342514 72.850212 0
44.259819 77.802483 0.67270374
51.723137 72.562012 -0.83415377
51.680897 72.591469 -0.41945502
51.395859 72.790253 0
44.264465 77.763763 0.67197818
51.717041 72.54422 -0.8338657
51.674786 72.573608 -0.41931003
51.594612 72.629379 0
50.548744 73.356903 0.45761847
51.715237 72.523468 -0.83328861
51.668701 72.555756 -0.41916505
51.703918 72.531319 0
50.554527 73.328796 0.45703793
51.721962 72.496841 -0.83213544
51.666927 72.534927 -0.41887447
51.706467 72.507568 0
44.556557 77.455551 0.66036761
51.720207 72.476128 -0.83155942
51.673729 72.508209 -0.41829392
51.726181 72.472 0
44.625854 77.373009 0.6574648
51.739807 72.44075 -0.82954109
51.689133 72.475632 -0.41742337
51.690224 72.474884 0
50.700577 73.156219 0.45094234
51.734711 72.433334 -0.82954109
51.684017 72.468193 -0.41742337
51.706547 72.452698 0
44.704407 77.26722 0.65398204
51.737312 72.409744 -0.828677
51.695217 72.438614 -0.4166978
51.666306 72.458443 0
44.696968 77.238007 0.65369147
51.731441 72.391991 -0.82838792
51.67646 72.429604 -0.41698781
51.656097 72.443527 0
44.633801 77.246948 0.65528816
51.738403 72.365501 -0.82723475
51.67057 72.411774 -0.41684279
51.654495 72.422745 0
44.549137 77.270393 0.65760982
51.736851 72.344864 -0.82665873
51.664711 72.393951 -0.4166978
51.618515 72.425385 0
50.449062 73.221176 0.45776349
51.7225 72.332939 -0.82694674
51.680386 72.361526 -0.41582668
51.595421 72.419197 0
50.399235 73.231064 0.45906961
51.750992 72.292007 -0.82435238
51.67889 72.340813 -0.41553667
51.563705 72.418785 0
50.310638 73.267059 0.46168184
51.732399 72.28299 -0.82492948
51.673122 72.323013 -0.41539168
51.501778 72.438705 0
50.29945 73.250511 0.46168184
51.743862 72.253708 -0.82348722
51.680317 72.296501 -0.41481113
51.482964 72.429405 0
50.421898 73.143967 0.45718294
51.751076 72.227356 -0.82233405
51.67894 72.27581 -0.41452056
51.459824 72.422981 0
50.548908 73.034828 0.45253846
51.749733 72.206795 -0.82175803
51.681904 72.252235 -0.414085
51.462631 72.399132 0
50.650249 72.943367 0.44876513
51.744122 72.189117 -0.82146996
51.689228 72.2258 -0.41350445
51.426517 72.401337 0
50.73019 72.8666 0.44571733
51.747154 72.165695 -0.82060486
51.687935 72.205154 -0.41321445
51.412048 72.389015 0
50.697868 72.864967 0.4464429
51.7416 72.148018 -0.82031679
51.691021 72.181641 -0.41277888
51.388912 72.382446 0
50.535683 72.949577 0.45152292
51.744701 72.124626 -0.81945169
51.67247 72.172508 -0.41306946
51.226967 72.467857 0
50.446918 72.984985 0.45413515
51.713322 72.124077 -0.82089287
51.662605 72.157608 -0.41306946
50.930199 72.641884 0
50.436073 72.968605 0.45413515
51.703514 72.109222 -0.82089287
51.639755 72.151268 -0.41350445
50.80246 72.703445 0
50.45562 72.932175 0.45311904
51.667786 72.11142 -0.82262313
51.625561 72.139191 -0.41365001
50.805 72.678909 0
50.496941 72.881538 0.45137736
51.657993 72.096512 -0.82262313
51.620094 72.121376 -0.41350445
50.81628 72.648689 0
50.525322 72.839561 0.45007125
51.640137 72.097549 -0.82348722
51.584755 72.133835 -0.41452056
50.815407 72.637871 0
50.524326 72.828575 0.44992623
51.60437 72.099594 -0.82521749
51.574936 72.118828 -0.41452056
50.813702 72.616234 0
50.518013 72.809448 0.44978124
51.577255 72.095909 -0.82637066
51.517239 72.135025 -0.41611725
50.820744 72.588928 0
50.655403 72.696678 0.44484678
51.537136 72.100616 -0.82838792
51.51614 72.114265 -0.41582668
50.80164 72.578674 0
50.723347 72.629562 0.44223398
51.505638 72.099632 -0.82983017
51.471458 72.121788 -0.41698781
50.677734 72.63633 0
50.712929 72.613518 0.44223398
51.478485 72.095764 -0.83098334
51.422382 72.132034 -0.41829392
50.544922 72.699356 0
50.632706 72.642601 0.44455621
51.442635 72.097443 -0.83271259
51.395096 72.128098 -0.41887447
50.495056 72.708481 0
50.513084 72.696854 0.44818455
51.424168 72.087852 -0.83328861
51.380913 72.115669 -0.41901946
50.484543 72.692154 0
50.450134 72.714279 0.44992623
51.405689 72.078247 -0.8338657
51.353622 72.111641 -0.41960004
50.434624 72.701103 0
50.443985 72.695099 0.44978124
51.426445 72.043503 -0.83184743
51.326317 72.107559 -0.42018059
50.310127 72.757629 0
50.477276 72.650703 0.44832957
51.399292 72.039436 -0.8330006
51.294613 72.106216 -0.42090669
50.154758 72.833466 0
50.488731 72.620384 0.447604
51.363392 72.040871 -0.83473086
51.254147 72.110382 -0.42192227
50.047493 72.878197 0
50.482708 72.601265 0.44745901
51.235771 72.100426 -0.84251398
51.218021 72.111694 -0.42279339
49.909332 72.942207 0
50.494259 72.570999 0.44673344
64 64 -0
51.068634 72.184593 -0.85289246
51.181892 72.112907 -0.42366394
49.727024 73.03373 0
50.4883 72.551903 0.44658846
50.866299 72.290443 -0.86557621
51.163315 72.102959 -0.42395395
49.672096 73.044266 0
50.469196 72.541115 0.44687843
50.799385 72.310394 -0.86932379
44.504166 76.273529 -0.6433937
49.714035 72.993675 0
50.46328 72.521988 0.44673344
50.780602 72.299934 -0.86989981
44.449745 76.274826 -0.64469981
49.729637 72.959793 0
50.461803 72.500092 0.4464429
50.744267 72.30043 -0.87163007
44.426109 76.256714 -0.64499032
49.974663 72.782341 0
50.442726 72.48925 0.44673344
50.729862 72.287148 -0.87191814
44.450981 76.208282 -0.64368421
50.171562 72.635803 0
50.41925 72.481125 0.44716901
50.738029 72.270912 -0.87105298
44.443611 76.196472 -0.64368421
50.250248 72.575127 0
50.383274 72.492165 0.44818455
50.714867 72.263084 -0.87191814
44.530388 76.109703 -0.64034587
50.284088 72.531021 0
50.364189 72.481201 0.44847512
50.696091 72.252487 -0.87249523
48.605011 73.549591 -0.50595367
50.273788 72.514435 0
50.420197 72.423622 0.44629788
50.589355 72.296272 -0.87883711
48.544865 73.561058 -0.50755036
50.272373 72.492363 0
50.542606 72.325188 0.44194397
50.535324 72.30722 -0.88171953
48.657162 73.465973 -0.50348645
50.284264 72.462112 0
50.536976 72.306198 0.44179899
50.463623 72.328888 -0.88575506
48.645737 73.447426 -0.50348645
50.260746 72.45372 0
50.518105 72.295364 0.44208899
50.449146 72.315239 -0.88604414
44.78978 75.78801 -0.62946081
50.232796 72.447998 0
50.499226 72.284508 0.44237953
64 64 -0
44.704628 75.808189 -0.63178307
50.240356 72.420486 0
50.41832 72.311584 0.44470122
50.455593 72.266296 -0.88431388
44.739155 75.755096 -0.63018698
50.194649 72.425552 0
50.315132 72.35202 0.44774902
50.419094 72.266068 -0.88604414
44.773804 75.702087 -0.62859029
50.14447 72.433212 0
50.198509 72.400322 0.45123234
50.382591 72.265747 -0.88777339
44.835197 75.633011 -0.62612307
50.129845 72.419167 0
50.175037 72.391731 0.4516679
50.358231 72.235489 -0.8880614
44.589142 75.718269 -0.63323474
50.167461 72.350655 0
50.128113 72.374405 0.45253846
50.343845 72.221672 -0.88835049
44.51712 75.729645 -0.63512141
50.179672 72.320511 0
50.153622 72.336197 0.45137736
50.29401 72.229126 -0.89094484
46.142502 74.72171 -0.5817129
50.169628 72.30381 0
50.192558 72.290039 0.44978124
50.244141 72.236473 -0.89353919
46.071602 74.734833 -0.58359957
50.159607 72.287094 0
50.187004 72.270683 0.44963622
50.149822 72.270233 -0.89901596
46.085426 74.697166 -0.58272845
50.082581 72.310379 0
50.177021 72.25399 0.44963622
50.130943 72.258789 -0.89959306
46.108231 74.654243 -0.58156735
49.942863 72.370789 0
50.153675 72.245247 0.45007125
50.120972 72.24202 -0.89959306
48.436687 73.242233 -0.50551814
50.14756 72.226234 0
50.139259 72.231163 0.45021623
50.142185 72.206795 -0.89757478
48.447884 73.210182 -0.50479257
50.231674 72.153793 0
50.120373 72.219711 0.45050681
50.177299 72.174721 -0.89498037
48.469154 73.184914 -0.50392205
50.249146 72.132233 0
50.124363 72.206032 0.45021623
50.292191 72.084435 -0.88690823
48.435692 73.179344 -0.50464755
50.252785 72.107674 0
50.105495 72.194542 0.45050681
50.474155 71.955109 -0.87451249
44.469353 75.486778 -0.63279921
50.225052 72.101616 0
50.100082 72.175117 0.45036179
50.500252 71.917816 -0.87220615
44.513756 75.428993 -0.63091248
50.112022 72.145523 0
50.072281 72.168831 0.45094234
50.526413 71.880608 -0.86989981
44.495483 75.408058 -0.6310575
49.046402 72.746262 0
50.066921 72.149368 0.45079678
50.499031 71.874748 -0.87105298
44.53558 75.353065 -0.62931585
48.963905 72.770142 0
50.084007 72.116821 0.44992623
50.471638 71.868835 -0.87220615
44.566788 75.303413 -0.62786472
48.953323 72.751968 0
50.069725 72.102608 0.45007125
50.426342 71.873245 -0.87451249
46.54002 74.127457 -0.56371611
48.96077 72.723335 0
50.059944 72.08577 0.45007125
50.407875 71.862022 -0.87508959
49.89254 72.160103 -0.4551574
49.035847 72.65564 0
50.036682 72.076729 0.45050681
50.407356 71.840416 -0.87451249
49.878174 72.14566 -0.45530295
49.165157 72.556938 0
50.008926 72.070236 0.45108736
50.366501 71.842049 -0.87653077
49.890881 72.115623 -0.45457682
48.915722 72.676537 0
50.008205 72.048141 0.45079678
50.325619 71.84359 -0.8785491
47.104324 73.691315 -0.54397827
48.823971 72.704926 0
50.002995 72.028641 0.45065179
50.307178 71.832191 -0.87912518
47.14225 73.642502 -0.54238164
48.827023 72.678825 0
49.975258 72.022049 0.45123234
50.279751 71.82589 -0.88027829
47.20282 73.58094 -0.54005992
48.784893 72.678543 0
49.929462 72.025696 0.45239347
50.252319 71.819534 -0.88143146
49.784058 72.085876 -0.45675406
48.756321 72.670448 0
49.915264 72.011253 0.45253846
50.197895 71.828438 -0.88431388
49.769783 72.071259 -0.45689908
48.750397 72.649445 0
49.828751 72.037811 0.45500571
50.188446 71.811752 -0.88431388
64 64 -0
48.721832 72.641266 0
49.316956 72.304665 0.47111577
50.151974 71.81031 -0.88604414
49.714104 72.057266 -0.45806018
48.68874 72.635574 0
49.11684 72.394127 0.47721079
50.138042 71.796104 -0.88633215
49.659092 72.065475 -0.45951131
48.664703 72.624725 0
48.957233 72.460205 0.48200026
50.10157 71.794533 -0.8880614
49.613094 72.068474 -0.46067241
48.640671 72.613831 0
48.942474 72.444572 0.48214582
50.078613 71.785309 -0.88892657
49.589745 72.058701 -0.46110797
48.630272 72.595268 0
48.954975 72.413681 0.48141968
50.051331 71.789505 -0.89036775
49.571262 72.057594 -0.46154353
48.588726 72.606285 0
48.981644 72.386864 0.48040414
50.005775 71.792778 -0.89267409
49.62056 72.007286 -0.45965686
48.605633 72.572456 0
48.971519 72.368706 0.48040414
49.996368 71.775864 -0.89267409
49.651779 71.967201 -0.45835075
48.554337 72.576584 0
48.929626 72.368195 0.48141968
49.950779 71.778984 -0.89498037
49.714905 71.909584 -0.45602852
48.534866 72.562965 0
48.919529 72.349983 0.48141968
49.918751 71.774498 -0.89642161
49.773605 71.854637 -0.45385128
48.510857 72.551819 0
48.941284 72.314178 0.48040414
49.873116 71.777435 -0.89872795
49.773224 71.832436 -0.45356128
48.482296 72.543144 0
48.990425 72.263397 0.47851744
49.8592 71.762848 -0.89901596
49.772888 71.810234 -0.4532707
48.467426 72.526886 0
48.985023 72.242744 0.47837189
49.849831 71.745758 -0.89901596
48.783409 72.329514 -0.48447418
48.420609 72.528107 0
48.883904 72.274506 0.48127469
49.799618 71.750961 -0.90161031
48.56353 72.425644 -0.49115032
48.392044 72.519249 0
48.878471 72.253746 0.48112968
49.735741 71.763466 -0.90506983
48.567062 72.399536 -0.49071476
48.336052 72.525261 0
49.028259 72.148521 0.47605023
49.194443 72.034904 -0.93879861
48.547779 72.385841 -0.4910053
48.312035 72.513779 0
49.128044 72.070938 0.47256687
48.729805 72.263191 -0.96762675
48.533089 72.369637 -0.49115032
48.260559 72.517113 0
49.205151 72.005966 0.46980909
48.724396 72.242271 -0.96733767
48.522987 72.350945 -0.49115032
48.236534 72.505508 0
49.273235 71.946129 0.46734187
48.696228 72.233612 -0.96849084
48.544952 72.314995 -0.49013418
48.18502 72.508644 0
49.313972 71.901253 0.46574575
48.658928 72.22979 -0.9702211
48.603596 72.259476 -0.48795751
48.193096 72.479683 0
49.31818 71.876129 0.46531019
48.667244 72.201485 -0.96906793
48.731094 72.167336 -0.48360363
48.086487 72.512131 0
49.304096 71.860832 0.46545517
48.661903 72.180519 -0.96877992
48.794601 72.109749 -0.48128137
47.993553 72.536987 0
49.299191 71.84063 0.46531019
48.620071 72.178978 -0.97079718
48.780231 72.093803 -0.48142639
47.882156 72.571396 0
49.28054 71.827744 0.46560073
48.569435 72.193947 -0.97368062
48.77993 72.082176 -0.48128137
47.794243 72.605591 0
49.257473 71.82859 0.46618074
48.532127 72.189819 -0.97540981
48.747215 72.075935 -0.48200694
47.797642 72.578705 0
51.319275 70.714096 0.40072662
48.540539 72.161461 -0.97425663
48.742058 72.055077 -0.48186195
47.653809 72.629593 0
51.242249 70.735153 0.40290329
48.494068 72.162048 -0.97656298
48.736931 72.03421 -0.48171693
47.399303 72.738319 0
51.220322 70.727005 0.40333885
48.365135 72.205811 -0.98405802
50.195087 71.245377 -0.43541953
46.63295 73.114929 0
51.207603 70.713966 0.40348384
48.350655 72.189308 -0.98434609
50.117271 71.264839 -0.43759677
46.658844 73.074631 0
64 64 0
48.290318 72.196716 -0.98751754
50.034782 71.286522 -0.43991899
46.657112 73.048859 0
51.131523 70.714279 0.4053705
48.280426 72.177727 -0.98751754
50.007565 71.279228 -0.44049901
45.847412 73.443443 0
51.132633 70.693939 0.4050805
48.307289 72.139671 -0.98521119
50.035667 71.243179 -0.43933845
45.789803 73.445473 0
51.129162 70.675995 0.40493551
48.338814 72.099319 -0.98261684
47.358952 72.606071 -0.52322429
45.833881 73.394775 0
51.167274 70.636559 0.40348384
48.448574 72.018761 -0.9751218
47.385517 72.566902 -0.5220632
45.850292 73.358505 0
51.182358 70.609146 0.40275827
48.917343 71.753998 -0.94514054
49.991016 71.202019 -0.43991899
46.153778 73.174744 0
51.202103 70.579399 0.40188771
49.101318 71.636665 -0.93303281
49.973083 71.189819 -0.440209
46.378922 73.032097 0
51.22654 70.547333 0.4008716
64 64 -0
49.119732 71.604538 -0.93130356
49.982918 71.163406 -0.43962845
46.502407 72.942116 0
51.186241 70.548454 0.40188771
64 64 -0
49.087513 71.598289 -0.93274474
47.580444 72.36618 -0.51466149
46.816246 72.755562 0
51.187607 70.528244 0.40159717
47.556446 72.353394 -0.51509708
47.190826 72.539131 0
51.147289 70.529236 0.40261328
64 64 -0
47.591972 72.285522 -0.51335537
47.295677 72.43515 0
51.159393 70.484093 0.40174216
64 64 -0
47.577339 72.268028 -0.51350039
47.434265 72.340057 0
51.100502 70.494286 0.40333885
50.042404 71.016418 -0.43629065
47.564072 72.26226 0
49.986897 71.044319 0.43802562
50.010708 71.011192 -0.43701622
47.675095 72.181755 0
50.192104 70.920273 0.43134949
49.997604 70.996605 -0.43716121
47.637276 72.175987 0
51.108826 70.441353 0.40246826
49.989159 70.979675 -0.43716121
47.54821 72.195663 0
51.119659 70.416504 0.40188771
47.095116 72.395905 -0.52714324
47.412468 72.238289 0
51.0933 70.410179 0.40246826
47.126892 72.354721 -0.52583712
50.089138 70.887962 0
51.122822 70.376137 0.40130717
47.200699 72.292908 -0.52322429
50.052834 70.884964 0
49.805733 71.006943 0.44208899
47.335224 72.201477 -0.5187254
50.072533 70.854324 0
49.731987 71.021919 0.44412121
47.563255 72.06459 -0.51132369
47.199951 72.242844 0
49.732853 71.000092 0.44383067
47.604881 72.019608 -0.50972706
47.24144 72.19738 0
46.736832 72.444214 0.53671491
47.511116 72.040794 -0.51233983
47.231552 72.177124 0
46.796692 72.389183 0.53453821
46.459213 72.527534 -0.54470384
47.22168 72.15686 0
46.791237 72.366119 0.53439325
46.635963 72.41568 -0.53889883
47.1931 72.14566 0
46.75309 72.358917 0.53526378
47.145184 72.143753 -0.5227893
47.197319 72.118561 0
46.69622 72.360672 0.53671491
47.449039 71.972282 -0.5130654
50.04789 70.720467 0
46.611217 72.375847 0.53903711
47.556534 71.896042 -0.50943702
50.025696 70.710365 0
46.554253 72.377327 0.54048878
47.565754 71.867188 -0.50885648
50.041069 70.682236 0
46.539459 72.358482 0.5406338
47.556259 71.847328 -0.50885648
50.0471 70.658638 0
46.548134 72.32843 0.54005325
47.537415 71.831909 -0.50914651
50.03437 70.644012 0
46.54277 72.305107 0.53990823
47.532684 71.821968 -0.50914651
47.637375 71.77224 0
46.523689 72.301239 0.54034323
47.499748 71.813187 -0.50987262
47.632698 71.750237 0
46.504269 72.284569 0.5406338
47.462128 71.806549 -0.51074314
47.557457 71.761551 0
46.409687 72.303345 0.54324603
47.410393 71.806473 -0.51204926
47.529251 71.750549 0
46.126942 72.410423 0.55166388
47.316292 71.826149 -0.51466149
47.486927 71.746109 0
46.046234 72.421921 0.55384052
47.2174 71.847809 -0.51741928
47.359711 71.781265 0
44.40731 73.16185 0.6040563
45.691299 72.534492 -0.5641517
44.538757 73.071747 0
44.382118 73.14476 0.60449183
45.65744 72.523315 -0.56487727
44.461716 73.078934 0
44.404079 73.105721 0.60347569
45.628292 72.50988 -0.56545782
46.708206 72.009659 0
49.79686 70.578979 0.43715453
45.613308 72.489853 -0.56560284
44.439835 73.031693 0
49.845543 70.535667 0.43541285
47.359127 71.659363 -0.51161373
44.452591 72.997162 0
49.941505 70.470757 0.43222004
47.250694 71.684753 -0.51466149
44.455914 72.967033 0
50.051777 70.39959 0.4285917
47.132717 71.714226 -0.51799983
44.535034 72.902275 0
50.11021 70.352478 0.42656004
47.019386 71.741264 -0.52119267
45.433559 72.464226 0
50.1451 70.316292 0.42525393
46.887039 71.776642 -0.524966
45.579716 72.370728 0
50.137478 70.299545 0.42525393
46.849243 71.768822 -0.52583712
45.583843 72.342018 0
50.096752 70.297791 0.42626947
46.84462 71.745949 -0.52569157
45.569019 72.321907 0
50.018101 70.313072 0.42844671
46.835274 71.72522 -0.52569157
45.540009 72.308167 0
49.977306 70.311104 0.42946282
46.87336 71.683205 -0.52424043
45.472996 72.311424 0
50.007622 70.277138 0.42830172
46.887691 71.66436 -0.52365988
45.448975 72.308739 0
50.060749 70.243195 0.42656004
46.854721 71.654266 -0.52438545
45.396179 72.305412 0
50.138626 70.188217 0.42394781
46.722046 71.688477 -0.52815878
45.343346 72.301979 0
50.107422 70.182022 0.42467335
46.6035 71.716057 -0.53149712
45.290512 72.298416 0
50.014462 70.203156 0.42728558
46.43734 71.764374 -0.53628659
45.304314 72.265274 0
49.850128 70.255592 0.43207505
48.177963 70.972008 -0.48287806
45.384827 72.202805 0
49.714188 70.295067 0.4359934
48.136253 70.967506 -0.4838936
45.48452 72.132172 0
44.401485 72.607857 0.59781569
48.108803 70.956673 -0.48447418
45.465183 72.113968 0
44.391098 72.584167 0.59781569
48.10041 70.937462 -0.48447418
45.388611 72.120705 0
44.395035 72.55423 0.59738016
48.101562 70.914108 -0.48418418
45.183121 72.183319 0
44.379936 72.532616 0.59752572
48.078926 70.901085 -0.48461917
44.838959 72.305473 0
44.379185 72.504761 0.59723514
48.046734 70.892151 -0.48534527
44.6856 72.344238 0
44.388008 72.472801 0.59665459
47.976372 70.89959 -0.48723197
44.59906 72.353821 0
44.377781 72.449097 0.59665459
47.953732 70.886368 -0.48766696
44.574623 72.336533 0
44.401024 72.411034 0.59563845
47.945423 70.866974 -0.48766696
44.569347 72.311012 0
44.419533 72.375092 0.59476793
47.908447 70.859802 -0.48853809
44.516232 72.305893 0
44.409428 72.351425 0.59476793
44.513924 72.279068 -0.59129125
44.501427 72.284378 0
44.394569 72.329781 0.59491289
44.532639 72.243362 -0.59042066
44.477043 72.266907 0
44.408447 72.295952 0.59418732
44.52269 72.219833 -0.59042066
44.534195 72.214981 0
44.393654 72.274292 0.59433234
44.517563 72.194283 -0.5902757
45.901211 71.61232 0
44.388454 72.248581 0.59418732
44.550949 72.166412 -0.58911455
45.867828 71.613472 0
44.393047 72.232712 0.59389734
44.555481 72.136887 -0.58867902
45.844234 71.597588 0
44.387924 72.207001 0.59375179
44.545662 72.113388 -0.58867902
45.835068 71.575645 0
46.095062 71.467209 0.5417949
44.545319 72.058395 -0.58809847
44.523308 72.067513 0
44.396713 72.119949 0.59259069
44.530796 72.036865 -0.58824348
44.494331 72.051918 0
46.116158 71.382423 0.54034323
44.545124 72.003448 -0.58751792
44.499062 72.0224 0
46.059181 71.380585 0.5417949
44.535469 71.979935 -0.58751792
44.499023 71.994873 0
46.026237 71.368759 0.54252046
44.496986 71.968201 -0.58838844
44.465271 71.981155 0
47.95602 70.55497 0.48403248
44.419975 71.972069 -0.59042066
44.426727 71.969322 0
47.890373 70.559082 0.48577359
44.36702 71.965988 -0.59172678
44.373707 71.963272 0
47.863194 70.547432 0.48635414
44.304409 71.963684 -0.59332347
44.320675 71.957108 0
47.874565 70.520134 0.48577359
44.246605 71.959305 -0.5947746
44.291763 71.941109 0
47.871513 70.498703 0.4856286
44.198425 71.95092 -0.5959357
44.253189 71.928932 0
47.882965 70.471466 0.48504803
44.111629 71.957878 -0.59825796
44.229141 71.910858 0
47.879978 70.450058 0.48490304
44.058586 71.951164 -0.59956408
44.238937 71.87925 0
47.85289 70.438278 0.48548359
43.99588 71.948166 -0.60116017
44.301975 71.826546 0
43.957466 71.963425 0.60231459
43.94281 71.9412 -0.60246629
44.292534 71.802742 0
43.914032 71.952599 0.60333073
43.880051 71.937943 -0.60406297
44.103977 71.849594 0
43.880272 71.937859 0.6040563
43.754395 71.959259 -0.60754633
44.00248 71.861732 0
43.773964 71.951569 0.60695904
43.638336 71.990692 -0.61088413
43.900833 71.887672 0
47.745567 70.378853 0.48766026
43.527061 72.005821 -0.61393189
43.838005 71.884232 0
47.762066 70.349747 0.48693472
43.420555 72.018814 -0.6168347
43.779987 71.878761 0
47.783451 70.31881 0.48606417
43.352745 72.016518 -0.61857635
43.746223 71.863747 0
47.795204 70.291687 0.48548359
43.284912 72.014061 -0.62031806
43.756157 71.831757 0
47.797318 70.268341 0.48519304
43.212212 72.013321 -0.62220472
43.756413 71.803543 0
43.639137 71.848755 0.60942632
43.173447 71.999374 -0.62307525
43.771305 71.769745 0
43.634514 71.822281 0.6092813
43.1007 71.998352 -0.62496191
43.757057 71.747162 0
64 64 0
43.018211 72.00087 -0.62713915
43.752586 71.720833 0
43.586548 71.784149 0.61015183
42.969696 71.99028 -0.62830031
43.752998 71.692673 0
43.582008 71.757637 0.61000687
42.896877 71.988777 -0.63018698
43.743713 71.668198 0
43.582378 71.729279 0.6097163
42.819176 71.988945 -0.6322186
43.73933 71.641884 0
43.582771 71.700935 0.60942632
42.75116 71.985291 -0.63396031
43.735001 71.615562 0
43.597801 71.667122 0.60870075
42.688004 71.979645 -0.6355564
43.750179 71.581947 0
47.759304 70.080849 0.48432249
42.600471 71.982948 -0.63787866
43.765411 71.548378 0
47.815262 70.037605 0.48243579
42.551872 71.971573 -0.63903975
43.761177 71.52211 0
43.618866 71.575005 0.60724908
42.449654 71.979942 -0.64179754
43.756981 71.495842 0
47.810455 69.994873 0.48214582
42.386406 71.973679 -0.6433937
43.743061 71.473183 0
47.773979 69.986092 0.48301637
42.362087 71.967796 -0.64397424
43.762966 71.45195 0
47.70697 69.999634 0.48490304
42.279285 71.968498 -0.64615148
43.758877 71.42569 0
47.670471 69.990677 0.48577359
42.186699 71.972572 -0.6486187
43.74992 71.40123 0
47.619301 69.987007 0.48708028
42.113605 71.969322 -0.65050536
43.74588 71.374977 0
43.68615 71.396729 0.60376626
42.040485 71.965912 -0.65239203
43.751663 71.345169 0
43.691891 71.366852 0.60333073
41.972229 71.960564 -0.65413374
43.752586 71.317169 0
43.653687 71.352905 0.60420126
41.899063 71.956825 -0.6560204
43.753563 71.289169 0
43.635029 71.331841 0.60449183
41.811214 71.958183 -0.65834206
43.749664 71.262939 0
43.626183 71.307228 0.60449183
41.742889 71.952347 -0.66008371
43.750698 71.23497 0
45.198029 70.717842 0.55761385
41.654961 71.953331 -0.66240597
43.746872 71.208755 0
45.096901 70.728233 0.56037164
41.576801 71.950638 -0.66443765
43.743095 71.182533 0
45.00552 70.734909 0.56283891
41.493706 71.949501 -0.66661489
43.739334 71.156319 0
44.865105 70.758682 0.56675726
41.395882 71.953346 -0.66922712
43.740509 71.12838 0
44.812817 70.751083 0.56806391
41.302917 71.955246 -0.67169434
43.736839 71.102165 0
44.794876 70.731331 0.56835389
41.229546 71.950081 -0.673581
43.752838 71.069099 0
44.796558 70.704697 0.56806391
41.151226 71.946465 -0.67561322
43.754135 71.041214 0
44.783566 70.683197 0.56820893
41.077808 71.940964 -0.67749989
43.760399 71.011635 0
43.719784 71.025703 0.59941238
40.984718 71.942085 -0.67996716
43.751945 70.987175 0
43.6278 71.030014 0.6018796
40.891594 71.942986 -0.68243438
43.738598 70.964394 0
43.688133 70.981735 0.59984738
40.847473 71.942513 -0.68359548
43.754089 70.945396 0
44.932442 70.541161 0.56298387
64 64 -0
40.734627 71.949814 -0.6866433
43.760471 70.915878 0
44.929462 70.516434 0.56283891
64 64 -0
40.67585 71.938438 -0.68809438
43.737362 70.896446 0
44.911774 70.496735 0.56312889
64 64 -0
40.602295 71.931938 -0.68998104
43.74382 70.866951 0
44.874397 70.483681 0.56400001
64 64 -0
40.528725 71.925278 -0.69186777
43.765133 70.832474 0
44.851799 70.465553 0.56443554
64 64 -0
40.440353 71.923416 -0.69418997
43.776627 70.801384 0
44.819378 70.450691 0.56516111
64 64 -0
40.391373 71.90815 -0.69535106
43.763493 70.778595 0
44.73275 70.453918 0.56748337
64 64 -0
40.322678 71.899353 -0.69709277
43.770115 70.749199 0
44.404556 70.537537 0.57691669
64 64 -0
40.199738 71.908424 -0.70043057
43.76693 70.723106 0
43.760517 70.725235 0.59563845
64 64 -0
40.130993 71.899254 -0.70217222
43.768692 70.695389 0
43.624119 70.743233 0.59941238
64 64 -0
39.978668 71.885307 -0.70609057
43.757511 70.644852 0
43.657269 70.677757 0.59796071
64 64 -0
39.860481 71.891808 -0.70928395
43.774231 70.612305 0
43.64426 70.654793 0.59810627
64 64 -0
39.816383 71.873886 -0.71029949
43.761311 70.58947 0
43.655998 70.623756 0.59752572
64 64 -0
39.683304 71.884735 -0.71392781
43.783081 70.555374 0
43.667786 70.592758 0.59694511
64 64 -0
39.634232 71.868126 -0.71508896
43.775173 70.530945 0
43.674675 70.563393 0.59650958
64 64 -0
39.50106 71.878448 -0.71871728
43.772247 70.504906 0
43.676666 70.535645 0.596219
64 64 -0
39.407425 71.875786 -0.72118455
43.779278 70.4757 0
43.668785 70.511086 0.596219
64 64 -0
39.289013 71.880798 -0.72437733
43.776421 70.449677 0
43.67577 70.481781 0.59578401
64 64 -0
39.215122 71.871384 -0.726264
43.773598 70.423668 0
43.667953 70.457214 0.59578401
64 64 -0
39.086525 71.89566 -0.72989231
43.779655 70.408295 0
43.664055 70.444931 0.59578401
64 64 -0
39.042305 71.876495 -0.73090845
43.771927 70.383858 0
43.676105 70.414101 0.59520346
64 64 -0
38.918793 71.882172 -0.73424625
43.764229 70.359413 0
43.673325 70.387978 0.59505844
64 64 -0
64 64 -0
41.245182 71.120865 -0.66588932
43.76152 70.333405 0
43.675549 70.360306 0.59476793
64 64 -0
64 64 -0
41.221725 71.098 -0.66632432
43.778725 70.301201 0
43.677792 70.332657 0.59447789
64 64 -0
64 64 -0
41.218124 71.068932 -0.6661793
43.771126 70.276764 0
43.675133 70.306549 0.59433234
64 64 -0
64 64 -0
41.204636 71.042931 -0.66632432
43.773491 70.249252 0
43.677448 70.278923 0.59404236
64 64 -0
64 64 -0
41.15641 71.027603 -0.66748542
43.770947 70.223267 0
43.689743 70.248253 0.59346181
64 64 -0
64 64 -0
41.15786 70.996956 -0.66719544
43.768414 70.197296 0
43.662334 70.22979 0.59404236
64 64 -0
64 64 -0
41.149422 70.969353 -0.66719544
43.755966 70.174362 0
43.679672 70.197632 0.59331679
64 64 -0
64 64 -0
41.165878 70.934189 -0.66646987
43.76844 70.143852 0
43.677185 70.171562 0.59317124
64 64 -0
64 64 -0
41.157516 70.906593 -0.66646987
43.756035 70.120911 0
43.674713 70.1455 0.59302622
64 64 -0
64 64 -0
41.16909 70.872993 -0.66588932
43.768593 70.090446 0
43.657341 70.123932 0.59331679
64 64 -0
64 64 -0
41.160805 70.845406 -0.66588932
43.776211 70.061508 0
43.664894 70.094872 0.5928812
64 64 -0
64 64 -0
41.127655 70.825233 -0.66661489
43.758934 70.040039 0
43.672485 70.065842 0.59244567
64 64 -0
64 64 -0
41.129398 70.794624 -0.66632432
43.79155 70.003731 0
43.685101 70.035355 0.59186512
64 64 -0
64 64 -0
41.146118 70.759621 -0.66559875
43.80928 69.971916 0
43.677822 70.010803 0.59186512
64 64 -0
64 64 -0
41.147926 70.729065 -0.66530877
43.931885 69.909294 0
43.690514 69.98037 0.59128457
64 64 -0
64 64 -0
41.153847 70.712326 -0.6650182
44.083118 69.851692 0
43.686905 69.968102 0.59128457
64 64 -0
64 64 -0
64 64 -0
41.15572 70.681801 -0.66472822
44.185959 69.795479 0
43.67971 69.94355 0.59128457
64 64 -0
64 64 -0
41.167622 70.648376 -0.66414762
44.109016 69.791901 0
43.65757 69.923355 0.5917201
64 64 -0
64 64 -0
64 64 -0
41.149632 70.62368 -0.66443765
44.082031 69.773659 0
43.675377 69.891533 0.59099454
64 64 -0
64 64 -0
41.156609 70.591743 -0.66400266
43.985062 69.775558 0
43.663284 69.868408 0.59113955
64 64 -0
64 64 -0
41.158661 70.561264 -0.66371208
43.9781 69.751373 0
43.676189 69.838097 0.59055901
64 64 -0
64 64 -0
41.165726 70.529381 -0.66327709
43.921112 69.741486 0
43.689137 69.807816 0.58997846
64 64 -0
64 64 -0
41.152859 70.503204 -0.66342211
43.83411 69.740013 0
43.677139 69.784691 0.59012341
64 64 -0
64 64 -0
64 64 -0
41.135025 70.478424 -0.66371208
43.79213 69.725578 0
43.675163 69.75872 0.58997846
64 64 -0
64 64 -0
41.142208 70.446564 -0.66327709
43.79023 69.699745 0
43.668221 69.734154 0.58997846
64 64 -0
64 64 -0
41.164467 70.410507 -0.66240597
43.783356 69.675323 0
43.6763 69.705376 0.58954346
64 64 -0
64 64 -0
41.156738 70.382912 -0.66240597
43.776516 69.650887 0
43.674438 69.679413 0.58939791
64 64 -0
64 64 -0
41.169067 70.349739 -0.66182542
43.774712 69.625053 0
43.667595 69.654846 0.58939791
64 64 -0
64 64 -0
41.166416 70.320763 -0.6616804
43.767929 69.600616 0
43.665779 69.628891 0.58925289
64 64 -0
64 64 -0
41.168823 70.290405 -0.66138983
43.771225 69.573395 0
43.669003 69.601555 0.58896285
64 64 -0
64 64 -0
64 64 -0
41.166248 70.261436 -0.66124487
43.769516 69.547569 0
43.677292 69.572861 0.58852732
64 64 -0
41.15369 70.235207 -0.66138983
43.803001 69.512161 0
43.680611 69.545563 0.58823675
64 64 -0
41.151184 70.206238 -0.66124487
43.796356 69.487755 0
43.693985 69.515556 0.5876562
64 64 -0
64 64 -0
41.158737 70.174561 -0.66080987
43.799797 69.460617 0
43.682304 69.492378 0.58780175
64 64 -0
64 64 -0
41.175079 70.15535 -0.66022927
43.796501 69.44841 0
43.684021 69.478745 0.5876562
64 64 -0
64 64 -0
41.177708 70.125069 -0.65993875
43.79998 69.421303 0
43.672379 69.455544 0.58780175
64 64 -0
64 64 -0
41.175339 70.096146 -0.65979373
43.793442 69.396889 0
43.675858 69.428291 0.58751118
64 64 -0
64 64 -0
41.18808 70.063225 -0.65921319
43.791962 69.371132 0
43.6894 69.398392 0.58693063
64 64 -0
64 64 -0
41.195847 70.03167 -0.65877759
43.785484 69.34671 0
43.682892 69.373848 0.58693063
64 64 -0
64 64 -0
41.183556 70.005432 -0.65892261
43.789116 69.319633 0
43.696518 69.344002 0.58635008
64 64 -0
64 64 -0
41.191383 69.973907 -0.65848762
43.828018 69.28334 0
43.695095 69.318153 0.58620507
64 64 -0
64 64 -0
41.169109 69.950272 -0.65892261
43.806534 69.262901 0
43.69371 69.292305 0.58606011
64 64 -0
64 64 -0
41.18206 69.917465 -0.65834206
43.800186 69.238495 0
43.692356 69.266464 0.58591509
64 64 -0
64 64 -0
41.159824 69.893784 -0.65877759
43.814034 69.208885 0
43.696083 69.239319 0.58562452
64 64 -0
64 64 -0
41.172852 69.861015 -0.65819705
43.807755 69.184486 0
43.689766 69.214783 0.58562452
64 64 -0
64 64 -0
64 64 -0
41.180878 69.829575 -0.65776205
43.801506 69.160088 0
43.693542 69.187668 0.58533454
64 64 -0
64 64 -0
41.183937 69.799431 -0.65747148
43.790245 69.136955 0
43.692337 69.161842 0.58518898
64 64 -0
64 64 -0
41.181976 69.770584 -0.65732652
43.799194 69.108704 0
43.691147 69.136032 0.58504397
64 64 -0
64 64 -0
41.185112 69.740471 -0.65703595
43.79808 69.083023 0
43.700081 69.107681 0.58460844
64 64 -0
64 64 -0
41.188263 69.710381 -0.65674597
43.817192 69.052292 0
43.709034 69.079369 0.58417344
64 64 -0
64 64 -0
41.181381 69.682816 -0.65674597
43.82626 69.024124 0
43.697876 69.056099 0.5843184
64 64 -0
64 64 -0
41.172756 69.626411 -0.65660095
43.824276 68.97287 0
43.690758 69.005783 0.58417344
64 64 -0
64 64 -0
64 64 -0
41.184505 69.608894 -0.65616536
43.811176 68.963165 0
43.702881 68.989784 0.58373785
64 64 -0
64 64 -0
64 64 -0
64 64 -0
41.177746 69.581322 -0.65616536
43.805191 68.938766 0
43.691822 68.966492 0.58388287
64 64 -0
64 64 -0
64 64 -0
41.221504 69.541458 -0.65471429
43.794167 68.915596 0
43.695927 68.939491 0.58359283
64 64 -0
64 64 -0
64 64 -0
64 64 -0
41.199684 69.517593 -0.65514928
43.79837 68.888725 0
43.700085 68.912506 0.58330232
64 64 -0
64 64 -0
64 64 -0
64 64 -0
41.198082 69.488831 -0.65500426
43.797535 68.863091 0
43.69416 68.887978 0.58330232
64 64 -0
64 64 -0
64 64 -0
64 64 -0
41.196518 69.46006 -0.65485924
43.801807 68.83625 0
43.688271 68.863434 0.58330232
64 64 -0
64 64 -0
64 64 -0
64 64 -0
41.189938 69.432503 -0.65485924
43.826347 68.804611 0
43.712734 68.831673 0.58243173
