# .PCD v0.7 - Point Cloud Data file format
VERSION 0.7
FIELDS x y z
SIZE 4 4 4
TYPE F F F
COUNT 1 1 1
WIDTH 1674
HEIGHT 1
VIEWPOINT 0 0 0 1 0 0 0
POINTS 1674
DATA ascii
70.938225 58.849388 -0.95712477
72.80825 57.461166 -0.9144308
75.905922 55.161602 -0.82637066
78.070587 53.554657 -0.48940864
78.022598 53.590279 0
77.982765 53.61985 0.48635414
64 64 -0
64 64 -0
70.932182 58.866852 -0.95543557
72.816147 57.471813 -0.9144308
75.912437 55.17907 -0.82608265
78.099899 53.559296 -0.48998919
78.02681 53.613422 0
77.98278 53.646019 0.48591915
64 64 -0
64 64 -0
70.950645 58.866173 -0.95712477
72.828156 57.479424 -0.9148584
75.923088 55.19347 -0.82608265
78.104156 53.582512 -0.48969918
78.039345 53.630379 0
77.982742 53.672188 0.48548359
64 64 -0
64 64 -0
70.965019 58.868549 -0.95824945
72.819496 57.502277 -0.9131465
75.937881 55.204819 -0.82637066
78.108353 53.605732 -0.48940864
78.047661 53.650444 0
77.982651 53.698341 0.48504803
64 64 -0
64 64 -0
70.971214 58.876972 -0.95824945
72.831474 57.509899 -0.91357404
75.931824 55.231503 -0.82521749
78.125092 53.619713 -0.48955363
78.072746 53.658176 0
77.995087 53.715244 0.48504803
64 64 -0
64 64 -0
70.997894 58.87038 -0.96106333
72.835175 57.523609 -0.9131465
75.942413 55.245926 -0.82521749
78.116669 53.652145 -0.48882806
78.068436 53.687496 0
78.003319 53.735233 0.48490304
64 64 -0
64 64 -0
70.979477 58.896828 -0.95768708
72.859566 57.522167 -0.9148584
75.948807 55.263412 -0.82492948
78.129158 53.669209 -0.48882806
78.055687 53.722931 0
77.994736 53.767494 0.48417747
64 64 -0
64 64 -0
70.993843 58.899284 -0.95881176
72.859085 57.538933 -0.91400164
75.95517 55.280914 -0.82464039
78.120644 53.701599 -0.48810253
78.030251 53.767521 0
77.981888 53.802792 0.48330635
64 64 -0
64 64 -0
71.008224 58.901752 -0.95993865
72.854439 57.558693 -0.91271895
75.957336 55.301445 -0.82406431
78.107872 53.737007 -0.48723197
78.021561 53.799789 0
77.994202 53.819695 0.48330635
64 64 -0
64 64 -0
71.010277 58.913204 -0.95937628
72.858047 57.572422 -0.91228974
75.967834 55.315899 -0.82406431
78.095016 53.772377 -0.48636085
78.017029 53.828964 0
77.968643 53.864075 0.48200026
64 64 -0
64 64 -0
70.995819 58.936584 -0.95656025
72.86998 57.580112 -0.91271895
75.965744 55.33947 -0.82319921
78.090523 53.801605 -0.4857803
78.025078 53.848972 0
77.976669 53.884007 0.48185524
64 64 -0
64 64 -0
71.018417 58.933144 -0.95881176
72.886047 57.584831 -0.91357404
75.980392 55.350906 -0.82348722
78.09021 53.827755 -0.48534527
78.016235 53.881157 0
77.967819 53.916107 0.48112968
64 64 -0
64 64 -0
71.016289 58.947563 -0.95768708
72.893799 57.59557 -0.91357404
75.986641 55.368408 -0.82319921
78.098259 53.847832 -0.48519972
78.011559 53.910263 0
77.975784 53.936028 0.48098469
64 64 -0
64 64 -0
71.035843 58.939934 -0.95993865
72.889336 57.606934 -0.91271895
75.987656 55.37867 -0.8229112
78.083298 53.871521 -0.48447418
78.00499 53.927841 0
77.981857 53.944473 0.48098469
64 64 -0
69.876404 59.78455 -0.99764645
71.029564 58.957329 -0.95824945
72.892868 57.620682 -0.91228974
75.985451 55.40221 -0.82204604
78.078636 53.900661 -0.4838936
78.008682 53.950844 0
77.977112 53.973492 0.48040414
64 64 -0
64 64 -0
71.043922 58.959908 -0.95937628
72.913101 57.622467 -0.91357404
75.983223 55.42572 -0.82118195
78.07814 53.926758 -0.48345804
78.016586 53.970802 0
77.989212 53.990387 0.48040414
64 64 -0
64 64 -0
71.037598 58.97728 -0.95768708
72.924973 57.63026 -0.91400164
76.001984 55.434204 -0.82175803
78.077629 53.95282 -0.48302305
78.011742 53.999844 0
77.997055 54.010323 0.48025858
64 64 -0
64 64 -0
71.072624 58.965164 -0.96162564
72.903397 57.661884 -0.91100711
75.99968 55.457714 -0.82089287
78.081284 53.975872 -0.4827325
78.019577 54.019794 0
77.987953 54.042313 0.47953302
64 64 -0
69.872154 59.830437 -0.99349219
71.037277 59.003132 -0.95599788
72.91523 57.669678 -0.91143465
76.01844 55.466225 -0.82146996
78.084915 53.998905 -0.4824425
78.023132 54.042778 0
77.97879 54.074261 0.47880745
64 64 -0
69.881294 59.834625 -0.99418634
71.055756 59.002823 -0.95768708
72.91449 57.686394 -0.91057789
76.020294 55.486736 -0.82089287
78.080025 54.027946 -0.48186195
78.001175 54.083794 0
77.96534 54.109177 0.47793689
64 64 -0
69.886322 59.841736 -0.99418634
71.065933 59.008423 -0.95824945
72.930504 57.691238 -0.91143465
76.043243 55.49231 -0.82175803
78.070847 54.059959 -0.48113638
78.004654 54.10672 0
77.973022 54.129063 0.47779134
64 64 -0
69.665764 60.007797 -0.95611942
71.080276 59.011105 -0.95937628
72.942314 57.699081 -0.91186219
76.061966 55.500916 -0.82233405
78.08709 54.073975 -0.48128137
77.995323 54.138634 0
77.989197 54.142952 0.47793689
64 64 -0
69.855293 59.88483 -0.98726338
71.086304 59.019665 -0.95937628
72.966721 57.698082 -0.91357404
76.05954 55.52441 -0.82146996
78.086319 54.099972 -0.48084581
78.00296 54.158554 0
77.975578 54.177799 0.47706577
64 64 -0
69.876694 59.880386 -0.99003202
71.113113 59.013649 -0.96219015
72.957512 57.720711 -0.91186219
76.078239 55.533054 -0.82204604
78.089767 54.122959 -0.48055583
78.019119 54.172485 0
77.974686 54.203632 0.47663078
64 64 -0
69.844666 59.913364 -0.98380321
71.106636 59.030983 -0.96050096
72.956688 57.737415 -0.91100711
76.075752 55.556541 -0.82118195
78.076126 54.157867 -0.47968471
77.996857 54.213295 0
77.982239 54.223511 0.47648522
64 64 -0
71.108475 59.04248 -0.95993865
72.96846 57.745308 -0.91143465
76.068977 55.582973 -0.82002878
78.075233 54.183792 -0.47924972
78.017197 54.224262 0
77.97699 54.252304 0.47590467
64 64 -0
69.809212 59.959023 -0.97618878
71.131142 59.039463 -0.96219015
72.980217 57.75322 -0.91186219
76.07914 55.597565 -0.82002878
78.078545 54.206745 -0.47895914
77.9991 54.262005 0
77.997299 54.26326 0.47619522
64 64 -0
69.834717 59.951736 -0.97965157
71.124603 59.056778 -0.96050096
72.983543 57.766998 -0.91143465
76.085022 55.61512 -0.8197397
78.073288 54.235615 -0.47837859
78.006569 54.281902 0
77.979164 54.300919 0.47517911
64 64 -0
69.810715 59.978775 -0.97480577
71.118027 59.07407 -0.95881176
72.991074 57.777859 -0.91143465
76.086639 55.635612 -0.81916362
78.076538 54.258537 -0.47808859
78.00975 54.304752 0
77.960953 54.338524 0.474163
64 64 -0
69.941086 59.89386 -0.99626082
71.137726 59.066814 -0.96106333
72.982155 57.792053 -0.91015035
76.08744 55.645855 -0.81887561
78.078133 54.270004 -0.47794303
77.985626 54.333939 0
77.962517 54.349911 0.47401801
64 64 -0
69.867569 59.955143 -0.98311174
71.139503 59.078323 -0.96050096
73.006554 57.791252 -0.91186219
76.097527 55.660465 -0.81887561
78.068489 54.301769 -0.47721747
77.980156 54.362659 0
77.957054 54.378586 0.47343743
64 64 -0
69.826965 59.993507 -0.97549731
71.137077 59.092705 -0.95937628
73.014053 57.802139 -0.91186219
76.111855 55.672161 -0.81916362
78.07164 54.324657 -0.47692749
77.97892 54.388409 0
77.964386 54.398399 0.47329244
64 64 -0
69.926979 59.93528 -0.99141771
71.155563 59.09272 -0.96106333
73.02153 57.813038 -0.91186219
76.117645 55.689724 -0.81887561
78.061897 54.356361 -0.47620192
77.969063 54.420021 0
77.971695 54.418217 0.47314742
64 64 -0
69.894623 59.967937 -0.9851889
71.153107 59.107101 -0.95993865
73.033234 57.821045 -0.91228974
76.119133 55.71022 -0.81829852
78.060661 54.382164 -0.47576636
77.989227 54.431026 0
77.97039 54.443913 0.47271189
64 64 -0
69.870468 59.994858 -0.9803431
71.163208 59.112888 -0.96050096
73.023727 57.84354 -0.91057789
76.116318 55.73362 -0.81743336
78.050812 54.413803 -0.47504079
77.99649 54.450867 0
77.973351 54.466652 0.47242188
64 64 -0
69.896042 59.987846 -0.98380321
71.177505 59.115833 -0.96162564
73.039658 57.848667 -0.91143465
76.126297 55.748264 -0.81743336
78.058098 54.433708 -0.47489581
77.982185 54.485359 0
77.984863 54.483543 0.47242188
64 64 -0
69.867676 60.017513 -0.97826594
71.149773 59.147331 -0.95712477
73.038582 57.865364 -0.91057789
76.131981 55.765823 -0.81714535
78.052444 54.462376 -0.47431526
77.989372 54.50518 0
77.983444 54.509205 0.47198632
64 64 -0
69.905724 60.002106 -0.98380321
71.159836 59.153126 -0.95768708
73.04174 57.879166 -0.91015035
76.141922 55.780491 -0.81714535
78.055344 54.485191 -0.47402468
77.983597 54.533764 0
77.981987 54.534851 0.47155076
64 64 -0
69.947968 59.983978 -0.99003202
71.1362 59.18169 -0.95374638
73.049133 57.890095 -0.91015035
76.156128 55.792274 -0.81743336
78.053902 54.51091 -0.47358912
77.990715 54.553577 0
77.976189 54.563385 0.47097021
64 64 -0
69.932014 60.005177 -0.98657191
71.142021 59.190315 -0.95374638
73.047997 57.906765 -0.9092952
76.148872 55.818527 -0.81628019
78.065361 54.527901 -0.47358912
77.989159 54.579216 0
77.974655 54.588982 0.47053522
64 64 -0
69.932671 60.015144 -0.98588037
71.160484 59.190445 -0.95543557
73.051094 57.920563 -0.90886766
76.171638 55.824558 -0.81714535
78.05954 54.556492 -0.47300857
77.974617 54.613533 0
77.981697 54.60878 0.47038963
64 64 -0
69.916641 60.036274 -0.98242027
71.16629 59.1991 -0.95543557
73.075478 57.920082 -0.91057789
76.17292 55.845024 -0.81656927
78.062309 54.579266 -0.47271857
77.981613 54.633331 0
77.958488 54.648819 0.46922854
64 64 -0
69.921432 60.043427 -0.98242027
71.176308 59.204945 -0.95599788
73.078552 57.933903 -0.91015035
76.182762 55.859737 -0.81656927
78.060715 54.604927 -0.47228301
77.997261 54.647331 0
77.965462 54.668575 0.46908352
64 64 -0
69.938721 60.042244 -0.98449475
71.182098 59.213619 -0.95599788
73.098701 57.936333 -0.91143465
76.188271 55.877342 -0.81628019
78.063416 54.627686 -0.471993
77.999878 54.670029 0
77.963768 54.694096 0.46864852
64 64 -0
69.981102 60.024429 -0.99072355
71.17942 59.227921 -0.9548732
73.106018 57.94733 -0.91143465
76.176544 55.906387 -0.81483901
78.07473 54.644684 -0.471993
78.006813 54.689831 0
77.962013 54.719608 0.46821296
64 64 -0
69.969177 60.042747 -0.98795485
71.206352 59.222561 -0.95768708
73.121872 57.952671 -0.91228974
76.190636 55.918243 -0.81512809
78.077354 54.667446 -0.47170246
78.013718 54.709633 0
77.942894 54.756588 0.46719685
64 64 -0
69.946472 60.062969 -0.98380321
71.183807 59.243755 -0.95430869
73.108406 57.969521 -0.91057789
76.191193 55.928471 -0.81483901
78.078659 54.678818 -0.47155747
77.988945 54.73822 0
77.935471 54.773624 0.46676129
64 64 -0
69.955406 60.067394 -0.98449475
71.206512 59.241238 -0.95656025
73.11998 57.977692 -0.91100711
76.205261 55.94035 -0.81512809
78.072571 54.707291 -0.47097689
77.974068 54.772331 0
77.959625 54.781876 0.46719685
64 64 -0
69.985306 60.058029 -0.98864901
71.212257 59.249947 -0.95656025
73.140099 57.980255 -0.91228974
76.210663 55.957954 -0.81483901
78.070763 54.73288 -0.47054133
77.98085 54.792095 0
77.975082 54.795891 0.46734187
64 64 -0
69.922958 60.109341 -0.97757447
71.205261 59.267029 -0.9548732
73.164536 57.980026 -0.91400164
76.220367 55.972717 -0.81483901
78.060234 54.764153 -0.46981579
77.991966 54.808994 0
77.981857 54.815636 0.46719685
64 64 -0
69.98275 60.090729 -0.98588037
71.237946 59.270557 -0.95768708
73.191956 57.993763 -0.91528594
76.231079 56.007927 -0.81426293
78.082512 54.798157 -0.46981579
78.022858 54.837135 0
78.017067 54.840919 0.46763241
64 64 -0
69.962242 60.114407 -0.98172611
71.230881 59.287632 -0.95599788
73.212112 57.996464 -0.91657025
76.236397 56.025532 -0.81397492
78.09362 54.815178 -0.46981579
78.007751 54.871143 0
77.988945 54.8834 0.4663263
64 64 -0
70.004791 60.097004 -0.98795485
71.249352 59.288063 -0.95768708
73.215057 58.010391 -0.9161427
76.224327 56.054428 -0.81253266
78.065498 54.857704 -0.46850967
77.983856 54.910767 0
78.004303 54.89748 0.46647128
64 64 -0
69.984245 60.120632 -0.98380321
71.250778 59.299587 -0.95712477
73.235199 58.013161 -0.91742533
76.246948 56.06076 -0.81339782
78.067818 54.880356 -0.46821967
77.964264 54.947483 0
78.006561 54.920067 0.46618074
64 64 -0
70.001572 60.119694 -0.98588037
71.256454 59.308353 -0.95712477
73.23381 58.029896 -0.91657025
76.247849 56.081177 -0.81282175
78.039536 54.92276 -0.46691298
77.962082 54.972843 0
78.013161 54.939816 0.46603575
64 64 -0
70.023125 60.11607 -0.98864901
71.240753 59.330902 -0.95430869
73.223763 58.052185 -0.9148584
76.253052 56.098793 -0.81253266
78.041771 54.945358 -0.46662298
77.972977 54.989719 0
78.015373 54.962383 0.46574575
64 64 -0
70.006721 60.136917 -0.9851889
71.263489 59.328659 -0.95656025
73.239571 58.057785 -0.91571349
76.253891 56.119194 -0.81195664
78.043968 54.967949 -0.466333
77.970718 55.01506 0
78.000046 54.996197 0.46487463
64 64 -0
70.011383 60.14418 -0.9851889
71.260574 59.342918 -0.95543557
73.268364 58.055088 -0.91785455
76.267761 56.131214 -0.81224465
78.050484 54.98774 -0.46618745
77.959656 55.045998 0
77.997803 55.02153 0.46443963
64 64 -0
69.990669 60.167675 -0.98103458
71.270477 59.348961 -0.95599788
73.288498 58.057999 -0.91913724
76.281609 56.143261 -0.81253266
78.043854 55.015926 -0.46560687
77.961708 55.068474 0
77.999878 55.044056 0.46414906
64 64 -0
70.054504 60.137138 -0.99072355
71.280373 59.355019 -0.95656025
73.321655 58.05265 -0.92170584
76.291092 56.158104 -0.81253266
78.050323 55.035694 -0.46546188
77.954941 55.09655 0
77.993164 55.072159 0.46356851
64 64 -0
70.004143 60.17947 -0.98172611
71.290276 59.361084 -0.95712477
73.341812 58.05566 -0.92298853
76.30056 56.172962 -0.81253266
78.047981 55.06105 -0.46502632
77.939331 55.130188 0
77.995186 55.094646 0.4632785
64 64 -0
69.987579 60.200169 -0.97826594
71.291573 59.372627 -0.95656025
73.401009 58.033939 -0.92812413
76.305649 56.190601 -0.81224465
78.058777 55.07803 -0.46502632
77.958832 55.141457 0
78.001549 55.114346 0.46313351
64 64 -0
70.019539 60.184982 -0.98311174
71.307251 59.36887 -0.95824945
73.439301 58.017632 -0.93154788
76.297249 56.206345 -0.81137949
78.037834 55.10321 -0.46415576
77.955383 55.155468 0
77.998131 55.128376 0.46284294
64 64 -0
69.998688 60.208347 -0.97895741
71.282768 59.396709 -0.95430869
73.450859 58.026302 -0.93197542
76.293549 56.229496 -0.8105154
78.039795 55.125729 -0.46386576
77.961662 55.175114 0
78.000061 55.150845 0.46255296
64 64 -0
70.037224 60.194195 -0.98449475
71.322716 59.383835 -0.95881176
73.449394 58.043198 -0.93112034
76.285431 56.25539 -0.80936223
78.037315 55.151016 -0.4634302
77.972321 55.19199 0
77.997551 55.176086 0.4621174
64 64 -0
70.037575 60.204159 -0.98380321
71.311081 59.403503 -0.95656025
73.473969 58.043686 -0.93283218
76.303528 56.264736 -0.80993831
78.03479 55.176285 -0.46299464
77.974144 55.214417 0
77.994995 55.201305 0.46168184
64 64 -0
70.03791 60.214119 -0.98311174
71.308029 59.417736 -0.95543557
73.46376 58.066048 -0.93112034
76.304108 56.285099 -0.80936223
78.05426 55.187721 -0.46328521
77.971519 55.239605 0
77.996826 55.22374 0.46139184
64 64 -0
70.025459 60.232059 -0.9803431
71.30925 59.42926 -0.9548732
73.492683 58.063881 -0.93325973
76.326584 56.29174 -0.81022739
78.056076 55.210228 -0.46299464
77.96003 55.270287 0
77.98539 55.254433 0.46066627
64 64 -0
70.064072 60.218102 -0.98588037
71.319077 59.43541 -0.95543557
73.478073 58.088936 -0.93112034
76.318329 56.317593 -0.80907422
78.04464 55.240967 -0.4622691
77.957314 55.295429 0
77.982712 55.279587 0.46023071
64 64 -0
70.085678 60.214832 -0.98864901
71.328896 59.441574 -0.95599788
73.493919 58.094975 -0.93197542
76.331993 56.329754 -0.80936223
78.041977 55.266178 -0.46183354
77.963409 55.315048 0
77.988831 55.299232 0.46008572
64 64 -0
70.034821 60.256569 -0.97965157
71.351677 59.43972 -0.95824945
73.496689 58.109154 -0.93154788
76.345642 56.341934 -0.8096503
78.039276 55.291363 -0.46139854
77.965034 55.337418 0
77.986084 55.324364 0.45965016
64 64 -0
70.064934 60.248032 -0.98380321
71.352859 59.451275 -0.95768708
73.516907 58.11253 -0.93283218
76.359283 56.354137 -0.80993831
78.049789 55.308334 -0.46139854
77.979935 55.351551 0
78.005386 55.335808 0.45994017
64 64 -0
70.07373 60.252731 -0.98449475
71.362671 59.457497 -0.95824945
73.528374 58.121338 -0.93325973
76.364113 56.371792 -0.8096503
78.038155 55.338966 -0.46067241
77.968208 55.382122 0
77.993729 55.366375 0.4592146
64 64 -0
70.065445 60.267952 -0.98242027
71.363831 59.469059 -0.95768708
73.544205 58.12748 -0.93411487
76.3601 56.394871 -0.80878514
78.044189 55.358658 -0.46052742
77.965324 55.407181 0
78.008575 55.380569 0.45935962
64 64 -0
70.104149 60.254299 -0.98795485
71.369301 59.477959 -0.95768708
73.542557 58.144382 -0.93325973
76.369278 56.409813 -0.80878514
78.041328 55.383789 -0.46009186
77.971252 55.426792 0
78.001266 55.408375 0.45877904
64 64 -0
70.09584 60.269527 -0.98588037
71.361755 59.494827 -0.95599788
73.527733 58.169315 -0.93112034
76.382866 56.422054 -0.80907422
78.038445 55.408894 -0.45965686
77.972725 55.449108 0
77.985046 55.44157 0.45790848
64 64 -0
70.12603 60.261219 -0.99003202
71.380211 59.495781 -0.95768708
73.552299 58.170132 -0.93283218
76.400841 56.431641 -0.8096503
78.031067 55.436691 -0.45907629
77.965279 55.476845 0
77.999809 55.455769 0.4580535
64 64 -0
70.121979 60.273834 -0.98864901
71.389984 59.502064 -0.95824945
73.554955 58.184345 -0.93240464
64 64 -0
78.050278 55.448254 -0.45936629
77.944443 55.512672 0
77.979065 55.4916 0.45703793
64 64 -0
70.087883 60.304665 -0.98242027
71.404106 59.505714 -0.95937628
73.553192 58.201229 -0.93154788
76.467735 56.432098 -0.81282175
78.042831 55.476021 -0.45878574
77.950241 55.532227 0
77.962669 55.524681 0.4561668
64 64 -0
70.111565 60.295341 -0.98588037
71.393784 59.518097 -0.95768708
73.556686 58.207001 -0.93154788
76.472305 56.439632 -0.81282175
78.043533 55.487198 -0.45864072
77.950905 55.54335 0
77.967789 55.533119 0.4561668
64 64 -0
70.111748 60.305321 -0.9851889
71.412239 59.519142 -0.95937628
73.585648 58.205276 -0.93368727
76.494705 56.44669 -0.81368583
78.036026 55.514927 -0.45806018
77.947746 55.568295 0
77.969116 55.555374 0.45587683
64 64 -0
70.10331 60.320484 -0.98311174
71.421997 59.525482 -0.95993865
73.575058 58.227463 -0.93197542
76.499397 56.464462 -0.81339782
78.015106 55.550678 -0.45704406
77.94902 55.590523 0
77.957062 55.58567 0.45515126
64 64 -0
70.099144 60.333035 -0.98172611
71.427399 59.534454 -0.95993865
73.568832 58.246967 -0.93069273
76.490753 56.490231 -0.81224465
78.016403 55.572971 -0.45675406
77.936867 55.620789 0
77.958305 55.607903 0.45486069
64 64 -0
70.125099 60.327499 -0.9851889
71.419708 59.551273 -0.95824945
73.571365 58.261181 -0.93026358
76.513138 56.497345 -0.81310982
78.013206 55.597931 -0.4563185
77.951447 55.634964 0
77.977356 55.619423 0.45515126
64 64 -0
70.151062 60.322033 -0.98864901
71.425079 59.560242 -0.95824945
73.587112 58.267475 -0.93112034
76.508865 56.520439 -0.81224465
78.01889 55.617535 -0.45617351
77.957077 55.654495 0
77.965157 55.649662 0.45442513
64 64 -0
70.108093 60.357735 -0.98103458
71.421722 59.574417 -0.95712477
73.580795 58.286953 -0.92983598
76.509018 56.540852 -0.81166857
78.024551 55.637138 -0.45602852
77.958199 55.676704 0
77.957382 55.677189 0.45384458
64 64 -0
70.164238 60.334343 -0.98934054
71.431427 59.580791 -0.95768708
73.583282 58.301155 -0.92940843
76.518021 56.555973 -0.81166857
78.02124 55.662064 -0.45559296
77.941414 55.70953 0
77.954041 55.702019 0.45340958
64 64 -0
70.138451 60.359715 -0.98449475
71.428009 59.594963 -0.95656025
73.585754 58.315357 -0.92898089
76.535896 56.56583 -0.81224465
78.017891 55.686966 -0.4551574
77.942459 55.731697 0
77.959579 55.721546 0.45326403
64 64 -0
70.147171 60.364571 -0.9851889
71.459579 59.588417 -0.95993865
73.592613 58.326942 -0.92898089
76.558235 56.573082 -0.81310982
78.018982 55.709194 -0.45486739
77.934517 55.759148 0
77.960632 55.743706 0.45297402
64 64 -0
70.138596 60.37965 -0.98311174
71.464905 59.597435 -0.95993865
73.572922 58.354191 -0.92641228
76.5672 56.588261 -0.81310982
78.024521 55.728779 -0.4547224
77.939987 55.778633 0
77.95269 55.771141 0.45239347
64 64 -0
70.129982 60.394707 -0.98103458
71.461449 59.611614 -0.95881176
73.597435 58.355354 -0.92812413
76.558311 56.613941 -0.81195664
78.016586 55.756268 -0.45414183
77.945427 55.798119 0
77.949181 55.795914 0.45195791
64 64 -0
70.121346 60.409733 -0.97895741
71.475525 59.615486 -0.95993865
73.613113 58.361755 -0.92898089
76.571686 56.626507 -0.81224465
78.022041 55.775848 -0.45399627
77.959816 55.812347 0
77.945648 55.820652 0.45152292
64 64 -0
70.17765 60.386734 -0.98726338
71.480812 59.624523 -0.95993865
73.619919 58.373375 -0.92898089
76.562721 56.652149 -0.81109148
78.014038 55.803284 -0.45341629
77.969696 55.82922 0
77.937576 55.848003 0.45094234
64 64 -0
70.173355 60.39925 -0.98588037
71.494865 59.628448 -0.96106333
73.600098 58.400528 -0.92641228
76.56266 56.672543 -0.8105154
78.037392 55.812374 -0.45385128
77.970573 55.851345 0
77.933945 55.872707 0.45050681
64 64 -0
70.208046 60.389061 -0.99072355
71.495758 59.64006 -0.96050096
73.624603 58.401806 -0.92812413
76.575974 56.685127 -0.81080347
78.042786 55.831951 -0.45370626
77.962418 55.8787 0
77.912308 55.907845 0.44949067
64 64 -0
70.216759 60.394039 -0.99141771
71.501015 59.64912 -0.96050096
73.62249 58.418587 -0.92726904
76.575867 56.705513 -0.81022739
78.043663 55.854134 -0.45341629
77.95871 55.903412 0
77.899605 55.937695 0.44876513
64 64 -0
70.186363 60.421654 -0.98588037
71.48867 59.668365 -0.95824945
73.629227 58.430218 -0.92726904
76.575706 56.725899 -0.8096503
78.039993 55.878918 -0.45298073
77.950455 55.93071 0
77.909332 55.954498 0.44876513
64 64 -0
70.218925 60.407829 -0.99072355
71.500099 59.667801 -0.95937628
73.637032 58.433468 -0.92769659
76.571144 56.73867 -0.80907422
78.013397 55.905602 -0.45196459
77.928299 55.954754 0
77.914192 55.962902 0.44876513
64 64 -0
70.20153 60.427868 -0.98726338
71.505325 59.676868 -0.95937628
73.643753 58.445118 -0.92769659
76.56646 56.761612 -0.80820912
78.018661 55.925129 -0.4518196
77.933479 55.974197 0
77.94191 55.969345 0.44934568
64 64 -0
70.192802 60.442852 -0.9851889
71.514946 59.683411 -0.95993865
73.650452 58.456776 -0.92769659
76.59314 56.766495 -0.80936223
78.019394 55.947258 -0.45152906
77.947693 55.988438 0
77.951599 55.986195 0.44934568
64 64 -0
70.188377 60.45533 -0.98380321
71.533371 59.684925 -0.96162564
73.670517 58.460781 -0.92898089
76.597382 56.784286 -0.80907422
78.029114 55.964203 -0.45152906
77.984459 55.98978 0
77.961273 56.003059 0.44934568
69.077377 61.09985 -0.96401393
70.227509 60.442902 -0.98934054
71.534172 59.696548 -0.96106333
73.6772 58.472469 -0.92898089
76.592613 56.807213 -0.80820912
78.047844 55.975998 -0.4518196
77.971535 56.019588 0
77.957382 56.027672 0.44891012
64 64 -0
70.210007 60.462845 -0.98588037
71.55262 59.698105 -0.96275252
73.670486 58.491791 -0.92769659
76.565338 56.842915 -0.80590278
78.043976 56.000698 -0.45138404
77.949501 56.054512 0
77.962494 56.047112 0.44876513
64 64 -0
70.244804 60.453011 -0.99072355
71.540138 59.717274 -0.96050096
73.654816 58.516159 -0.92555714
76.596466 56.845333 -0.80734396
78.04007 56.025375 -0.45094848
77.95005 56.076508 0
77.935944 56.084518 0.447604
69.238388 61.033012 -0.99253541
70.2229 60.475391 -0.98657191
71.554146 59.721386 -0.96162564
73.656975 58.530357 -0.92512959
76.605095 56.860558 -0.80734396
78.004486 56.067955 -0.44949737
77.936951 56.106205 0
77.940979 56.103924 0.44745901
64 64 -0
70.214043 60.490318 -0.98449475
71.546043 59.738007 -0.95993865
73.663574 58.542027 -0.92512959
76.618217 56.873253 -0.80763197
78.009537 56.087433 -0.44935238
77.923828 56.135845 0
77.950508 56.120773 0.44745901
64 64 -0
70.218285 60.497829 -0.98449475
71.564461 59.739655 -0.96162564
73.661209 58.558754 -0.92427284
76.613312 56.896111 -0.80676788
78.010025 56.109474 -0.44906181
77.928787 56.155228 0
77.923798 56.158039 0.44629788
69.167229 61.098007 -0.9770534
70.244377 60.493061 -0.98795485
71.574043 59.7463 -0.96219015
73.672249 58.567917 -0.92470038
76.621887 56.911358 -0.80676788
78.001427 56.136585 -0.44848126
77.920105 56.182259 0
77.92421 56.179955 0.44600788
64 64 -0
70.257378 60.495701 -0.98934054
71.570305 59.760426 -0.96106333
73.683296 58.577095 -0.92512959
76.648491 56.916504 -0.80792105
78.006386 56.156048 -0.44833624
77.920464 56.204166 0
77.915512 56.20694 0.44542733
64 64 -0
70.239708 60.515495 -0.98588037
71.615349 59.74728 -0.96612877
73.68087 58.593811 -0.92427284
76.652512 56.934322 -0.80763197
78.015854 56.172977 -0.44833624
77.925316 56.223537 0
77.924911 56.223763 0.44542733
64 64 -0
70.235138 60.527924 -0.98449475
71.602722 59.766373 -0.9638772
73.687393 58.605511 -0.92427284
76.661041 56.949615 -0.80763197
78.011688 56.197495 -0.44790125
77.939262 56.237827 0
77.934303 56.240593 0.44542733
64 64 -0
70.270035 60.518406 -0.98934054
71.598953 59.780491 -0.96275252
73.680435 58.624699 -0.92298853
76.678604 56.959892 -0.80820912
78.007477 56.222004 -0.44746569
77.925865 56.267319 0
77.930031 56.265007 0.44499177
70.252296 60.538136 -0.98588037
71.595146 59.794605 -0.96162564
73.68692 58.636398 -0.92298853
76.668999 56.985237 -0.80705595
78.00322 56.24649 -0.44703013
77.944313 56.279102 0
77.930267 56.28688 0.44470122
70.271729 60.542213 -0.98795485
71.60276 59.808376 -0.96162564
73.696625 58.653965 -0.92298853
76.699814 56.998222 -0.80820912
77.994499 56.284424 -0.44630459
77.930931 56.319473 0
77.935127 56.317158 0.44441122
64 64 -0
70.271507 60.552208 -0.98726338
71.61673 59.812668 -0.96275252
73.698586 58.668159 -0.92256099
76.717323 57.008595 -0.80878514
78.003815 56.301338 -0.44630459
77.931084 56.34132 0
77.917084 56.349018 0.44354066
64 64 -0
70.266876 60.56461 -0.98588037
71.617332 59.824314 -0.96219015
73.700523 58.682346 -0.92213339
76.703087 57.036396 -0.80734396
77.999428 56.325764 -0.44586903
77.912949 56.373169 0
77.903519 56.378338 0.44281453
70.315048 60.548122 -0.99280065
71.640213 59.823769 -0.96444172
73.715942 58.689152 -0.92298853
76.706955 57.05423 -0.80705595
78.00869 56.342686 -0.44586903
77.922157 56.389984 0
77.908165 56.397633 0.44266954
64 64 -0
70.314812 60.558155 -0.99210918
71.640778 59.835445 -0.9638772
73.722351 58.700893 -0.92298853
76.724411 57.06464 -0.80763197
78.013374 56.362103 -0.44572401
77.931343 56.406811 0
77.912781 56.416927 0.44252455
69.315628 61.111076 -0.99742675
70.31456 60.56818 -0.99141771
71.650284 59.842247 -0.96444172
73.715225 58.719994 -0.92170584
76.737343 57.077545 -0.80792105
78.004326 56.388966 -0.44514346
77.931351 56.428627 0
77.908234 56.441193 0.44208899
69.288689 61.133991 -0.99172121
70.274582 60.599724 -0.98449475
71.650818 59.85392 -0.9638772
73.730621 58.726849 -0.92256099
76.718399 57.107731 -0.80619079
77.999802 56.413322 -0.4447079
77.926758 56.452908 0
77.926498 56.453045 0.44237953
70.291931 60.600147 -0.98657191
71.660309 59.860748 -0.96444172
73.727959 58.743488 -0.92170584
76.713058 57.130486 -0.80532563
77.995255 56.437649 -0.44427291
77.935867 56.469742 0
77.91732 56.479759 0.44179899
70.282776 60.614895 -0.98449475
71.660812 59.872421 -0.9638772
73.743332 58.750378 -0.92256099
76.739571 57.136036 -0.8064788
77.999794 56.457039 -0.44412735
77.931221 56.493984 0
77.921829 56.499046 0.441654
69.264206 61.171894 -0.98520148
70.335487 60.596367 -0.99210918
71.67923 59.874466 -0.9655664
73.749672 58.762157 -0.92256099
76.729622 57.161228 -0.80532563
78.004326 56.476418 -0.44398236
77.940285 56.510822 0
77.921715 56.520798 0.44136342
70.326324 60.611134 -0.99003202
71.657341 59.89814 -0.96219015
73.746948 58.778786 -0.92170584
76.728767 57.181496 -0.80474961
77.995079 56.503159 -0.44340178
77.935555 56.535049 0
77.907845 56.549889 0.44063786
69.332062 61.152023 -0.99660945
70.361397 60.602234 -0.99487782
71.71608 59.878666 -0.96894479
73.75325 58.790565 -0.92170584
76.746117 57.192009 -0.80532563
78.013306 56.515175 -0.44369236
77.926193 56.561699 0
77.898499 56.576492 0.44005731
69.270065 61.193317 -0.98438734
70.347786 60.619354 -0.99210918
71.680672 59.909496 -0.9638772
73.773125 58.79512 -0.92298853
76.736084 57.217133 -0.80417353
78.013153 56.537003 -0.44340178
77.912209 56.590763 0
77.907455 56.593292 0.44005731
70.329712 60.63879 -0.98864901
71.703568 59.909248 -0.96612877
73.756737 58.81897 -0.92084908
76.735123 57.237385 -0.80359644
78.008392 56.561253 -0.44296622
77.925743 56.605141 0
77.911812 56.612537 0.43991232
69.285561 61.201439 -0.98601568
70.333771 60.646442 -0.98864901
71.704018 59.920933 -0.9655664
73.772072 58.825954 -0.92170584
76.747856 57.250359 -0.80388445
78.008194 56.583046 -0.44267625
77.934669 56.621971 0
77.911537 56.63422 0.43962175
70.373314 60.635357 -0.99418634
71.699959 59.934986 -0.96444172
73.77832 58.837765 -0.92170584
76.746857 57.270592 -0.80330843
78.01255 56.602402 -0.44253123
77.925163 56.648537 0
77.897453 56.663166 0.43889618
69.283569 61.218822 -0.98438734
70.350723 60.657089 -0.99003202
71.722855 59.934826 -0.96669322
73.784546 58.849586 -0.92170584
76.750412 57.288406 -0.80302036
77.998489 56.631439 -0.44180566
77.934036 56.665367 0
77.897118 56.684799 0.4386062
70.323677 60.68108 -0.9851889
71.736748 59.939442 -0.96781796
73.790764 58.861412 -0.92170584
76.763084 57.301414 -0.80330843
78.002769 56.65078 -0.44166011
77.933678 56.687042 0
77.901329 56.704018 0.43846065
69.363029 61.189396 -0.99824095
70.356773 60.668606 -0.99003202
71.734703 59.946472 -0.96725559
73.766571 58.88163 -0.91913724
76.75338 57.316334 -0.80244327
77.988792 56.668892 -0.44107956
77.919655 56.705124 0
77.896538 56.717239 0.43817064
69.318222 61.221062 -0.98927552
70.351913 60.680931 -0.98864901
71.726082 59.962883 -0.9655664
73.763657 58.898186 -0.91828209
76.788963 57.317371 -0.80417353
77.988441 56.690605 -0.44078955
77.923828 56.724369 0
77.905327 56.734035 0.43817064
69.330353 61.222919 -0.99090701
70.369255 60.68166 -0.99072355
71.730949 59.972221 -0.9655664
73.769814 58.909988 -0.91828209
76.778679 57.342388 -0.80302036
77.997261 56.707516 -0.44078955
77.914162 56.750809 0
77.89566 56.760448 0.43759009
70.37326 60.689358 -0.99072355
71.758362 59.969856 -0.96838027
73.785065 58.917068 -0.91913724
76.832611 57.333992 -0.80590278
77.983009 56.736408 -0.44006401
77.918282 56.770031 0
77.885956 56.786827 0.43700951
69.350204 61.228996 -0.99334955
70.403992 60.683212 -0.99487782
71.767746 59.976891 -0.96894479
73.795753 58.926537 -0.91956478
76.836067 57.351879 -0.80561471
77.991776 56.753311 -0.44006401
77.913155 56.794029 0
77.880806 56.810783 0.43657395
70.3545 60.718578 -0.98657191
71.763565 59.990944 -0.96781796
73.792755 58.943081 -0.9187097
76.834892 57.372147 -0.80503762
77.99128 56.774994 -0.43977344
77.907974 56.818012 0
77.903343 56.820404 0.43700951
69.378876 61.230614 -0.99742675
70.367371 60.721668 -0.98795485
71.768402 60.000328 -0.96781796
73.803421 58.952572 -0.91913724
76.833702 57.392391 -0.80446154
77.990768 56.796661 -0.43948343
77.916641 56.834824 0
77.893524 56.846725 0.43642896
69.32505 61.266457 -0.98683298
70.442749 60.692703 -0.99902946
71.78228 60.005074 -0.96894479
73.809517 58.96442 -0.91913724
76.832458 57.412632 -0.80388445
77.990204 56.818321 -0.43919289
77.916016 56.856403 0
77.892921 56.868259 0.43613896
69.345932 61.263893 -0.99008971
70.38868 60.730206 -0.99003202
71.791618 60.012165 -0.9695071
73.81559 58.976276 -0.91913724
76.849632 57.423424 -0.80446154
77.980362 56.8447 -0.43861234
77.920013 56.875591 0
77.883026 56.894524 0.43555841
69.388878 61.25013 -0.99742675
70.383698 60.742485 -0.98864901
71.823586 60.007729 -0.97288334
73.835381 58.981136 -0.92042154
76.82991 57.453068 -0.80273128
77.979752 56.866318 -0.43832234
77.933243 56.890053 0
77.891602 56.911301 0.43555841
69.295258 61.305958 -0.97949594
70.383141 60.752483 -0.98795485
71.8284 60.017185 -0.97288334
73.827705 59.000011 -0.91913724
76.860878 57.456841 -0.80417353
77.983734 56.885571 -0.43817732
77.913994 56.921051 0
77.886253 56.935165 0.43512285
69.364639 61.278812 -0.99172121
70.404961 60.751118 -0.99072355
71.82415 60.031242 -0.97175866
73.824585 59.016533 -0.91828209
76.854935 57.479408 -0.80330843
77.973778 56.911877 -0.43759677
77.922539 56.937866 0
77.890152 56.954296 0.43497786
70.462608 60.731686 -0.99902946
71.865219 60.02235 -0.97626173
73.830605 59.028404 -0.91828209
76.867416 57.492611 -0.80359644
77.968414 56.935802 -0.43716121
77.912483 56.964092 0
77.889374 56.97578 0.43468729
69.38002 61.287338 -0.99334955
70.466553 60.739498 -0.99902946
71.883621 60.025002 -0.97794878
73.836601 59.040287 -0.91828209
76.842926 57.524467 -0.8015781
77.981583 56.950348 -0.43730623
77.920975 56.980907 0
77.89785 56.992569 0.43468729
69.414215 61.278297 -0.99905515
70.407738 60.778862 -0.98934054
71.879349 60.039089 -0.9768241
73.838005 59.054482 -0.91785455
76.832253 57.549286 -0.80042493
77.990089 56.967247 -0.43730623
77.920151 57.002403 0
77.901665 57.0117 0.4345423
69.333549 61.32692 -0.98357314
70.37574 60.804588 -0.98380321
71.897758 60.041779 -0.9785133
73.880676 59.047977 -0.92127663
76.784561 57.592598 -0.79696649
78.00322 56.981831 -0.43745121
77.928596 57.01923 0
77.886871 57.040142 0.43381673
69.420776 61.291389 -0.99905515
70.406517 60.798843 -0.98795485
71.89798 60.053604 -0.97794878
73.882065 59.06221 -0.92084908
76.68586 57.661236 -0.79033554
77.997757 57.005718 -0.43701622
77.932358 57.038399 0
77.727913 57.140549 0.4285917
69.415207 61.302345 -0.99742675
70.419373 60.802109 -0.98934054
71.925499 60.051811 -0.98076481
73.888023 59.074158 -0.92084908
76.647217 57.699631 -0.78745317
77.968979 57.041176 -0.43585509
77.875542 57.087727 0
77.457108 57.296169 0.41988391
70.443764 60.794815 -0.99280065
71.941521 60.04982 -0.98245186
73.895592 59.077847 -0.92127663
76.618591 57.7234 -0.78543484
77.749855 57.160702 -0.42888895
77.572144 57.2491 0
77.363449 57.352905 0.41683611
69.402374 61.32095 -0.99416691
70.438644 60.80706 -0.99141771
71.928078 60.068447 -0.98020029
73.901527 59.089806 -0.92127663
76.626167 57.738651 -0.78543484
77.511353 57.29969 -0.4211967
77.42643 57.341801 0
77.348198 57.3806 0.41611055
70.429001 60.821514 -0.98934054
71.94194 60.073521 -0.98132718
73.912071 59.099495 -0.92170584
76.610542 57.765373 -0.78399366
77.430939 57.359772 -0.41843948
77.369133 57.390331 0
77.342201 57.403645 0.41567498
70.500336 60.796017 -0.99972099
71.955788 60.078632 -0.98245186
73.908768 59.116016 -0.92084908
76.59024 57.794334 -0.78226441
77.420303 57.385197 -0.41785893
77.367783 57.411087 0
77.336174 57.426666 0.41523942
69.403168 61.344917 -0.99253541
70.481689 60.814938 -0.99626082
71.960518 60.088249 -0.98245186
73.937698 59.116676 -0.92298853
76.579155 57.818676 -0.78111124
77.418953 57.406006 -0.41756836
77.36171 57.434132 0
77.32547 57.451942 0.41465944
70.449486 60.840431 -0.99072355
71.98349 60.088928 -0.98470342
73.93898 59.130943 -0.92256099
76.558731 57.847542 -0.77938098
77.408241 57.43137 -0.41698781
77.350937 57.459442 0
77.338036 57.465763 0.41480443
70.49839 60.826202 -0.99764645
71.97451 60.10527 -0.98301423
73.958702 59.136192 -0.92384529
76.552208 57.86953 -0.77851582
77.402153 57.454422 -0.41655225
77.349487 57.480141 0
77.322578 57.493286 0.41407889
69.426094 61.358025 -0.99498105
70.412003 60.877987 -0.98380321
71.97921 60.114906 -0.98301423
73.941498 59.159466 -0.92170584
76.550316 57.889229 -0.7779398
77.424072 57.463791 -0.41698781
77.357353 57.496277 0
77.330429 57.509388 0.41407889
69.455956 61.351635 -0.99986929
70.429314 60.879162 -0.98588037
71.99305 60.12011 -0.98414105
73.965813 59.162514 -0.92341775
76.566986 57.899883 -0.77851582
77.403923 57.493629 -0.41611725
77.360512 57.514702 0
77.328903 57.530045 0.41378832
69.428017 61.373299 -0.99416691
70.455658 60.876007 -0.98934054
72.002304 60.12756 -0.98470342
73.967018 59.176804 -0.92298853
76.485893 57.957878 -0.7730391
77.38839 57.521149 -0.41539168
77.368332 57.530849 0
77.327362 57.550678 0.41349831
69.453445 61.369122 -0.99824095
70.495583 60.866367 -0.99487782
71.997833 60.141644 -0.98357868
73.991333 59.179924 -0.92470038
76.274216 58.078606 -0.75949019
77.400879 57.535072 -0.41553667
77.352707 57.558315 0
77.330452 57.56905 0.41335276
69.438797 61.384281 -0.99498105
70.521965 60.863346 -0.99833798
71.993317 60.15572 -0.98245186
73.992531 59.194225 -0.92427284
76.029633 58.214508 -0.74392295
77.404007 57.55352 -0.41539168
77.365189 57.572189 0
77.342911 57.582905 0.41349831
70.453362 60.905937 -0.98726338
71.993378 60.167576 -0.98188949
74.007599 59.201859 -0.92512959
75.93866 58.276009 -0.73786908
77.411781 57.569721 -0.41539168
77.368233 57.590599 0
77.350655 57.59903 0.41349831
70.506897 60.889935 -0.99487782
71.988846 60.181614 -0.98076481
74.036545 59.202888 -0.92726904
75.903572 58.310513 -0.73527473
77.410156 57.590416 -0.41510114
77.371277 57.609001 0
77.334923 57.626377 0.41277221
70.506126 60.899956 -0.99418634
72.007202 60.184719 -0.98245186
74.056221 59.208397 -0.92855167
75.891754 58.333801 -0.73412156
77.399124 57.615566 -0.41452056
77.364891 57.631882 0
77.328552 57.649197 0.41233721
69.446915 61.412716 -0.99416691
72.025581 60.187855 -0.98414105
74.066658 59.218346 -0.92898089
75.884575 58.354836 -0.7332564
77.420921 57.625072 -0.41495612
77.358482 57.654728 0
77.345596 57.660851 0.41262719
69.458969 61.415073 -0.99579525
70.527191 60.909248 -0.99626082
72.007217 60.208427 -0.98132718
74.11882 59.208542 -0.93325973
75.900742 58.364769 -0.73383355
77.41452 57.647968 -0.41452056
77.35672 57.675331 0
77.339165 57.683647 0.4121922
70.519989 60.91748 -0.99487782
72.009514 60.213264 -0.98132718
74.158844 59.197102 -0.93668348
75.876076 58.385227 -0.73210323
77.423042 57.653854 -0.41466558
77.351143 57.687847 0
77.32888 57.698372 0.41175663
69.463638 61.424973 -0.99579525
70.487404 60.942471 -0.98934054
72.027855 60.21645 -0.98301423
74.178581 59.202812 -0.93796778
75.887543 58.397369 -0.73239231
77.407204 57.681152 -0.41394001
77.358757 57.703987 0
77.32238 57.72113 0.41132107
70.491089 60.950314 -0.98934054
72.014046 60.234791 -0.98076481
74.212242 59.202019 -0.94053477
75.866203 58.424942 -0.73066205
77.400711 57.703987 -0.41350445
77.361633 57.722351 0
77.334656 57.735023 0.41146609
69.420616 61.461239 -0.98683298
70.517487 60.947521 -0.99280065
72.069199 60.220772 -0.98695493
74.227341 59.210003 -0.94139153
75.868256 58.441475 -0.73037404
77.389503 57.728996 -0.41292444
77.359787 57.742912 0
77.323387 57.75996 0.41088554
70.507523 60.961769 -0.99072355
72.059937 60.236977 -0.98526573
74.251709 59.213684 -0.94310176
75.851532 58.466759 -0.72893286
77.392349 57.747383 -0.41277888
77.36734 57.75906 0
77.316803 57.78265 0.41045052
69.480499 61.449326 -0.99660945
70.538498 60.956924 -0.99487782
72.055275 60.251003 -0.98414105
74.2668 59.221737 -0.94395852
75.853523 58.483265 -0.72864479
77.385773 57.770142 -0.41234389
77.36544 57.779602 0
77.333725 57.794365 0.41074052
70.519417 60.975384 -0.99141771
72.064407 60.258602 -0.98470342
74.272568 59.234146 -0.94395852
75.855469 58.499775 -0.72835571
77.398003 57.784134 -0.41248891
77.363495 57.800144 0
77.317642 57.821415 0.41001496
69.500114 61.456352 -0.99905515
70.518494 60.985374 -0.99072355
72.101212 60.253414 -0.98864412
74.287628 59.242256 -0.94481361
75.85273 58.51844 -0.72777969
77.405502 57.800327 -0.41248891
77.337906 57.831589 0
77.315659 57.841877 0.40972441
70.572266 60.970146 -0.99833798
72.10112 60.265331 -0.98808181
74.29805 59.252533 -0.94524282
75.868729 58.528442 -0.72835571
77.398819 57.823059 -0.41205335
77.335899 57.852066 0
77.32309 57.857971 0.40972441
69.470314 61.48616 -0.99253541
70.484734 61.019993 -0.98449475
72.096382 60.279373 -0.98695493
74.313095 59.260696 -0.94609791
75.884743 58.53846 -0.72893286
77.410988 57.837086 -0.41219833
77.338593 57.870354 0
77.306892 57.884922 0.40899885
69.503357 61.487064 -0.99742675
70.528427 61.018997 -0.99003202
72.133095 60.286278 -0.99033332
74.33387 59.281364 -0.94695467
75.86496 58.582241 -0.72691453
77.402214 57.880302 -0.41147277
77.367561 57.896126 0
77.312187 57.92141 0.40870887
69.501877 61.49577 -0.99660945
70.527466 61.028965 -0.98934054
72.132935 60.298222 -0.9897688
74.334877 59.29599 -0.94652551
75.852669 58.605152 -0.72576135
77.400146 57.900803 -0.41118279
77.360725 57.918747 0
77.314796 57.939651 0.40856385
70.540184 61.032715 -0.99072355
72.146667 60.303848 -0.99089569
74.321854 59.316963 -0.94481361
75.840332 58.628029 -0.72460818
77.407509 57.917 -0.41118279
77.349106 57.943497 0
77.312637 57.960045 0.40827331
69.494415 61.515179 -0.99416691
70.548347 61.038544 -0.99141771
72.109459 60.332539 -0.98583025
74.332199 59.327316 -0.94524282
75.85154 58.640202 -0.72489727
77.405365 57.937492 -0.41089222
77.356415 57.959633 0
77.319923 57.976131 0.40827331
69.524445 61.509636 -0.99905515
70.538193 61.052647 -0.98934054
72.118515 60.340252 -0.98639262
74.337837 59.339806 -0.94524282
75.858009 58.654526 -0.72489727
77.412682 57.953693 -0.41089222
77.349464 57.982193 0
77.317726 57.996498 0.4079833
70.592094 61.037926 -0.99695498
72.109024 60.356316 -0.98470342
74.329407 59.358616 -0.94395852
75.859726 58.670982 -0.72460818
77.401016 57.978424 -0.41031167
77.347237 58.00259 0
77.306007 58.021114 0.40740275
70.563614 61.060253 -0.99210918
72.136604 60.355732 -0.9875173
74.358429 59.360607 -0.94609791
75.861443 58.687431 -0.72432017
77.403542 57.996746 -0.41016665
77.349709 58.020855 0
77.317963 58.035076 0.40754774
70.533318 61.078556 -0.98726338
72.143456 60.35857 -0.98808181
74.361229 59.366867 -0.94609791
75.86937 58.69249 -0.72460818
77.39769 58.009083 -0.40987667
77.358086 58.026791 0
77.307327 58.049488 0.40711218
69.503319 61.547108 -0.99334955
70.518517 61.094624 -0.98449475
72.14785 60.368412 -0.98808181
74.390259 59.368942 -0.94823736
75.875771 58.706833 -0.72460818
77.404922 58.025276 -0.40987667
77.327263 58.059887 0
77.309769 58.067688 0.40696719
69.483696 61.563793 -0.98927552
70.540359 61.094353 -0.98726338
72.142937 60.382389 -0.98695493
74.405243 59.377327 -0.94909412
75.882156 58.721188 -0.72460818
77.393127 58.049915 -0.4092961
77.343933 58.071774 0
77.307434 58.08799 0.40667719
69.473083 61.57642 -0.98683298
70.603508 61.075851 -0.99626082
72.124069 60.402515 -0.98414105
74.396736 59.396141 -0.94780982
75.874352 58.741825 -0.72374409
77.386047 58.072418 -0.40886053
77.355843 58.085796 0
77.305054 58.108284 0.40638661
69.512169 61.567074 -0.99334955
70.584084 61.09396 -0.99280065
72.156296 60.400028 -0.9875173
74.40229 59.408707 -0.94780982
75.866493 58.762444 -0.72287899
77.393204 58.088596 -0.40886053
77.334412 58.114544 0
77.302666 58.128559 0.40609664
69.506065 61.577713 -0.99172121
70.564636 61.112019 -0.98934054
72.151344 60.413975 -0.98639262
74.407829 59.42128 -0.94780982
75.872818 58.776787 -0.72287899
77.395584 58.106876 -0.40871555
77.351036 58.126472 0
77.309753 58.144638 0.40609664
69.486359 61.594292 -0.98764718
70.572708 61.117939 -0.99003202
72.15567 60.423828 -0.98639262
74.422768 59.429733 -0.94866657
75.864899 58.797371 -0.72201383
77.393166 58.127243 -0.408425
77.353363 58.144699 0
77.326324 58.156555 0.40638661
69.520958 61.58707 -0.99334955
70.640541 61.097755 -0.99972099
72.146011 60.439789 -0.98470342
74.442383 59.436165 -0.9499492
75.875916 58.809643 -0.72230184
77.37645 58.153835 -0.40769944
77.355659 58.162918 0
77.319084 58.178905 0.40595105
69.551064 61.581894 -0.99824095
70.611862 61.119804 -0.99487782
72.154968 60.447609 -0.98526573
74.447891 59.448788 -0.9499492
75.877441 58.826057 -0.72201383
77.407318 58.159626 -0.408425
77.34362 58.187378 0
77.307053 58.203304 0.4053705
70.596924 61.135788 -0.99210918
72.163925 60.455437 -0.98583025
74.453377 59.461414 -0.9499492
75.859962 58.850716 -0.72057265
77.404846 58.179966 -0.408135
77.345863 58.205574 0
77.30928 58.221455 0.40522552
69.525131 61.609062 -0.99253541
70.60038 61.143761 -0.99210918
72.172867 60.463287 -0.98639262
74.458855 59.474049 -0.9499492
75.889908 58.854778 -0.72201383
77.407082 58.198238 -0.40798944
77.343292 58.225842 0
77.321022 58.235481 0.4053705
69.546173 61.60791 -0.99579525
70.576172 61.163666 -0.98795485
72.181793 60.471153 -0.98695493
74.464317 59.486691 -0.9499492
75.877113 58.877342 -0.72086066
77.414085 58.214443 -0.40798944
77.350258 58.24197 0
77.337532 58.247459 0.40566108
69.52636 61.624371 -0.99172121
70.634911 61.147835 -0.99626082
72.162712 60.491074 -0.98414105
74.455627 59.505413 -0.94866657
75.883301 58.891697 -0.72086066
77.435394 58.224495 -0.408425
77.362 58.256042 0
77.387436 58.24511 0.40696719
69.561035 61.61742 -0.99742675
70.5784 61.181538 -0.98726338
72.166946 60.500942 -0.98414105
74.465767 59.516029 -0.94909412
75.889458 58.906059 -0.72086066
77.437592 58.242779 -0.40827999
77.392845 58.261948 0
77.432594 58.244919 0.40812829
69.55481 61.628029 -0.99579525
70.604874 61.179638 -0.99072355
72.180504 60.506824 -0.98526573
74.471176 59.528679 -0.94909412
75.890854 58.922459 -0.72057265
77.482773 58.242691 -0.40944111
77.433266 58.263832 0
77.463432 58.25095 0.40885386
70.635986 61.175831 -0.99487782
72.166016 60.52467 -0.98301423
74.462395 59.547371 -0.94780982
75.877945 58.944935 -0.71941948
77.527969 58.242706 -0.41060221
77.483284 58.261723 0
77.499054 58.255016 0.40972441
69.565071 61.63953 -0.99660945
70.639389 61.183849 -0.99487782
72.179573 60.530567 -0.98414105
74.453583 59.566032 -0.94652551
75.893555 58.955254 -0.7199955
77.563614 58.246883 -0.41147277
77.542923 58.255661 0
77.52034 58.26524 0.41015998
69.526947 61.663578 -0.98927552
70.642792 61.191875 -0.99487782
72.179085 60.542431 -0.98357868
74.454208 59.580662 -0.94609791
75.885361 58.975666 -0.71913147
77.594482 58.253162 -0.41219833
77.578629 58.259865 0
77.52726 58.281582 0.41015998
69.482819 61.686134 -0.98112744
70.667595 61.186134 -0.99833798
72.181175 60.547371 -0.98357868
74.466347 59.582981 -0.94695467
75.888397 58.982845 -0.71913147
77.631477 58.247231 -0.41321445
77.591675 58.264027 0
77.492409 58.30592 0.40899885
69.585854 61.6506 -0.99905515
70.64325 61.20586 -0.99418634
72.208755 60.547413 -0.98639262
74.471672 59.595631 -0.94695467
75.908737 58.991203 -0.7199955
77.662361 58.253632 -0.41394001
77.598595 58.280453 0
77.513657 58.316181 0.40943441
69.579575 61.661171 -0.99742675
70.618843 61.225533 -0.99003202
72.189491 60.567154 -0.98357868
74.472237 59.610279 -0.94652551
75.886169 59.017593 -0.71826631
77.683678 58.264118 -0.41437557
77.605499 58.29689 0
77.525299 58.330505 0.40957943
70.649979 61.221924 -0.99418634
72.198318 60.575096 -0.98414105
74.496483 59.615021 -0.94823736
75.882645 59.035942 -0.71769023
77.666626 58.290668 -0.41365001
77.626793 58.307312 0
77.527351 58.348854 0.40943441
69.557823 61.686066 -0.99253541
70.67186 61.222248 -0.99695498
72.21653 60.57914 -0.98583025
74.473343 59.639542 -0.94567037
75.874298 59.056271 -0.71682513
77.66391 58.311184 -0.41335946
77.609642 58.333782 0
77.519768 58.371197 0.40899885
69.58802 61.681412 -0.99742675
70.661301 61.23608 -0.99487782
72.21595 60.591026 -0.98526573
74.492836 59.646294 -0.94695467
75.889816 59.066662 -0.71740115
77.661186 58.33168 -0.41306946
77.635689 58.342258 0
77.531372 58.38554 0.4091444
69.54969 61.70517 -0.99008971
70.664642 61.244133 -0.99487782
72.234154 60.595127 -0.98695493
74.483856 59.664864 -0.94567037
75.871872 59.090912 -0.71595997
77.658409 58.352165 -0.41277888
77.623291 58.366688 0
77.523735 58.407852 0.40870887
69.55246 61.71188 -0.99008971
70.649406 61.259834 -0.99210918
72.228874 60.608948 -0.98583025
74.474838 59.683407 -0.94438607
75.877792 59.105263 -0.71595997
77.660423 58.370651 -0.4126339
77.630089 58.383152 0
77.516068 58.430141 0.40827331
70.629509 61.277401 -0.98864901
72.223557 60.622757 -0.98470342
74.484787 59.694118 -0.94481361
75.888474 59.117653 -0.71624798
77.657608 58.391106 -0.41234389
77.622421 58.40556 0
77.517982 58.448448 0.40812829
69.571701 61.719685 -0.99253541
70.660652 61.274014 -0.99280065
72.218231 60.636543 -0.98357868
74.470978 59.714569 -0.94310176
75.88002 59.137894 -0.71538395
77.659554 58.409588 -0.41219833
77.609901 58.429909 0
77.529488 58.462822 0.40827331
70.649994 61.28775 -0.99072355
72.245819 60.636883 -0.98639262
74.466652 59.731098 -0.94224662
75.876297 59.156162 -0.7148068
77.671127 58.424129 -0.41234389
77.616623 58.446358 0
77.516922 58.487022 0.40769273
69.545151 61.746178 -0.98683298
70.681168 61.284447 -0.99487782
72.24987 60.646847 -0.98639262
74.490829 59.736015 -0.94395852
75.891731 59.166618 -0.71538395
77.663406 58.446522 -0.41190833
77.637787 58.456936 0
77.518761 58.505314 0.40754774
69.589104 61.736179 -0.99416691
70.651886 61.30571 -0.99003202
72.230377 60.666355 -0.98357868
74.486443 59.752552 -0.94310176
75.892761 59.182938 -0.7150948
77.665291 58.464985 -0.41176334
77.615524 58.485146 0
77.515747 58.525558 0.40725717
