# .PCD v0.7 - Point Cloud Data file format
VERSION 0.7
FIELDS x y z
SIZE 4 4 4
TYPE F F F
COUNT 1 1 1
WIDTH 1736
HEIGHT 1
VIEWPOINT 0 0 0 1 0 0 0
POINTS 1736
DATA ascii
60.744781 89.643097 -0.72191006
60.73296 89.48967 -0.7177012
60.697495 89.521782 -0.71871728
64 64 -0
64 64 -0
64 64 -0
59.558868 97.370155 0.94018203
64 64 -0
59.519936 97.354454 0.93989146
60.508465 89.758842 -0.72597396
59.480335 97.343872 0.93974644
60.481567 89.723701 -0.72510284
46.712189 190.39339 0
59.442162 97.322952 0.93931144
60.456173 89.678253 -0.72394174
46.57798 190.23834 0
59.40332 97.307114 0.93902087
60.440914 89.560715 -0.72074896
59.36451 97.291252 0.9387309
60.431717 89.402016 -0.71639508
59.330795 97.239296 0.93742424
60.417068 89.2845 -0.7132023
59.286991 97.259369 0.93815035
60.392403 89.238991 -0.71204114
59.243866 97.274231 0.9387309
60.3671 89.198608 -0.71102506
59.201439 97.283875 0.93916589
60.33815 89.183922 -0.71073502
64 64 0
59.169449 97.221497 0.9375698
60.310738 89.158905 -0.71015447
64 64 0
59.142883 97.123077 0.93495697
60.285664 89.118439 -0.70913839
60.272053 89.21048 0
59.104385 97.106903 0.93466699
60.261444 89.072815 -0.70797724
60.248501 89.15963 0
59.052124 97.183212 0.93698919
60.229607 89.078568 -0.70826781
60.215008 89.175667 0
59.003532 97.233719 0.93858534
64 64 -0
60.203201 89.048309 -0.70754224
60.190052 89.135048 0
58.957928 97.263634 0.93960142
64 64 -0
60.173725 89.038551 -0.70739669
60.164402 89.099541 0
58.9146 97.278061 0.94018203
60.125172 89.052116 -0.70797724
60.123688 89.061691 0
58.834435 97.397186 0.94381034
60.094902 89.047417 -0.70797724
60.076572 89.164993 0
58.730042 97.801682 0.95542097
60.062222 89.058083 -0.70841283
60.052635 89.119095 0
58.651287 98.036575 0.96224207
60.030319 89.063583 -0.70870334
64 64 0
58.599594 98.096809 0.96412879
59.998398 89.069023 -0.70899338
58.552666 98.12619 0.96514487
59.959858 89.115463 -0.71044451
58.504005 98.165756 0.96645099
59.926189 89.131088 -0.71102506
64 64 0
58.461067 98.169342 0.96674097
59.895824 89.126144 -0.71102506
64 64 0
58.423973 98.136978 0.96601546
59.870529 89.090416 -0.71015447
47.814102 162.34457 0
58.385262 98.11483 0.96557987
59.844467 89.059776 -0.70942891
47.681664 162.4071 0
58.350845 98.067001 0.96441877
59.816761 89.039352 -0.70899338
47.558479 162.41298 0
57.050903 105.59478 1.1777629
59.790821 89.008659 -0.70826781
47.440441 162.38791 0
57.040325 105.35062 1.1710868
59.759739 89.008675 -0.70841283
47.320702 162.37296 0
56.995575 105.31145 1.1702162
59.719898 89.059891 -0.71000946
47.205353 162.33221 0
57.321869 103.1003 1.1078093
59.680809 89.105911 -0.71146059
47.758095 158.40839 0
57.26141 103.16902 1.1099865
59.643379 89.141632 -0.71262169
47.648476 158.36307 0
58.096916 98.066116 0.96557987
59.620152 89.095398 -0.71146059
47.531788 158.3586 0
58.059334 98.038483 0.96499932
59.583534 89.125916 -0.71247673
47.413277 158.36429 0
58.011013 98.072227 0.96616042
59.553177 89.12056 -0.71247673
47.297455 158.3544 0
57.975281 98.034271 0.96528989
59.507324 89.202148 -0.71494395
47.179806 158.35464 0
57.948753 97.945107 0.96296763
58.948002 92.14286 -0.79853982
47.061211 158.35986 0
57.957325 97.66156 0.9551304
58.939884 91.993538 -0.79447591
46.951836 158.31372 0
57.925896 97.603104 0.95367926
58.928394 91.864716 -0.79099315
46.840687 158.27769 0
57.8853 97.595749 0.95367926
58.945312 91.582542 -0.78315586
49.20076 144.75684 0
57.570251 99.085999 0.99620277
59.089355 90.705505 -0.75833797
49.149151 144.76324 0
57.549057 99.082108 0.99620277
59.160202 90.142593 -0.74251902
49.055367 144.72476 0
57.500992 99.104958 0.99707389
59.171467 89.90683 -0.7359879
49.859978 139.86633 0
57.454773 99.117508 0.99765444
59.403706 88.496414 -0.69607663
49.746243 139.96684 0
57.408508 99.130005 0.99823499
59.406902 88.31723 -0.6911422
49.653496 139.95468 0
57.360283 99.152649 0.99910557
59.390141 88.2453 -0.68925554
49.53548 140.07535 0
57.331398 99.073135 0.99707389
59.418484 87.938568 -0.68069267
49.416176 140.20093 0
57.527374 97.819672 0.96166152
59.534061 87.182899 -0.6593582
58.755947 91.222137 0
57.495361 97.7659 0.9603554
59.522869 87.090759 -0.65689093
58.752781 91.062492 0
57.459511 97.732513 0.95962983
59.515877 86.978226 -0.65384316
58.881577 90.228584 0
57.42075 97.714371 0.95933932
59.549202 86.661743 -0.64499032
58.905056 89.941483 0
57.382019 97.696213 0.95904928
59.569183 86.416748 -0.63816923
58.888855 89.858711 0
57.346344 97.662704 0.95832372
59.551228 86.365494 -0.63686252
58.877918 89.750443 0
57.29554 97.705597 0.95977485
64 64 -0
59.105263 88.453049 0
57.221157 97.865631 0.96456432
64 64 -0
64 64 0
57.147408 98.020424 0.96920824
59.480507 86.298294 -0.63541144
64 64 0
57.90839 94.054794 0.85644054
59.451485 86.303009 -0.63570195
59.064499 88.200546 0
57.873116 94.042328 0.85629559
59.432899 86.256775 -0.63454086
59.050957 88.11808 0
57.839951 94.019646 0.85586059
59.408112 86.241043 -0.63425028
59.229134 87.107941 0
57.804737 94.00708 0.85571504
59.382298 86.2304 -0.63410532
59.273193 86.755638 0
57.763199 94.025009 0.85644054
59.356503 86.219719 -0.63396031
59.265934 86.653099 0
57.731174 93.997116 0.85586059
59.326454 86.22934 -0.6343953
59.248203 86.601524 0
57.694931 93.989525 0.85586059
59.299595 86.223671 -0.6343953
59.233822 86.53466 0
57.652252 94.012375 0.85673112
59.273827 86.212898 -0.63425028
59.20768 86.523796 0
57.61599 94.004684 0.85673112
59.258236 86.220215 -0.63454086
59.207108 86.459816 0
57.591358 94.031311 0.8576017
59.234665 86.199219 -0.63410532
59.166862 86.515076 0
57.550713 94.043869 0.85818225
59.207844 86.193443 -0.63410532
59.152843 86.448166 0
57.50016 94.102089 0.86006892
59.177723 86.202881 -0.63454086
59.122406 86.457558 0
56.32003 99.360352 1.0105711
59.153118 86.186874 -0.63425028
59.10083 86.426224 0
56.287289 99.305359 1.0092651
59.126312 86.181 -0.63425028
59.080441 86.389778 0
56.244637 99.296013 1.0092651
59.097271 86.185257 -0.63454086
59.043282 86.42955 0
56.191902 99.332283 1.0105711
59.072723 86.169159 -0.63425028
59.024086 86.388 0
56.13456 99.388763 1.0124578
59.044807 86.168259 -0.6343953
58.99931 86.371796 0
56.086136 99.404594 1.0131834
59.016884 86.167336 -0.63454086
58.935753 86.528244 0
56.043362 99.395004 1.0131834
58.990101 86.161301 -0.63454086
58.92001 86.471352 0
56.014351 99.324539 1.0114417
58.962177 86.160294 -0.63468587
58.924015 86.328156 0
56.011993 99.137512 1.0063622
58.93309 86.164307 -0.63497585
58.865719 86.459007 0
58.902817 86.17337 -0.63541144
58.797775 86.630318 0
58.877197 86.16214 -0.63526642
58.800911 86.492172 0
47.362209 135.978 2.0632129
58.823658 86.149689 -0.63526642
58.725254 86.570763 0
47.197777 135.89709 2.0620518
58.792141 86.163658 -0.63584697
58.703938 86.539047 0
56.704853 95.046761 0.89069182
58.770145 86.137115 -0.63526642
58.67551 86.537689 0
56.696018 94.916557 0.887209
58.742199 86.135834 -0.63541144
58.645878 86.541359 0
56.673077 94.847038 0.88546735
58.713039 86.139587 -0.63570195
58.621063 86.524757 0
56.65633 94.752235 0.88300014
58.687511 86.128113 -0.6355564
58.593849 86.518242 0
56.633736 94.682701 0.88125843
58.654678 86.14695 -0.6362825
58.556873 86.55217 0
56.610081 94.618202 0.8796618
58.630371 86.130371 -0.63599199
58.527176 86.555679 0
56.575539 94.599159 0.87937176
58.604866 86.11882 -0.63584697
58.506092 86.523773 0
56.53611 94.60025 0.8796618
58.589039 86.125641 -0.63613695
58.487541 86.540672 0
56.521324 94.580612 0.87922674
58.553623 86.154419 -0.63715309
58.461548 86.528946 0
56.486862 94.561447 0.87893623
58.529354 86.137726 -0.63686252
58.43433 86.52224 0
56.443707 94.577568 0.8796618
58.505112 86.121017 -0.63657254
58.408375 86.510452 0
56.410522 94.553299 0.87922674
58.473351 86.134529 -0.63715309
58.374878 86.528923 0
56.37487 94.539047 0.87908119
58.447872 86.122803 -0.63700807
58.34766 86.52211 0
56.339241 94.52478 0.87893623
58.416061 86.13623 -0.63758862
58.326813 86.490036 0
56.296009 94.540688 0.8796618
58.388042 86.134499 -0.63773364
58.294525 86.503342 0
56.24506 94.586777 0.88125843
58.356167 86.14785 -0.63831419
58.269913 86.486336 0
57.078133 91.163185 0.78285921
58.334568 86.120872 -0.63773364
58.244038 86.474358 0
57.04274 91.164856 0.78314918
58.303955 86.12912 -0.63816923
58.237644 86.386734 0
57.002151 91.186623 0.78401971
58.277222 86.122215 -0.63816923
58.210598 86.379761 0
56.951084 91.248596 0.78605199
58.249187 86.120316 -0.63831419
58.228088 86.201477 0
56.892014 91.340652 0.78895473
58.221153 86.11837 -0.63845921
58.146008 86.405991 0
56.869492 91.291817 0.78779364
58.193111 86.116394 -0.63860422
56.887062 91.090675 0
56.865555 91.172585 0.78460032
58.166393 86.10936 -0.63860422
56.864952 91.041817 0
56.865868 91.038345 0.78097248
58.137016 86.11235 -0.63889474
56.852295 90.957703 0
56.838531 91.009613 0.78039193
58.108967 86.110268 -0.63903975
56.827766 90.918884 0
56.804565 91.005959 0.78053695
58.08091 86.108147 -0.63918477
56.775055 90.985596 0
56.769253 91.007278 0.78082693
58.050152 86.116043 -0.6396203
56.765442 90.891411 0
56.735271 91.003555 0.78097248
58.024788 86.103821 -0.63947535
56.71122 90.963043 0
56.699936 91.004776 0.78126252
57.999443 86.091576 -0.63933033
56.704571 90.858772 0
56.649605 91.061127 0.78314918
57.97139 86.089317 -0.63947535
56.647449 90.940331 0
56.596386 91.127434 0.78532642
57.943329 86.087029 -0.6396203
56.623165 90.901299 0
56.523766 91.263794 0.78953475
57.929985 86.083359 -0.6396203
56.620708 90.846657 0
56.464592 91.414612 0.79403424
57.906071 86.066002 -0.63933033
56.59243 90.822662 0
56.403805 91.505676 0.79693699
57.875248 86.073631 -0.63976532
56.564205 90.798645 0
56.309444 91.716797 0.80332261
57.844395 86.081238 -0.64020085
56.543003 90.74955 0
56.278751 91.697464 0.80303204
57.816315 86.078781 -0.64034587
56.491039 90.810677 0
56.278923 91.568031 0.79954922
57.785419 86.086311 -0.64078146
56.457241 90.806595 0
56.283627 91.423599 0.79563034
57.762978 86.063774 -0.64034587
56.437595 90.75238 0
56.270287 91.344254 0.79359865
57.734905 86.061218 -0.64049089
56.385372 90.813316 0
56.23867 91.329903 0.79345369
57.706825 86.05864 -0.64063644
56.374393 90.729034 0
56.218483 91.275536 0.79214758
57.683041 86.041023 -0.64034587
56.34354 90.714783 0
56.186966 91.261101 0.79200196
57.653534 86.043373 -0.64063644
56.305508 90.725517 0
56.15403 91.25164 0.79200196
57.62402 86.045662 -0.64092642
56.274666 90.711205 0
56.112442 91.272102 0.79287308
57.598835 86.032959 -0.64078146
56.230778 90.741837 0
56.053402 91.352371 0.79548532
64 64 -0
57.567848 86.040176 -0.64121699
56.207218 90.702461 0
56.005795 91.392647 0.79693699
57.545609 86.017426 -0.64078146
56.154465 90.762939 0
55.962471 91.417862 0.79795259
57.511673 86.034531 -0.64150697
56.138306 90.698517 0
55.922012 91.433052 0.7986781
57.486523 86.021698 -0.64136201
56.098663 90.713966 0
55.869709 91.488052 0.80056483
57.462883 86.00383 -0.64107144
56.066391 90.704399 0
55.842422 91.458282 0.79998422
57.431839 86.010864 -0.64150697
56.032646 90.699776 0
55.919205 91.079926 0.78924477
57.403759 86.007881 -0.64165199
56.018322 90.630295 0
56.070004 90.457863 0.7713936
57.377171 85.999901 -0.64165199
57.262917 86.379425 0
56.05901 90.378601 0.76936191
57.346081 86.006805 -0.64208758
57.225342 86.406128 0
56.037674 90.334167 0.76834577
64 64 -0
57.316475 86.00869 -0.64237756
57.205833 86.373032 0
56.011898 90.304634 0.76776522
57.291405 85.995628 -0.64223254
57.180321 86.359833 0
56.008926 90.200516 0.76500744
64 64 -0
57.264832 85.987511 -0.64223254
57.150265 86.361519 0
56.000103 90.116318 0.76283079
57.257648 85.963562 -0.64165199
57.142864 86.337479 0
55.990425 90.091606 0.76225019
64 64 -0
57.232643 85.950439 -0.64150697
57.105145 86.363998 0
55.971153 90.042175 0.76108909
57.210739 85.927345 -0.64107144
57.09198 86.310905 0
55.945843 90.012604 0.76050854
57.18425 85.919128 -0.64107144
57.058846 86.322418 0
55.914417 90.002853 0.76050854
57.156216 85.915848 -0.64121699
57.04274 86.279236 0
55.850471 90.097229 0.7635563
57.097031 85.919075 -0.64179754
56.988922 86.26236 0
55.765579 90.146851 0.76558799
57.070549 85.910721 -0.64179754
56.96516 86.24395 0
55.735558 90.131927 0.76544303
57.042507 85.90728 -0.64194256
56.917809 86.299927 0
54.322922 94.470535 0.89286906
57.014465 85.903801 -0.64208758
56.916172 86.212006 0
54.46611 93.894409 0.876324
56.983246 85.910202 -0.64252311
56.879818 86.233162 0
54.485466 93.709656 0.87124449
56.959961 85.8918 -0.64223254
56.852959 86.224541 0
55.073212 91.758865 0.81435263
56.931919 85.888214 -0.64237756
56.827709 86.210945 0
55.020515 91.807404 0.81609428
56.90387 85.884621 -0.64252311
56.818531 86.147812 0
54.969296 91.850891 0.81769043
56.872612 85.890839 -0.6429581
56.824001 86.040131 0
54.929214 91.859726 0.81827098
56.847778 85.877274 -0.64281309
56.135891 88.054802 0
54.885864 91.878395 0.8191421
56.816486 85.883438 -0.64324868
56.140923 87.941437 0
54.835979 91.916733 0.82059324
56.791672 85.869812 -0.64310366
64 64 0
54.795746 91.925385 0.82117379
56.760361 85.87587 -0.64353865
64 64 0
54.757111 91.929047 0.82160932
56.727379 85.886833 -0.6441192
56.676208 86.040825 0
54.723373 91.917854 0.82160932
56.704224 85.868179 -0.64382923
56.657818 86.007278 0
54.706097 91.857315 0.82015765
56.669552 85.883987 -0.64455479
56.598167 86.097099 0
54.672443 91.846069 0.82015765
56.646427 85.865265 -0.64426476
56.554882 86.137466 0
54.643768 91.820015 0.81972265
56.62001 85.856369 -0.64426476
56.504829 86.197479 0
54.598526 91.84314 0.8207382
56.600151 85.871574 -0.64484477
56.503094 86.158447 0
54.566719 91.88176 0.82204431
56.575401 85.857704 -0.64469981
56.464611 86.183861 0
54.516319 91.919556 0.82349598
56.543961 85.86348 -0.64513534
56.447887 86.145195 0
54.420525 92.090065 0.828866
56.51923 85.849541 -0.64499032
56.431255 86.106491 0
54.223312 92.555367 0.84294385
56.482704 85.869965 -0.64586091
56.394394 86.126877 0
54.146591 92.666374 0.84657162
56.45459 85.865768 -0.64600593
56.359177 86.142265 0
54.106873 92.669189 0.84700722
56.421368 85.876282 -0.64658648
56.308578 86.201866 0
54.080746 92.632668 0.84628165
56.37104 85.935837 -0.6486187
49.67041 105.2024 0
54.035915 92.650101 0.84715217
56.32056 85.995285 -0.65065038
49.600048 105.24403 0
53.900238 92.927505 0.85571504
56.28883 86.000702 -0.65108591
49.563995 105.1873 0
53.595432 93.685226 0.87850064
56.265705 85.98156 -0.65079534
49.521149 105.15018 0
53.90625 92.687332 0.84932941
56.22876 86.00161 -0.65166646
49.478374 105.11303 0
53.914864 92.55262 0.8457011
56.205658 85.982399 -0.65137595
49.426968 105.10036 0
53.901215 92.481636 0.84395939
56.201756 85.909317 -0.64948922
49.377319 105.08272 0
53.865067 92.474304 0.84410441
56.170044 85.914566 -0.64992481
49.322433 105.07973 0
53.832413 92.457146 0.84395939
54.078659 91.662415 -0.82074493
49.260506 105.09626 0
53.787506 92.474197 0.84483051
54.064598 91.596634 -0.81914878
49.205574 105.09309 0
53.737267 92.505844 0.84613663
54.024204 91.604141 -0.81972879
49.143547 105.10947 0
53.683403 92.547165 0.84773278
53.987309 91.601852 -0.82001936
49.108086 105.05234 0
53.650688 92.5298 0.84758776
53.950413 91.599487 -0.82030934
49.090546 104.94629 0
53.634003 92.468452 0.84613663
53.929554 91.553169 -0.8192938
49.080383 104.8207 0
53.572857 92.529106 0.84831333
49.161934 104.44593 0
53.439953 92.784821 0.85629559
49.623848 103.04089 0
53.320782 93.001228 0.86311668
49.594727 102.97467 0
51.401283 98.086884 1.0149251
49.554886 102.93772 0
51.342033 98.120346 1.0163761
49.495132 102.95439 0
51.280865 98.158607 1.0179728
49.466148 102.96024 0
53.081982 93.267433 0.87240565
49.388058 103.02551 0
53.057564 93.225006 0.87153453
44.765457 115.1831 0
53.035057 93.177704 0.87051839
44.744034 115.05269 0
53.007145 93.144989 0.86993784
44.745014 114.86388 0
51.950836 95.829025 0.95048648
44.7076 114.77733 0
53.516289 91.592987 0.82436657
44.666664 114.70049 0
53.486656 91.570595 0.82407653
49.241318 102.56371 0
53.449638 91.567566 0.82436657
49.20966 102.50697 0
53.405151 91.583923 0.82523769
49.153786 102.51335 0
53.360619 91.600182 0.82610822
49.105377 102.50025 0
53.323524 91.597008 0.82639879
49.045685 102.51617 0
53.286427 91.593765 0.82668877
49.01049 102.46899 0
53.232338 91.634071 0.82828546
44.276432 114.43822 0
53.183811 91.65976 0.82944655
46.075039 109.67592 0
53.140907 91.670853 0.83017212
46.025578 109.63971 0
53.10939 91.652863 0.83002657
45.987663 109.5744 0
53.060703 91.678352 0.83118773
45.938362 109.53809 0
52.561695 92.838943 0.86645508
45.867958 109.55492 0
52.499954 92.892693 0.8684867
45.798584 109.40952 0
52.428234 92.869637 0.86863172
44.871651 111.55559 0
52.414688 92.802612 0.86703563
44.845375 111.45522 0
49.376698 100.22894 1.0911193
44.805634 111.38863 0
49.36805 100.12456 1.0885071
44.766022 111.32201 0
49.418335 99.875763 1.0815403
44.721733 111.34894 0
52.242035 92.878494 0.87080896
44.666504 111.3208 0
52.213047 92.849831 0.87037343
44.613293 111.28776 0
52.193966 92.797096 0.86921227
44.534386 111.31725 0
48.466038 101.76015 1.1403189
44.477226 111.2937 0
48.418442 101.74615 1.1404638
44.396194 111.32778 0
48.390739 101.68408 1.1391578
44.355003 111.26561 0
48.349205 101.65561 1.1388677
64 64 -0
44.275871 111.29466 0
48.297722 101.65105 1.1393027
64 64 -0
44.224762 111.25641 0
48.258251 101.61768 1.1388677
48.411232 101.12606 0
48.19873 101.63216 1.1398833
48.356277 101.1312 0
48.137131 101.65135 1.1410445
48.317505 101.09788 0
48.119972 101.56516 1.1390128
48.297077 101.0214 0
64 64 0
48.229935 101.05508 0
45.68087 107.04465 1.3064951
50.899521 94.679398 0
45.616631 107.05115 1.3073657
51.026718 94.280167 -0.92001528
41.983078 115.38837 0
45.578949 106.99548 1.3063501
64 64 -0
50.912151 94.445892 -0.92553031
41.918949 115.36652 0
45.582428 106.84427 1.3024312
50.839928 94.51223 0
45.477154 106.94607 1.306205
50.912914 94.24247 -0.92030531
50.823746 94.448532 0
46.351944 104.78226 1.2410403
50.983997 93.978767 -0.91275859
50.805618 94.389618 0
46.306812 104.75137 1.2407504
53.925907 87.126358 -0.70449448
50.77306 94.36412 0
46.263813 104.71567 1.2403148
53.858437 87.204636 -0.70725167
50.763477 94.286118 0
46.208382 104.7085 1.2407504
53.859619 87.12574 -0.70522004
50.735252 94.251038 0
46.142513 104.72505 1.2419115
50.862278 93.863182 -0.9111619
50.705002 94.220688 0
46.110062 104.66539 1.2407504
50.855579 93.780731 -0.90913022
50.683208 94.171265 0
46.069328 104.62473 1.2401698
50.856499 93.730011 -0.9078241
50.671291 94.148941 0
45.334576 106.22035 1.2892245
50.847977 93.652359 -0.90593743
50.634872 94.13282 0
45.287792 106.18826 1.2889339
50.824829 93.607964 -0.90506691
50.568848 94.183212 0
45.243164 106.15139 1.2884989
50.761524 93.653709 -0.90695357
50.504807 94.228745 0
45.221909 106.06225 1.2864667
50.704464 93.685112 -0.90840471
50.466164 94.217163 0
45.173218 106.03479 1.2863216
50.672859 93.659554 -0.90811467
50.478725 94.091606 0
46.32584 103.33385 1.2043219
50.622089 93.676575 -0.90913022
46.735565 102.29816 0
46.254829 103.36459 1.2059186
50.596947 93.636719 -0.90840471
49.655403 95.718658 0
46.198715 103.36206 1.2064991
50.569733 93.601578 -0.9078241
49.619244 95.696548 0
49.633713 95.664658 0.97109491
64 64 -0
49.617607 95.598618 0
49.597614 95.642548 0.97094989
54.44397 84.927826 -0.64252311
49.592407 95.552811 0
49.574501 95.592026 0.96993381
54.351601 85.062721 -0.64702201
49.571632 95.497528 0
49.55798 95.527328 0.96848267
54.393425 84.904671 -0.64252311
49.579224 95.380753 0
49.57848 95.382378 0.96456432
54.365997 84.897766 -0.64266813
49.55439 95.334953 0
49.566681 95.308289 0.96282268
54.321125 84.928558 -0.64397424
49.542755 95.260788 0
49.574669 95.19178 0.95977485
54.300213 84.907425 -0.64368421
49.515945 95.219688 0
49.526054 95.197891 0.96050042
54.277157 84.890968 -0.64353865
49.502392 95.150253 0
49.516876 95.119133 0.95861375
54.256313 84.869797 -0.64324868
49.544033 94.962921 0
49.514458 95.026268 0.9562915
54.235516 84.848587 -0.6429581
46.480106 101.4075 0
49.496819 94.966393 0.95498538
54.141823 84.98259 -0.6474576
49.542282 94.772461 0
49.481506 94.901817 0.95353431
54.165215 84.867249 -0.64426476
49.802444 94.124084 0
49.450825 94.870148 0.95309871
54.142235 84.850639 -0.6441192
49.832794 93.965752 0
49.37133 94.941818 0.9558565
54.110367 84.852798 -0.64455479
49.838974 93.859253 0
49.354004 94.881844 0.95454985
54.053925 84.906525 -0.64658648
49.820793 93.80452 0
49.3167 94.86412 0.95454985
50.847027 91.604385 -0.85398
49.802792 93.795944 0
49.365112 94.714508 0.95019591
50.757656 91.705688 -0.85760838
49.74884 93.816338 0
49.410919 94.523338 0.94482648
50.715202 91.708412 -0.85818893
49.658821 93.911743 0
38.203716 117.80392 1.6664226
50.656952 91.743866 -0.85978562
49.652012 93.833412 0
38.143234 117.76334 1.666132
50.609894 91.755798 -0.86065614
49.625023 93.797302 0
38.157314 117.56824 1.6610526
50.574108 91.74427 -0.86080116
49.659306 93.634682 0
48.770103 95.472198 0.97646493
50.549671 91.709328 -0.86022061
49.628059 93.607956 0
48.720741 95.477142 0.97719049
50.53212 91.660362 -0.85920507
49.651535 93.46891 0
48.632671 95.561447 0.98038328
50.562565 91.513313 -0.85514116
49.663902 93.353333 0
48.621906 95.486839 0.97864217
50.638203 91.191605 -0.84614336
49.602192 93.299919 0
48.493153 95.556847 0.98197997
50.67429 91.035599 -0.84178889
49.523075 93.371216 0
48.438946 95.570724 0.98299605
50.692299 90.916992 -0.83859611
49.43224 93.46566 0
49.561573 93.204063 0.90984964
50.705952 90.807793 -0.83569384
49.385086 93.471344 0
49.480129 93.279694 0.91275191
50.689774 90.759132 -0.83467776
49.351803 93.449013 0
49.491043 93.169083 0.90984964
50.701534 90.654671 -0.83191997
49.292992 93.477875 0
49.25629 93.55143 0.9223308
50.694912 90.587479 -0.83032382
49.189842 93.595047 0
49.078739 93.817062 0.93118364
50.695438 90.506348 -0.82829159
49.149418 93.586441 0
48.926159 94.031235 0.93844032
50.735859 90.346359 -0.8237927
49.120705 93.554527 0
48.775375 94.240448 0.94555205
50.741516 90.256096 -0.82147044
49.082661 93.541168 0
48.680286 94.337997 0.94918036
50.745018 90.170525 -0.8192938
49.004639 93.606712 0
48.608425 94.388992 0.95135707
50.718117 90.145218 -0.81900322
48.959446 93.607132 0
48.559952 94.393539 0.95208263
50.712479 90.078224 -0.81740713
48.874062 93.686325 0
48.513798 94.393379 0.95266318
50.697536 90.029755 -0.81639099
48.838203 93.66803 0
48.484173 94.360779 0.95222819
50.680313 89.985924 -0.81552047
48.769131 93.714523 0
48.438019 94.360504 0.95280874
50.702587 89.9039 -0.81319821
48.7393 93.728462 0
48.412567 94.36496 0.95324373
50.680813 89.869331 -0.81261766
49.763596 91.650803 0
48.363995 94.369202 0.9539693
50.651947 89.848602 -0.81247264
49.78273 91.531845 0
48.33923 94.327194 0.95324373
50.632683 89.809372 -0.81174654
48.239075 94.430901 0
49.703094 91.604195 0.86819673
50.603897 89.788589 -0.81160152
48.279095 94.26403 0
49.669754 91.586899 0.86819673
50.548733 89.818481 -0.81305319
49.810486 91.235481 0
51.790199 87.4356 0.73801345
50.467003 89.898933 -0.81610101
49.789635 91.195259 0
51.771519 87.402405 0.7374329
50.339237 90.066666 -0.82190603
49.785778 91.122742 0
51.702244 87.465858 0.73990011
50.184444 90.284737 -0.82930773
49.774811 91.064087 0
51.656979 87.48317 0.74091566
50.026684 90.507065 -0.8368544
49.768822 90.996223 0
51.611649 87.500427 0.7419318
49.902367 90.664734 -0.84236944
49.724041 91.002029 0
51.561401 87.526779 0.74323791
56.823441 77.534386 -0.85375655
49.86042 90.666046 -0.84294999
49.715813 90.938766 0
51.523247 87.530106 0.74381846
56.816807 77.507431 -0.85260338
49.828209 90.648941 -0.84294999
49.710148 90.870949 0
51.49971 87.505821 0.74352789
56.81266 77.475929 -0.8511622
49.798462 90.62722 -0.84280497
51.348141 87.721649 0
51.468864 87.4953 0.7436735
56.801258 77.458115 -0.85058612
49.79081 90.564224 -0.84135389
51.317024 87.710945 0
51.447838 87.466393 0.74323791
56.792339 77.43573 -0.84972095
49.766094 90.533295 -0.8409183
51.310539 87.654312 0
51.414585 87.460358 0.74352789
56.807972 77.367798 -0.84597343
50.765671 88.598587 -0.78010809
49.654419 90.66407 0
51.401016 87.417679 0.74265736
56.762344 77.413727 -0.84943295
50.718681 88.614601 -0.78112417
49.577728 90.729156 0
51.409737 87.333847 0.74048066
56.787994 77.327629 -0.84453225
50.669174 88.635078 -0.78228474
49.669296 90.482834 0
51.428547 87.231773 0.73772287
56.784241 77.296158 -0.84309
50.619587 88.655495 -0.78344589
49.783779 90.195602 0
51.373215 87.266815 0.73931956
56.765697 77.291992 -0.84337908
50.574894 88.666702 -0.78431702
48.995758 91.568146 0
51.312817 87.310875 0.74120623
56.754604 77.274147 -0.84280199
50.535141 88.668716 -0.78489757
48.937523 91.595673 0
51.249809 87.359383 0.74323791
56.753471 77.238167 -0.84107274
50.517815 88.629639 -0.784172
48.871704 91.636803 0
51.189156 87.403221 0.74512458
56.73748 77.229401 -0.84107274
50.503075 88.585983 -0.78330088
48.838322 91.6185 0
51.133373 87.437836 0.74672127
56.738964 77.188889 -0.83905447
50.473377 88.569656 -0.78330088
48.822525 91.56826 0
51.105064 87.422272 0.74672127
56.708523 77.225266 -0.84164882
50.461044 88.556938 -0.78315586
49.800987 89.75415 0
51.070839 87.45089 0.74788237
56.70256 77.198341 -0.84049565
50.446472 88.51326 -0.78228474
49.722023 89.823524 0
51.012348 87.489807 0.74962348
56.676582 77.207611 -0.84164882
50.434498 88.465065 -0.78126919
49.640358 89.897278 0
50.905849 87.614998 0.75412297
56.678223 77.167114 -0.83963156
50.415051 88.430489 -0.78068864
49.558487 89.970886 0
50.743481 87.839859 0.76181465
56.647205 77.185364 -0.84136081
50.38554 88.414055 -0.78068864
49.058159 90.79438 0
50.674187 87.896439 0.76413691
64 64 -0
50.363663 88.38398 -0.78025311
48.954666 90.903488 0
50.617416 87.930222 0.76573354
64 64 -0
54.894417 80.236176 -0.51988655
48.922173 90.885284 0
50.662231 87.782585 0.76152468
64 64 -0
54.890095 80.197975 -0.51901543
49.030022 90.617546 0
50.776154 87.51281 0.75339741
64 64 -0
64 64 -0
49.800716 89.175949 0
50.826897 87.356491 0.74889791
64 64 -0
64 64 -0
49.14254 90.268707 0
50.84729 87.254623 0.74614072
56.480347 77.257698 -0.84943295
64 64 -0
49.128784 90.21904 0
50.839714 87.202545 0.74497956
56.472008 77.235107 -0.84856784
54.927521 79.9505 -0.51248485
49.454803 89.572197 0
50.785995 87.231796 0.7464307
56.466274 77.208023 -0.84741467
54.970051 79.831184 -0.50900149
49.506428 89.409943 0
50.727036 87.269981 0.7481724
56.478577 77.149513 -0.84424317
54.98447 79.76162 -0.50711483
49.413712 89.500839 0
50.652489 87.335114 0.75078464
56.462692 77.140419 -0.84424317
54.978359 79.72818 -0.50638926
49.144669 89.898544 0
50.582932 87.391098 0.75310683
56.436504 77.149239 -0.84539634
54.972313 79.694748 -0.50566369
49.027748 90.029465 0
50.489899 87.487488 0.75673521
56.387024 77.198334 -0.84914386
54.963745 79.665825 -0.50508314
49.004112 89.997818 0
50.238235 87.858261 0.76921636
56.360722 77.207039 -0.85029703
54.937023 79.668373 -0.50551814
54.864853 79.793144 0
50.225021 87.814636 0.76834577
56.347359 77.193329 -0.85000902
54.925911 79.643936 -0.50508314
54.882347 79.719048 0
50.331841 87.564232 0.76079911
56.326218 77.193024 -0.85058612
54.914856 79.619484 -0.50464755
54.839809 79.748512 0
50.342571 87.480309 0.75862187
56.310284 77.183746 -0.85058612
54.901222 79.599525 -0.50435758
54.836517 79.710464 0
50.285408 87.513176 0.76021856
56.302197 77.161041 -0.84972095
54.892876 79.570572 -0.50377703
54.820164 79.694893 0
49.071114 89.524124 0.82581824
56.291538 77.142799 -0.84914386
54.866188 79.572998 -0.50421202
54.801208 79.683784 0
49.053436 89.483635 0.82509214
56.262424 77.119682 -0.84885585
54.786339 79.622498 -0.50653428
54.78978 79.616669 0
49.686188 88.270218 0.78692251
56.246605 77.128372 -0.84972095
54.761051 79.643768 -0.5074048
54.775047 79.620071 0
49.674168 88.257095 0.78677756
56.241291 77.101189 -0.84856784
54.739502 79.637077 -0.50755036
54.753532 79.613388 0
49.666054 88.203995 0.7856164
56.233395 77.078453 -0.84770268
54.712662 79.639267 -0.50798535
54.742645 79.588776 0
49.72438 88.0392 0.78082693
56.204365 77.091278 -0.84914386
54.677811 79.654839 -0.50885648
54.729141 79.568642 0
49.716618 87.986214 0.77966583
56.169987 77.112946 -0.8511622
54.656242 79.648018 -0.50900149
54.683655 79.602112 0
49.663658 88.009109 0.78097248
56.196667 77.032463 -0.84654951
54.634674 79.641174 -0.50914651
54.672821 79.577454 0
49.599953 88.049728 0.78285921
56.143639 77.085121 -0.85058612
54.607754 79.643219 -0.50958204
54.640614 79.588486 0
49.578934 88.018944 0.78242362
56.135841 77.062325 -0.84972095
54.578136 79.649666 -0.51016259
64 64 0
49.55529 87.992584 0.78213304
56.085312 77.110374 -0.85346854
54.556549 79.642715 -0.51030761
54.584148 79.597 0
49.499443 88.019615 0.78358471
56.023937 77.176033 -0.85836923
54.532269 79.64019 -0.51059818
54.541042 79.625702 0
49.325111 88.242142 0.79142201
55.962395 77.241554 -0.86326993
54.521469 79.61541 -0.51016259
54.541077 79.583107 0
49.374027 88.095558 0.78721309
55.949089 77.227417 -0.86298186
54.486401 79.630569 -0.51103318
54.527672 79.562767 0
49.353035 88.064545 0.78677756
55.889992 77.28833 -0.86759454
50.969818 85.350082 -0.69854391
49.801849 87.263817 0
49.348328 88.006912 0.78547144
55.871246 77.282928 -0.86788255
50.900627 85.405251 -0.7008661
49.830803 87.153412 0
49.319332 87.989189 0.78547144
55.82003 77.330414 -0.87163007
50.861187 85.411545 -0.70159167
49.846394 87.065292 0
49.339279 87.891716 0.78285921
55.757851 77.395409 -0.87653077
50.813538 85.431068 -0.70275277
49.862167 86.977264 0
49.375782 87.767754 0.77937585
55.64661 77.539513 -0.88662022
50.801292 85.393005 -0.7020272
49.889072 86.871567 0
49.830036 86.967255 0.75368738
55.578545 77.612999 -0.89209801
50.764515 85.394722 -0.70260781
49.89978 86.792542 0
49.862442 86.852898 0.7504946
55.502121 77.699516 -0.89843988
54.675026 79.032883 -0.4940531
49.891457 86.744522 0
49.8321 86.84021 0.75063962
54.846294 78.717056 -0.96589649
54.692551 78.964241 -0.49216643
49.850243 86.74955 0
49.804512 86.823074 0.75063962
64 64 -0
64 64 -0
54.71022 78.89566 -0.49027976
49.759411 86.834023 0
49.215958 87.705414 0.78024638
64 64 -0
64 64 -0
54.722542 78.835953 -0.48868307
49.599377 87.02861 0
49.154263 87.74041 0.78198808
64 64 -0
54.740509 78.767494 -0.48679641
49.571564 87.011192 0
49.16423 87.660828 0.7799564
54.728466 78.747086 -0.97079718
54.747566 78.716705 -0.48549029
49.585327 86.927643 0
49.135654 87.642883 0.7799564
54.711288 78.754616 -0.97166228
54.7719 78.65834 -0.48374861
49.665756 86.769173 0
49.090927 87.682259 0.78155249
54.70451 78.725883 -0.97050911
54.793026 78.585663 -0.48171693
49.096504 87.610077 0
49.012383 87.74334 0.78416532
54.670132 78.74086 -0.97223836
54.76429 78.592087 -0.48229751
48.856438 87.926285 0
49.022621 87.663727 0.78213304
54.652325 78.729576 -0.97223836
54.760597 78.558968 -0.48157138
48.782913 87.978287 0
49.024662 87.597359 0.78053695
54.623428 78.735733 -0.97339153
54.726269 78.574112 -0.4824425
48.851746 87.806198 0
49.035225 87.517853 0.77850473
54.594498 78.741837 -0.9745447
54.700275 78.576042 -0.48287806
48.912579 87.647461 0
49.004013 87.50415 0.77865028
54.568329 78.74353 -0.97540981
54.671478 78.582291 -0.48345804
48.673656 87.958046 0
48.995232 87.455368 0.77763414
54.53656 78.753891 -0.97685099
54.679115 78.531639 -0.48215193
48.540745 88.101608 0
50.549294 84.9702 0.69577998
54.518738 78.742447 -0.97685099
54.644691 78.5466 -0.48302305
48.520084 88.069778 0
50.501476 84.988899 0.69694108
54.486916 78.752716 -0.97829223
54.607414 78.565849 -0.48403862
49.963371 85.767746 0
50.493027 84.946365 0.69606996
54.46067 78.754242 -0.97915733
54.612385 78.519592 -0.48287806
49.934254 85.755142 0
50.431049 84.986755 0.69795662
54.431595 78.760071 -0.9803105
54.60899 78.48642 -0.48215193
49.922134 85.716293 0
49.012096 87.120102 0.76950693
54.425041 78.731148 -0.97915733
54.580166 78.492493 -0.4827325
49.915764 85.668716 0
50.357716 84.988762 0.69911772
54.407249 78.719566 -0.97915733
54.56266 78.481102 -0.4827325
49.93222 85.586266 0
64 64 0
54.392296 78.703644 -0.97886932
54.55938 78.447937 -0.48200694
48.289047 88.044067 0
64 64 0
64 64 -0
54.383045 78.679039 -0.97800416
54.533382 78.449562 -0.4824425
48.254307 88.03376 0
64 64 0
54.382351 78.641472 -0.97627497
54.518784 78.433777 -0.48229751
49.714043 85.748291 0
64 64 0
54.361824 78.634155 -0.97656298
54.512783 78.404945 -0.48171693
49.518871 85.987473 0
50.228306 84.910294 0.69926274
54.346996 78.618187 -0.97627497
50.918804 83.809723 -0.66298652
49.549675 85.883087 0
50.185863 84.91967 0.70013386
54.320782 78.619438 -0.97713906
50.900612 83.785248 -0.66269654
50.701286 84.086304 0
50.120434 84.963623 0.70216554
54.314556 78.590515 -0.97598696
64 64 -0
50.665508 84.08757 0
49.994526 85.098358 0.70724499
54.319862 78.54435 -0.97368062
64 64 -0
50.664318 84.036781 0
49.992081 85.046814 0.70608389
50.898209 83.633881 -0.65921319
50.65456 83.999008 0
50.128189 84.787811 0.69795662
64 64 -0
50.880581 83.634598 -0.65950316
50.628025 84.012573 0
50.205128 84.645485 0.69345772
64 64 -0
64 64 -0
50.627029 83.961807 0
50.197552 84.60289 0.6925866
50.865036 83.555397 -0.65790707
50.60582 83.941315 0
50.17556 84.581886 0.69244158
50.844315 83.535202 -0.65776205
50.613705 83.87764 0
50.20005 84.49189 0.68997437
50.820721 83.519295 -0.65776205
50.624649 83.809692 0
50.184013 84.462296 0.68953937
50.794235 83.507652 -0.65790707
50.644493 83.728851 0
50.141827 84.471397 0.69040996
50.75317 83.517471 -0.65877759
50.608971 83.729927 0
50.061657 84.536331 0.69316715
50.738369 83.488556 -0.65834206
50.582214 83.718033 0
49.934521 84.669853 0.69824719
50.688461 83.511169 -0.65964872
50.534935 83.736206 0
47.888741 87.614822 0.79838812
50.635563 83.537956 -0.66109985
50.508148 83.724228 0
47.874886 87.573898 0.79766256
50.588448 83.556084 -0.66226095
50.499054 83.686432 0
47.855232 87.541534 0.79722703
50.555992 83.552711 -0.66269654
50.478222 83.665825 0
47.806183 87.551987 0.79824311
50.523537 83.549278 -0.66313154
50.454468 83.649475 0
47.77774 87.532402 0.79824311
50.446735 83.60994 -0.6657443
50.4189 83.650215 0
49.917999 84.374954 0.69171607
50.384575 83.649078 -0.66763097
50.389233 83.642357 0
49.896347 84.353661 0.69157106
50.298519 83.671555 -0.66951764
50.306114 83.660645 0
49.945217 84.178795 0.68678159
50.295589 83.625153 -0.66850156
50.198929 83.763573 0
49.962494 84.102158 0.6847499
50.289764 83.583038 -0.66763097
50.157154 83.772461 0
50.075317 83.889351 0.67807376
50.269108 83.562195 -0.66748542
50.133274 83.755722 0
50.23938 83.604546 0.66893041
50.221554 83.57959 -0.66864651
50.085449 83.773003 0
50.278507 83.498657 0.66588265
50.18293 83.584152 -0.66937208
50.043556 83.7817 0
50.24897 83.490547 0.66617262
50.14727 83.584419 -0.66995263
50.049728 83.722321 0
50.162411 83.563011 0.66922039
50.123615 83.567665 -0.66995263
50.089134 83.616287 0
50.081661 83.626831 0.67197818
50.111797 83.55928 -0.66995263
50.149597 83.506042 0
50.066803 83.62265 0.67212319
50.100227 83.525551 -0.66937208
50.189423 83.400253 0
49.958714 83.724342 0.6761871
50.094757 83.483368 -0.66850156
50.181107 83.362373 0
49.910736 83.741203 0.6773482
50.089363 83.4412 -0.66763097
50.139557 83.371048 0
49.832466 83.800232 0.67996043
50.090115 83.390594 -0.66646987
50.11919 83.350067 0
49.672241 83.973114 0.68649161
50.087936 83.344238 -0.66545373
50.086712 83.34594 0
49.623856 83.989525 0.68765217
50.061539 83.331619 -0.66559875
50.069427 83.320679 0
49.587555 83.989006 0.68823272
50.065586 83.276871 -0.66429263
50.070488 83.270088 0
49.539055 84.005264 0.68939382
50.078899 83.209518 -0.66255099
50.031944 83.274307 0
49.542339 83.949913 0.6880877
50.064854 83.180084 -0.66211599
47.038116 87.346031 0
49.677074 83.713814 0.68054104
50.066166 83.129623 -0.66095483
46.997662 87.342346 0
49.683868 83.65448 0.67908931
50.079842 83.062408 -0.65921319
47.05542 87.204086 0
49.672379 83.620392 0.67850935
50.087509 83.003654 -0.65776205
49.932796 83.214981 0
49.725426 83.498245 0.67488098
50.104542 82.93235 -0.65587485
49.459976 83.810562 0
49.849472 83.279877 0.66791427
50.084755 82.911362 -0.65572983
49.337334 83.927139 0
49.900093 83.162323 0.66443151
50.080418 82.869453 -0.65485924
49.276192 83.959671 0
49.920147 83.086716 0.66239929
50.085434 82.815018 -0.65355313
49.258278 83.933487 0
49.934177 83.019547 0.66065758
50.081287 82.773132 -0.65268207
49.200104 83.961655 0
49.917389 82.994194 0.66036761
50.095818 82.706253 -0.65094036
49.19463 83.918686 0
49.897545 82.973 0.66022259
50.141533 82.597771 -0.64774758
49.186119 83.879913 0
49.899475 82.922607 0.65906149
50.162609 82.522736 -0.64571589
49.137188 83.895363 0
49.917049 82.85144 0.65717483
50.17762 82.456085 -0.64397424
50.208275 82.415154 0
49.965939 82.738731 0.65383649
50.200775 82.401993 -0.64237756
50.165932 82.448448 0
49.995148 82.676201 0.65194976
50.19416 82.364532 -0.64165199
50.174923 82.390121 0
49.888271 82.771423 0.65586871
50.17823 82.339546 -0.64136201
50.193436 82.319374 0
49.693577 82.982613 0.66385096
51.728699 80.241425 -0.56850559
50.174446 82.298523 0
49.623665 83.027496 0.66602761
51.72477 80.205879 -0.56778002
50.183777 82.240311 0
49.59127 83.022545 0.6664632
51.717766 80.174477 -0.56719947
64 64 0
49.574585 82.996834 0.66617262
51.70768 80.147217 -0.56676394
50.146038 82.198593 0
49.532749 83.004211 0.66704375
51.694477 80.1241 -0.5664739
50.114582 82.19426 0
49.506649 82.990845 0.66718876
51.684479 80.096832 -0.56603837
50.098938 82.169189 0
49.467926 82.99395 0.66791427
51.665039 80.08194 -0.56603837
50.092831 82.131737 0
49.413353 83.017616 0.66936594
51.661453 80.046425 -0.5653128
50.137558 82.028275 0
49.368217 83.028809 0.67038155
51.638901 80.035614 -0.56545782
48.889244 83.602661 0
49.323021 83.039932 0.67139763
51.606827 80.037117 -0.56603837
50.106762 81.978241 0
49.277779 83.050972 0.67241377
51.574726 80.038567 -0.56661892
50.008545 82.060196 0
49.242043 83.049599 0.67299432
51.539421 80.04406 -0.56734449
64 64 0
49.183979 83.076889 0.67459041
51.49131 80.065895 -0.5686506
49.936165 82.063293 0
49.196049 83.013878 0.67299432
51.459118 80.067154 -0.56923115
49.89193 82.075012 0
49.253021 82.893562 0.66936594
55.598724 74.736794 -0.7597782
51.439713 80.051987 -0.56923115
49.645588 82.344872 0
49.291054 82.797966 0.66660815
55.563404 74.755127 -0.76179653
51.413906 80.044983 -0.56952173
49.363235 82.659218 0
49.316456 82.718857 0.66443151
55.569607 74.72052 -0.76006621
51.400959 80.021591 -0.56923115
49.360001 82.616974 0
49.248878 82.758286 0.6664632
64 64 -0
55.559856 74.706268 -0.7597782
51.388039 79.998199 -0.56894118
49.321407 82.619705 0
49.194057 82.78125 0.66791427
55.585419 74.647362 -0.75631869
51.365498 79.987022 -0.56908613
49.318275 82.577461 0
49.126255 82.820435 0.66994655
55.59824 74.617943 -0.7545895
51.352619 79.983459 -0.56923115
51.270668 80.087021 0
49.066528 82.872566 0.67212319
55.60471 74.583458 -0.75285918
51.317169 79.988518 -0.56995672
51.2383 80.087944 0
48.982368 82.93187 0.67488098
55.608025 74.55307 -0.75141799
51.294617 79.977257 -0.57010227
51.251274 80.031769 0
48.907761 82.978775 0.67720264
55.585602 74.555061 -0.75228316
51.25589 79.986267 -0.57097286
51.231911 80.01635 0
48.842728 83.013351 0.67908931
51.226845 79.98304 -0.57140839
51.228813 79.980583 0
48.806789 83.011261 0.67966992
51.181549 80.000046 -0.57256949
51.235546 79.93264 0
48.770832 83.009109 0.68025047
51.165489 79.980476 -0.57242393
51.226074 79.905045 0
48.74461 82.994759 0.68039602
51.155956 79.952827 -0.57198894
51.21666 79.877434 0
48.718414 82.980354 0.68054104
55.395287 74.661011 -0.76352572
50.053104 81.279831 -0.62017244
51.194218 79.86602 0
48.702026 82.953781 0.68025047
64 64 -0
55.346615 74.694847 -0.76669723
50.051842 81.238731 -0.61930192
51.175056 79.850533 0
48.711815 82.89489 0.67879933
55.359768 74.652237 -0.76439089
50.037575 81.213791 -0.61901134
51.162464 79.82695 0
48.744648 82.807793 0.67633212
55.38308 74.571182 -0.76006621
50.041981 81.123611 -0.61697966
51.114399 79.807976 0
48.804314 82.641968 0.67168766
55.422672 74.496689 -0.7554546
50.031166 81.09465 -0.61654413
51.098598 79.788368 0
48.798241 82.603477 0.6709621
55.373947 74.530319 -0.75862503
50.023697 81.061684 -0.61596358
51.089428 79.760681 0
48.77248 82.589111 0.67110705
64 64 -0
50.036064 81.004623 -0.61451244
51.047268 79.773232 0
48.746723 82.574722 0.67125267
55.318939 74.545387 -0.76121938
54.774822 75.206352 -0.40537721
54.832325 75.136505 0
48.757324 82.516151 0.669801
55.296322 74.54686 -0.76208454
54.781128 75.171158 -0.40450665
54.795681 75.153519 0
54.820976 75.122871 0.40275827
55.29348 74.524376 -0.76121938
54.764328 75.164009 -0.40465164
64 64 0
54.807541 75.111771 0.40275827
55.363319 74.414307 -0.75401235
54.750847 75.15284 -0.40465164
54.768753 75.131248 0
54.764267 75.136658 0.40406439
55.397034 74.348175 -0.74997681
54.730724 75.149658 -0.40494221
54.768623 75.104073 0
64 64 0
55.394478 74.325851 -0.74911165
54.710613 75.146423 -0.40523219
50.076897 80.706467 0
54.793941 75.04644 0.40159717
55.361725 74.352425 -0.75141799
50.099377 80.659019 -0.60594964
48.146107 82.999893 0
47.848881 83.356094 0.70405221
55.30608 74.393555 -0.75516552
50.055912 80.67012 -0.60696578
48.139854 82.960762 0
47.818829 83.344543 0.70434278
55.286873 74.390984 -0.75574267
48.133675 82.921646 0
47.812172 83.305054 0.70361668
55.214417 74.451714 -0.76093137
48.114166 82.898483 0
47.815598 83.253677 0.70245612
55.205124 74.437141 -0.76064336
48.047745 82.931015 0
41.651009 90.522209 0.96862769
55.182503 74.438362 -0.76150846
50.200188 80.336548 -0.59724182
50.678207 79.77066 0
41.91407 90.145851 0.9558565
55.179928 74.415855 -0.76064336
50.25098 80.23658 -0.59419405
50.659157 79.754547 0
40.881752 91.300941 0.99910557
55.164001 74.409134 -0.76093137
50.241463 80.208069 -0.59375846
50.643509 79.734436 0
42.325138 89.533783 0.93539256
55.154781 74.394508 -0.76064336
50.265671 80.139984 -0.5918718
50.631248 79.710365 0
42.358284 89.432388 0.93263531
55.155655 74.368073 -0.75949019
50.239426 80.131287 -0.59216237
50.642673 79.658569 0
42.33432 89.398308 0.93234473
55.153225 74.345581 -0.75862503
64 64 -0
50.644066 79.618668 0
42.327278 89.344475 0.93132919
55.130627 74.346664 -0.75949019
50.24107 80.050636 -0.59042066
50.645523 79.578819 0
42.563862 89.006577 0.91986358
55.118134 74.335945 -0.75949019
50.262329 79.986702 -0.58867902
50.647057 79.538994 0
42.726723 88.755989 0.91159075
55.082012 74.352646 -0.76150846
50.256592 79.954346 -0.58809847
50.648678 79.499176 0
42.791779 88.620033 0.90752745
55.05938 74.353592 -0.76237255
50.264496 79.906258 -0.58693737
50.64357 79.467278 0
42.779026 88.57473 0.90680188
55.053638 74.334969 -0.76179653
50.262291 79.87001 -0.5862118
50.641918 79.431458 0
42.783367 88.509766 0.90535021
55.034382 74.331955 -0.76237255
50.236317 79.861237 -0.58650178
50.647163 79.387779 0
42.7742 88.460571 0.90447962
55.01511 74.328934 -0.76294965
50.217163 79.844597 -0.58650178
50.642246 79.355927 0
50.190033 79.875786 0.5876562
55.002636 74.318069 -0.76294965
50.187778 79.839684 -0.58693737
50.637371 79.324097 0
50.15036 79.882599 0.58852732
54.979969 74.318863 -0.76381373
50.16523 79.826897 -0.58708233
50.639427 79.284416 0
50.179058 79.811081 0.58649564
54.970917 74.30407 -0.76352572
50.180359 79.771088 -0.58563125
50.648411 79.236946 0
50.204498 79.743546 0.58460844
54.968102 74.294724 -0.76323771
50.153702 79.782265 -0.58635676
50.652939 79.213226 0
50.205261 79.723495 0.58417344
54.921509 74.322639 -0.76612008
50.131214 79.769424 -0.58650178
50.651749 79.177551 0
44.715855 85.926926 0.81551373
54.83036 74.400917 -0.77275109
50.125916 79.737061 -0.58592123
50.654064 79.137993 0
44.716866 85.872421 0.81435263
54.790394 74.420837 -0.77505738
50.124115 79.700813 -0.58519566
50.646126 79.110153 0
44.700783 85.837418 0.8139171
54.743511 74.448418 -0.7779398
50.156837 79.625702 -0.58301902
50.641685 79.078423 0
44.681297 85.806313 0.81362706
54.706848 74.464302 -0.77995807
50.148323 79.597305 -0.58258343
50.620026 79.066154 0
44.658421 85.779053 0.81348151
54.687336 74.460785 -0.78053415
50.174404 79.530098 -0.58069676
50.605286 79.046097 0
44.618298 85.771194 0.81406206
54.667809 74.457253 -0.78111124
50.204086 79.459106 -0.57866508
50.573254 79.045433 0
44.5401 85.805923 0.8162393
54.651733 74.449821 -0.78139931
50.178493 79.450165 -0.57895511
50.541203 79.044716 0
44.437542 85.867599 0.81943208
54.62875 74.450073 -0.78226441
52.414978 76.918701 -0.48461917
50.512604 79.04007 0
44.303574 85.96389 0.82393157
54.605766 74.450272 -0.7831285
52.42717 76.873772 -0.48345804
50.487488 79.031494 0
44.217987 86.005775 0.82639879
54.603523 74.427399 -0.78226441
52.453358 76.813461 -0.48171693
50.455399 79.030624 0
44.160103 86.016594 0.82770491
54.580536 74.427536 -0.7831285
52.441376 76.795639 -0.48157138
50.426777 79.025841 0
44.126556 86.000313 0.82799488
52.439877 76.766251 -0.48099083
50.398159 79.020988 0
44.1558 85.91465 0.82567269
52.434929 76.740738 -0.48055583
50.373016 79.01226 0
44.188713 85.825241 0.82320547
52.412552 76.734436 -0.48084581
50.319862 79.034271 0
44.260273 85.69368 0.8191421
52.407684 76.708908 -0.48041028
50.294685 79.025429 0
44.272602 85.627571 0.81754541
52.409866 76.675713 -0.47968471
50.280048 79.00502 0
44.267517 85.580711 0.81667489
52.405083 76.650223 -0.47924972
50.265457 78.984589 0
50.168552 79.090309 0.57169169
52.403873 76.620895 -0.47866914
50.271999 78.941162 0
50.199547 79.02002 0.56966001
52.395679 76.59922 -0.47837859
50.303329 78.870956 0
40.87307 89.109726 0.95338875
52.401611 76.562286 -0.47750804
50.310078 78.827637 0
40.902672 89.016853 0.95092148
52.407623 76.525368 -0.47663692
50.34874 78.749962 0
40.943047 88.912659 0.94801927
52.39299 76.525993 -0.47692749
50.364597 78.714981 0
50.390461 78.687073 0.55921054
52.39909 76.489105 -0.47605637
50.470802 78.565033 0
50.376259 78.666817 0.55906552
50.712517 78.270195 -0.54455882
50.499321 78.499161 0
50.372711 78.635132 0.55848497
50.70237 78.246536 -0.54426885
50.520882 78.440979 0
50.4366 78.531265 0.55514663
50.692272 78.222862 -0.54397827
50.542549 78.382881 0
50.550407 78.374481 0.54977715
50.671543 78.210556 -0.54412329
50.578594 78.309662 0
50.582832 78.305145 0.54774493
50.679291 78.167953 -0.54310775
50.582699 78.270683 0
50.448086 78.413864 0.5525344
50.680016 78.132927 -0.54238164
50.590462 78.227943 0
50.370087 78.461769 0.55500162
50.670078 78.109268 -0.54209161
50.558979 78.226868 0
50.374031 78.42263 0.55413109
50.675385 78.035553 -0.54049492
50.560467 78.156601 0
50.535999 78.182373 0.54614884
52.352913 76.238869 -0.47184801
50.58643 78.095108 0
64 64 0
52.338135 76.224785 -0.47184801
50.587368 78.060059 0
50.519699 78.130997 0.54542327
52.337738 76.195663 -0.47126746
50.552406 78.062653 0
50.506233 78.110931 0.54527771
52.330208 76.174049 -0.47097689
50.524628 78.057648 0
64 64 0
52.319103 76.156197 -0.4708319
50.507652 78.041359 0
64 64 0
52.336868 76.108391 -0.46952578
50.461811 78.055038 0
50.523663 77.990822 0.54252046
52.347519 76.068115 -0.46850967
50.459297 78.023689 0
64 64 0
52.332947 76.054031 -0.46850967
50.496651 77.951233 0
50.511585 77.935799 0.54164934
52.365433 75.99144 -0.46662298
50.50156 77.912483 0
50.498371 77.915764 0.54150438
52.376316 75.951294 -0.46560687
50.484756 77.896164 0
50.481567 77.899445 0.54150438
52.369133 75.929802 -0.46531686
50.464333 77.88356 0
50.501053 77.845894 0.54005325
52.325634 75.959953 -0.466768
50.459595 77.871643 0
50.496319 77.834023 0.53990823
52.296654 75.960701 -0.46734855
50.420994 77.877602 0
50.497795 77.79911 0.53918213
52.3004 75.928001 -0.46662298
51.606937 76.635002 0
50.499325 77.764236 0.53845656
52.304211 75.895332 -0.46589744
51.54789 76.664558 0
50.504555 77.725693 0.53758603
52.29715 75.873779 -0.46560687
51.503365 76.679153 0
50.553638 77.642754 0.5349738
64 64 -0
58.314224 69.754898 -0.67435312
52.297421 75.844841 -0.46502632
51.495377 76.656631 0
50.577347 77.585831 0.53337711
58.359291 69.695496 -0.88789153
58.27837 69.777206 -0.67777681
52.297745 75.815926 -0.46444577
51.491085 76.630417 0
50.57922 77.55114 0.53265154
58.355991 69.685074 -0.88732922
58.336498 69.704712 -0.67007422
52.272488 75.812843 -0.46488133
51.490501 76.600517 0
50.555542 77.542282 0.53294158
58.281013 69.746696 -0.89802456
58.373066 69.654198 -0.66493863
52.261887 75.794983 -0.46473631
51.489975 76.570641 0
50.520863 77.544441 0.53366709
58.331497 69.682213 -0.88901842
